88.863419 57.758762 363.000000
88.863419 58.350269 363.000000
88.863419 58.941772 363.000000
88.863419 59.533276 363.000000
88.863419 60.124779 363.000000
88.863419 60.716286 363.000000
88.863419 61.307789 363.000000
88.863419 61.899292 363.000000
88.863419 62.490795 363.000000
88.863419 63.082298 363.000000
88.863419 63.673805 363.000000
88.863419 64.265305 363.000000
88.863419 64.856812 363.000000
88.863419 65.448318 363.000000
88.618622 65.857887 362.000000
88.618622 66.447762 362.000000
88.618622 67.037636 362.000000
88.618622 67.627510 362.000000
88.618622 68.217384 362.000000
88.618622 68.807259 362.000000
88.618622 69.397133 362.000000
88.618622 69.987007 362.000000
88.618622 70.576881 362.000000
88.618622 71.166756 362.000000
88.618622 71.756630 362.000000
88.618622 72.346504 362.000000
88.618622 72.936386 362.000000
88.618622 73.526260 362.000000
88.618622 74.116135 362.000000
88.618622 74.706009 362.000000
88.618622 75.295883 362.000000
88.618622 75.885757 362.000000
88.618622 76.475632 362.000000
88.618622 77.065506 362.000000
88.618622 77.655380 362.000000
88.618622 78.245255 362.000000
88.373817 78.617355 361.000000
88.373817 79.205597 361.000000
88.373817 79.793846 361.000000
88.373817 80.382088 361.000000
88.373817 80.970337 361.000000
88.373817 81.558578 361.000000
88.373817 82.146828 361.000000
88.373817 82.735069 361.000000
88.373817 83.323311 361.000000
88.373817 83.911560 361.000000
88.373817 84.499802 361.000000
88.618622 85.323746 362.000000
88.618622 85.913620 362.000000
88.618622 86.503494 362.000000
88.618622 87.093369 362.000000
88.373817 87.441025 361.000000
88.373817 88.029274 361.000000
88.373817 88.617516 361.000000
88.373817 89.205765 361.000000
88.373817 89.794006 361.000000
88.373817 90.382256 361.000000
88.373817 90.970497 361.000000
88.373817 91.558746 361.000000
88.373817 92.146988 361.000000
88.373817 92.735229 361.000000
88.373817 93.323479 361.000000
88.373817 93.911720 361.000000
88.373817 94.499969 361.000000
88.373817 95.088211 361.000000
88.373817 95.676460 361.000000
88.373817 96.264702 361.000000
88.373817 96.852951 361.000000
88.373817 97.441193 361.000000
88.403015 98.061821 361.119263
88.403015 98.650261 361.119263
88.403015 99.238701 361.119263
90.910179 -23.656015 368.906372
90.933243 -23.060740 369.000000
90.933243 -22.459457 369.000000
90.933243 -21.858177 369.000000
90.933243 -21.256897 369.000000
90.933243 -20.655615 369.000000
90.933243 -20.054335 369.000000
90.933243 -19.453054 369.000000
90.933243 -18.851772 369.000000
90.933243 -18.250492 369.000000
90.933243 -17.649212 369.000000
90.933243 -17.047930 369.000000
90.933243 -16.446650 369.000000
90.933243 -15.845369 369.000000
90.933243 -15.244088 369.000000
90.933243 -14.642807 369.000000
90.933243 -14.041527 369.000000
90.933243 -13.440246 369.000000
90.933243 -12.838964 369.000000
90.933243 -12.237683 369.000000
90.933243 -11.636402 369.000000
90.933243 -11.035122 369.000000
90.933243 -10.433841 369.000000
90.933243 -9.832560 369.000000
90.933243 -9.231279 369.000000
90.686813 -8.606611 368.000000
90.686813 -8.006960 368.000000
90.686813 -7.407308 368.000000
90.686813 -6.807657 368.000000
90.686813 -6.208005 368.000000
90.686813 -5.608354 368.000000
90.686813 -5.008703 368.000000
90.686813 -4.409051 368.000000
90.686813 -3.809400 368.000000
90.686813 -3.209749 368.000000
90.686813 -2.610097 368.000000
90.686813 -2.010446 368.000000
90.686813 -1.410795 368.000000
90.686813 -0.811143 368.000000
90.686813 -0.211492 368.000000
90.686813 0.388159 368.000000
90.686813 0.987811 368.000000
90.440376 1.583148 367.000000
90.440376 2.181170 367.000000
90.440376 2.779192 367.000000
90.440376 3.377214 367.000000
90.440376 3.975236 367.000000
90.193947 4.560796 366.000000
90.193947 5.157188 366.000000
90.193947 5.753581 366.000000
90.193947 6.349973 366.000000
90.193947 6.946366 366.000000
90.193947 7.542758 366.000000
90.193947 8.139151 366.000000
90.193947 8.735543 366.000000
90.193947 9.331936 366.000000
90.193947 9.928328 366.000000
90.193947 10.524720 366.000000
90.193947 11.121113 366.000000
90.193947 11.717505 366.000000
90.193947 12.313897 366.000000
90.193947 12.910290 366.000000
90.193947 13.506682 366.000000
90.193947 14.103075 366.000000
90.193947 14.699467 366.000000
90.193947 15.295859 366.000000
90.193947 15.892252 366.000000
90.193947 16.488644 366.000000
90.193947 17.085037 366.000000
90.193947 17.681429 366.000000
90.193947 18.277821 366.000000
90.193947 18.874214 366.000000
90.193947 19.470606 366.000000
90.193947 20.066998 366.000000
90.193947 20.663391 366.000000
90.193947 21.259783 366.000000
90.193947 21.856176 366.000000
90.193947 22.452568 366.000000
90.193947 23.048960 366.000000
90.193947 23.645353 366.000000
90.193947 24.241745 366.000000
90.193947 24.838137 366.000000
90.193947 25.434530 366.000000
90.193947 26.030922 366.000000
89.947517 26.554562 365.000000
89.947517 27.149324 365.000000
89.947517 27.744087 365.000000
89.947517 28.338850 365.000000
89.947517 28.933613 365.000000
89.947517 29.528376 365.000000
89.947517 30.123138 365.000000
89.947517 30.717901 365.000000
89.947517 31.312666 365.000000
89.947517 31.907429 365.000000
89.947517 32.502190 365.000000
89.947517 33.096954 365.000000
89.947517 33.691715 365.000000
89.947517 34.286480 365.000000
89.947517 34.881241 365.000000
89.947517 35.476006 365.000000
89.947517 36.070766 365.000000
89.947517 36.665531 365.000000
89.947517 37.260292 365.000000
89.947517 37.855057 365.000000
89.947517 38.449821 365.000000
89.947517 39.044582 365.000000
89.947517 39.639347 365.000000
89.947517 40.234108 365.000000
89.947517 40.828873 365.000000
89.947517 41.423634 365.000000
89.947517 42.018398 365.000000
89.947517 42.613159 365.000000
89.947517 43.207924 365.000000
89.947517 43.802685 365.000000
89.947517 44.397449 365.000000
89.701088 44.868946 364.000000
89.701088 45.462078 364.000000
89.701088 46.055214 364.000000
89.701088 46.648346 364.000000
89.701088 47.241482 364.000000
89.701088 47.834614 364.000000
89.701088 48.427746 364.000000
89.701088 49.020882 364.000000
89.701088 49.614014 364.000000
89.701088 50.207146 364.000000
89.701088 50.800282 364.000000
89.701088 51.393414 364.000000
89.701088 51.986546 364.000000
89.701088 52.579681 364.000000
89.701088 53.172813 364.000000
89.701088 53.765949 364.000000
89.701088 54.359081 364.000000
89.454651 54.801243 363.000000
89.454651 55.392750 363.000000
89.454651 55.984253 363.000000
89.454651 56.575756 363.000000
89.454651 57.167259 363.000000
89.454651 57.758762 363.000000
89.454651 58.350269 363.000000
89.454651 58.941772 363.000000
89.454651 59.533276 363.000000
89.454651 60.124779 363.000000
89.454651 60.716286 363.000000
89.454651 61.307789 363.000000
89.454651 61.899292 363.000000
89.454651 62.490795 363.000000
89.454651 63.082298 363.000000
89.454651 63.673805 363.000000
89.454651 64.265305 363.000000
89.454651 64.856812 363.000000
89.454651 65.448318 363.000000
89.208221 65.857887 362.000000
89.208221 66.447762 362.000000
89.208221 67.037636 362.000000
89.208221 67.627510 362.000000
89.208221 68.217384 362.000000
89.208221 68.807259 362.000000
89.208221 69.397133 362.000000
89.208221 69.987007 362.000000
89.208221 70.576881 362.000000
89.208221 71.166756 362.000000
89.208221 71.756630 362.000000
89.208221 72.346504 362.000000
89.208221 72.936386 362.000000
89.208221 73.526260 362.000000
89.208221 74.116135 362.000000
89.208221 74.706009 362.000000
89.208221 75.295883 362.000000
89.208221 75.885757 362.000000
89.208221 76.475632 362.000000
89.208221 77.065506 362.000000
89.208221 77.655380 362.000000
89.208221 78.245255 362.000000
88.961792 78.617355 361.000000
88.961792 79.205597 361.000000
88.961792 79.793846 361.000000
88.961792 80.382088 361.000000
88.961792 80.970337 361.000000
88.961792 81.558578 361.000000
88.961792 82.146828 361.000000
88.961792 82.735069 361.000000
88.961792 83.323311 361.000000
88.961792 83.911560 361.000000
88.961792 84.499802 361.000000
89.208221 85.323746 362.000000
89.208221 85.913620 362.000000
89.208221 86.503494 362.000000
89.208221 87.093369 362.000000
88.961792 87.441025 361.000000
88.961792 88.029274 361.000000
88.961792 88.617516 361.000000
88.961792 89.205765 361.000000
88.961792 89.794006 361.000000
88.961792 90.382256 361.000000
88.961792 90.970497 361.000000
88.961792 91.558746 361.000000
88.961792 92.146988 361.000000
88.961792 92.735229 361.000000
88.961792 93.323479 361.000000
88.961792 93.911720 361.000000
88.961792 94.499969 361.000000
88.961792 95.088211 361.000000
88.961792 95.676460 361.000000
88.961792 96.264702 361.000000
88.961792 96.852951 361.000000
88.961792 97.441193 361.000000
88.991180 98.061821 361.119263
88.991180 98.650261 361.119263
88.991180 99.238701 361.119263
91.511032 -23.656015 368.906372
91.534248 -23.060740 369.000000
91.534248 -22.459457 369.000000
91.534248 -21.858177 369.000000
91.534248 -21.256897 369.000000
91.534248 -20.655615 369.000000
91.534248 -20.054335 369.000000
91.534248 -19.453054 369.000000
91.534248 -18.851772 369.000000
91.534248 -18.250492 369.000000
91.534248 -17.649212 369.000000
91.534248 -17.047930 369.000000
91.534248 -16.446650 369.000000
91.534248 -15.845369 369.000000
91.534248 -15.244088 369.000000
91.534248 -14.642807 369.000000
91.534248 -14.041527 369.000000
91.534248 -13.440246 369.000000
91.534248 -12.838964 369.000000
91.534248 -12.237683 369.000000
91.534248 -11.636402 369.000000
91.534248 -11.035122 369.000000
91.534248 -10.433841 369.000000
91.534248 -9.832560 369.000000
91.534248 -9.231279 369.000000
91.286194 -8.606611 368.000000
91.286194 -8.006960 368.000000
91.286194 -7.407308 368.000000
91.286194 -6.807657 368.000000
91.286194 -6.208005 368.000000
91.286194 -5.608354 368.000000
91.286194 -5.008703 368.000000
91.286194 -4.409051 368.000000
91.286194 -3.809400 368.000000
91.286194 -3.209749 368.000000
91.286194 -2.610097 368.000000
91.286194 -2.010446 368.000000
91.286194 -1.410795 368.000000
91.286194 -0.811143 368.000000
91.286194 -0.211492 368.000000
91.286194 0.388159 368.000000
91.286194 0.987811 368.000000
91.038132 1.583148 367.000000
91.038132 2.181170 367.000000
91.038132 2.779192 367.000000
90.790070 3.368011 366.000000
90.790070 3.964404 366.000000
90.790070 4.560796 366.000000
90.790070 5.157188 366.000000
90.790070 5.753581 366.000000
90.790070 6.349973 366.000000
90.790070 6.946366 366.000000
90.790070 7.542758 366.000000
90.790070 8.139151 366.000000
90.790070 8.735543 366.000000
90.790070 9.331936 366.000000
90.790070 9.928328 366.000000
90.790070 10.524720 366.000000
90.790070 11.121113 366.000000
90.790070 11.717505 366.000000
90.790070 12.313897 366.000000
90.790070 12.910290 366.000000
90.790070 13.506682 366.000000
90.790070 14.103075 366.000000
90.790070 14.699467 366.000000
90.790070 15.295859 366.000000
90.790070 15.892252 366.000000
90.790070 16.488644 366.000000
90.790070 17.085037 366.000000
90.790070 17.681429 366.000000
90.790070 18.277821 366.000000
90.790070 18.874214 366.000000
90.790070 19.470606 366.000000
90.790070 20.066998 366.000000
90.790070 20.663391 366.000000
90.790070 21.259783 366.000000
90.790070 21.856176 366.000000
90.790070 22.452568 366.000000
90.790070 23.048960 366.000000
90.790070 23.645353 366.000000
90.790070 24.241745 366.000000
90.542007 24.770273 365.000000
90.542007 25.365036 365.000000
90.542007 25.959799 365.000000
90.542007 26.554562 365.000000
90.542007 27.149324 365.000000
90.542007 27.744087 365.000000
90.542007 28.338850 365.000000
90.542007 28.933613 365.000000
90.542007 29.528376 365.000000
90.542007 30.123138 365.000000
90.542007 30.717901 365.000000
90.542007 31.312666 365.000000
90.542007 31.907429 365.000000
90.542007 32.502190 365.000000
90.542007 33.096954 365.000000
90.542007 33.691715 365.000000
90.542007 34.286480 365.000000
90.542007 34.881241 365.000000
90.542007 35.476006 365.000000
90.542007 36.070766 365.000000
90.542007 36.665531 365.000000
90.542007 37.260292 365.000000
90.542007 37.855057 365.000000
90.542007 38.449821 365.000000
90.542007 39.044582 365.000000
90.542007 39.639347 365.000000
90.542007 40.234108 365.000000
90.542007 40.828873 365.000000
90.542007 41.423634 365.000000
90.542007 42.018398 365.000000
90.542007 42.613159 365.000000
90.542007 43.207924 365.000000
90.542007 43.802685 365.000000
90.542007 44.397449 365.000000
90.542007 44.992210 365.000000
90.542007 45.586975 365.000000
90.542007 46.181736 365.000000
90.542007 46.776501 365.000000
90.293953 47.241482 364.000000
90.293953 47.834614 364.000000
90.293953 48.427746 364.000000
90.293953 49.020882 364.000000
90.293953 49.614014 364.000000
90.293953 50.207146 364.000000
90.293953 50.800282 364.000000
90.293953 51.393414 364.000000
90.293953 51.986546 364.000000
90.293953 52.579681 364.000000
90.293953 53.172813 364.000000
90.293953 53.765949 364.000000
90.293953 54.359081 364.000000
90.045891 54.801243 363.000000
90.045891 55.392750 363.000000
90.045891 55.984253 363.000000
90.045891 56.575756 363.000000
90.045891 57.167259 363.000000
90.045891 57.758762 363.000000
90.045891 58.350269 363.000000
90.045891 58.941772 363.000000
90.045891 59.533276 363.000000
90.045891 60.124779 363.000000
90.045891 60.716286 363.000000
90.045891 61.307789 363.000000
90.045891 61.899292 363.000000
90.045891 62.490795 363.000000
90.045891 63.082298 363.000000
90.045891 63.673805 363.000000
90.045891 64.265305 363.000000
90.045891 64.856812 363.000000
90.045891 65.448318 363.000000
90.045891 66.039818 363.000000
90.045891 66.631325 363.000000
89.797829 67.037636 362.000000
89.797829 67.627510 362.000000
89.797829 68.217384 362.000000
89.797829 68.807259 362.000000
89.797829 69.397133 362.000000
89.797829 69.987007 362.000000
89.797829 70.576881 362.000000
89.797829 71.166756 362.000000
89.797829 71.756630 362.000000
89.797829 72.346504 362.000000
89.797829 72.936386 362.000000
89.797829 73.526260 362.000000
89.797829 74.116135 362.000000
89.797829 74.706009 362.000000
89.797829 75.295883 362.000000
89.797829 75.885757 362.000000
89.797829 76.475632 362.000000
89.797829 77.065506 362.000000
89.797829 77.655380 362.000000
89.797829 78.245255 362.000000
89.549767 78.617355 361.000000
89.549767 79.205597 361.000000
89.549767 79.793846 361.000000
89.549767 80.382088 361.000000
89.549767 80.970337 361.000000
89.549767 81.558578 361.000000
89.549767 82.146828 361.000000
89.549767 82.735069 361.000000
89.549767 83.323311 361.000000
89.549767 83.911560 361.000000
89.549767 84.499802 361.000000
89.797829 85.323746 362.000000
89.797829 85.913620 362.000000
89.797829 86.503494 362.000000
89.797829 87.093369 362.000000
89.549767 87.441025 361.000000
89.549767 88.029274 361.000000
89.549767 88.617516 361.000000
89.549767 89.205765 361.000000
89.549767 89.794006 361.000000
89.549767 90.382256 361.000000
89.549767 90.970497 361.000000
89.549767 91.558746 361.000000
89.549767 92.146988 361.000000
89.549767 92.735229 361.000000
89.549767 93.323479 361.000000
89.549767 93.911720 361.000000
89.549767 94.499969 361.000000
89.549767 95.088211 361.000000
89.549767 95.676460 361.000000
89.549767 96.264702 361.000000
89.562172 96.866356 361.049988
89.562172 97.454681 361.049988
89.578217 98.060577 361.114685
89.578217 98.649010 361.114685
89.578217 99.237442 361.114685
92.113808 -23.656511 368.914093
92.116547 -23.056055 368.925049
92.116547 -22.454895 368.925049
92.135254 -21.858177 369.000000
92.135254 -21.256897 369.000000
92.135254 -20.655615 369.000000
92.135254 -20.054335 369.000000
92.135254 -19.453054 369.000000
92.135254 -18.851772 369.000000
92.135254 -18.250492 369.000000
92.135254 -17.649212 369.000000
92.135254 -17.047930 369.000000
92.135254 -16.446650 369.000000
92.135254 -15.845369 369.000000
92.135254 -15.244088 369.000000
92.135254 -14.642807 369.000000
92.135254 -14.041527 369.000000
92.135254 -13.440246 369.000000
92.135254 -12.838964 369.000000
92.135254 -12.237683 369.000000
92.135254 -11.636402 369.000000
92.135254 -11.035122 369.000000
92.135254 -10.433841 369.000000
91.885567 -9.805914 368.000000
91.885567 -9.206263 368.000000
91.885567 -8.606611 368.000000
91.885567 -8.006960 368.000000
91.885567 -7.407308 368.000000
91.885567 -6.807657 368.000000
91.885567 -6.208005 368.000000
91.885567 -5.608354 368.000000
91.885567 -5.008703 368.000000
91.885567 -4.409051 368.000000
91.885567 -3.809400 368.000000
91.885567 -3.209749 368.000000
91.885567 -2.610097 368.000000
91.885567 -2.010446 368.000000
91.885567 -1.410795 368.000000
91.885567 -0.811143 368.000000
91.885567 -0.211492 368.000000
91.885567 0.388159 368.000000
91.885567 0.987811 368.000000
91.635880 1.583148 367.000000
91.635880 2.181170 367.000000
91.635880 2.779192 367.000000
91.386192 3.368011 366.000000
91.386192 3.964404 366.000000
91.386192 4.560796 366.000000
91.386192 5.157188 366.000000
91.386192 5.753581 366.000000
91.386192 6.349973 366.000000
91.386192 6.946366 366.000000
91.386192 7.542758 366.000000
91.386192 8.139151 366.000000
91.386192 8.735543 366.000000
91.386192 9.331936 366.000000
91.386192 9.928328 366.000000
91.386192 10.524720 366.000000
91.386192 11.121113 366.000000
91.386192 11.717505 366.000000
91.386192 12.313897 366.000000
91.386192 12.910290 366.000000
91.386192 13.506682 366.000000
91.386192 14.103075 366.000000
91.386192 14.699467 366.000000
91.386192 15.295859 366.000000
91.386192 15.892252 366.000000
91.386192 16.488644 366.000000
91.386192 17.085037 366.000000
91.386192 17.681429 366.000000
91.386192 18.277821 366.000000
91.386192 18.874214 366.000000
91.386192 19.470606 366.000000
91.386192 20.066998 366.000000
91.386192 20.663391 366.000000
91.386192 21.259783 366.000000
91.386192 21.856176 366.000000
91.386192 22.452568 366.000000
91.386192 23.048960 366.000000
91.386192 23.645353 366.000000
91.386192 24.241745 366.000000
91.136505 24.770273 365.000000
91.136505 25.365036 365.000000
91.136505 25.959799 365.000000
91.136505 26.554562 365.000000
91.136505 27.149324 365.000000
91.136505 27.744087 365.000000
91.136505 28.338850 365.000000
91.136505 28.933613 365.000000
91.136505 29.528376 365.000000
91.136505 30.123138 365.000000
91.136505 30.717901 365.000000
91.136505 31.312666 365.000000
91.136505 31.907429 365.000000
91.136505 32.502190 365.000000
91.136505 33.096954 365.000000
91.136505 33.691715 365.000000
91.136505 34.286480 365.000000
91.136505 34.881241 365.000000
91.136505 35.476006 365.000000
91.136505 36.070766 365.000000
91.136505 36.665531 365.000000
91.136505 37.260292 365.000000
91.136505 37.855057 365.000000
91.136505 38.449821 365.000000
91.136505 39.044582 365.000000
91.136505 39.639347 365.000000
91.136505 40.234108 365.000000
91.136505 40.828873 365.000000
91.136505 41.423634 365.000000
91.136505 42.018398 365.000000
91.136505 42.613159 365.000000
91.136505 43.207924 365.000000
91.136505 43.802685 365.000000
91.136505 44.397449 365.000000
91.136505 44.992210 365.000000
91.136505 45.586975 365.000000
91.136505 46.181736 365.000000
91.136505 46.776501 365.000000
90.886810 47.241482 364.000000
90.886810 47.834614 364.000000
90.886810 48.427746 364.000000
90.886810 49.020882 364.000000
90.886810 49.614014 364.000000
90.886810 50.207146 364.000000
90.886810 50.800282 364.000000
90.886810 51.393414 364.000000
90.886810 51.986546 364.000000
90.886810 52.579681 364.000000
90.886810 53.172813 364.000000
90.886810 53.765949 364.000000
90.886810 54.359081 364.000000
90.637123 54.801243 363.000000
90.637123 55.392750 363.000000
90.637123 55.984253 363.000000
90.637123 56.575756 363.000000
90.637123 57.167259 363.000000
90.637123 57.758762 363.000000
90.637123 58.350269 363.000000
90.637123 58.941772 363.000000
90.637123 59.533276 363.000000
90.637123 60.124779 363.000000
90.637123 60.716286 363.000000
90.637123 61.307789 363.000000
90.637123 61.899292 363.000000
90.637123 62.490795 363.000000
90.637123 63.082298 363.000000
90.637123 63.673805 363.000000
90.637123 64.265305 363.000000
90.637123 64.856812 363.000000
90.637123 65.448318 363.000000
90.637123 66.039818 363.000000
90.637123 66.631325 363.000000
90.637123 67.222824 363.000000
90.387436 67.627510 362.000000
90.387436 68.217384 362.000000
90.387436 68.807259 362.000000
90.387436 69.397133 362.000000
90.387436 69.987007 362.000000
90.387436 70.576881 362.000000
90.387436 71.166756 362.000000
90.387436 71.756630 362.000000
90.387436 72.346504 362.000000
90.387436 72.936386 362.000000
90.387436 73.526260 362.000000
90.387436 74.116135 362.000000
90.387436 74.706009 362.000000
90.387436 75.295883 362.000000
90.387436 75.885757 362.000000
90.387436 76.475632 362.000000
90.387436 77.065506 362.000000
90.387436 77.655380 362.000000
90.387436 78.245255 362.000000
90.137749 78.617355 361.000000
90.137749 79.205597 361.000000
90.137749 79.793846 361.000000
90.137749 80.382088 361.000000
90.137749 80.970337 361.000000
90.137749 81.558578 361.000000
90.137749 82.146828 361.000000
90.137749 82.735069 361.000000
90.137749 83.323311 361.000000
90.387436 84.143997 362.000000
90.387436 84.733871 362.000000
90.387436 85.323746 362.000000
90.387436 85.913620 362.000000
90.387436 86.503494 362.000000
90.137749 86.852783 361.000000
90.137749 87.441025 361.000000
90.137749 88.029274 361.000000
90.137749 88.617516 361.000000
90.137749 89.205765 361.000000
90.137749 89.794006 361.000000
90.137749 90.382256 361.000000
90.137749 90.970497 361.000000
90.137749 91.558746 361.000000
90.137749 92.146988 361.000000
90.137749 92.735229 361.000000
90.137749 93.323479 361.000000
90.137749 93.911720 361.000000
90.137749 94.499969 361.000000
90.137749 95.088211 361.000000
90.137749 95.676460 361.000000
90.137749 96.264702 361.000000
90.150230 96.866356 361.049988
90.150230 97.454681 361.049988
90.166382 98.060577 361.114685
90.166382 98.649010 361.114685
90.166382 99.237442 361.114685
92.714676 -23.656511 368.914093
92.717422 -23.056055 368.925049
92.717422 -22.454895 368.925049
92.736259 -21.858177 369.000000
92.736259 -21.256897 369.000000
92.736259 -20.655615 369.000000
92.736259 -20.054335 369.000000
92.736259 -19.453054 369.000000
92.736259 -18.851772 369.000000
92.736259 -18.250492 369.000000
92.736259 -17.649212 369.000000
92.736259 -17.047930 369.000000
92.736259 -16.446650 369.000000
92.736259 -15.845369 369.000000
92.736259 -15.244088 369.000000
92.736259 -14.642807 369.000000
92.736259 -14.041527 369.000000
92.736259 -13.440246 369.000000
92.736259 -12.838964 369.000000
92.736259 -12.237683 369.000000
92.736259 -11.636402 369.000000
92.736259 -11.035122 369.000000
92.484947 -10.405565 368.000000
92.484947 -9.805914 368.000000
92.484947 -9.206263 368.000000
92.484947 -8.606611 368.000000
92.484947 -8.006960 368.000000
92.484947 -7.407308 368.000000
92.484947 -6.807657 368.000000
92.484947 -6.208005 368.000000
92.484947 -5.608354 368.000000
92.484947 -5.008703 368.000000
92.484947 -4.409051 368.000000
92.484947 -3.809400 368.000000
92.484947 -3.209749 368.000000
92.484947 -2.610097 368.000000
92.484947 -2.010446 368.000000
92.484947 -1.410795 368.000000
92.484947 -0.811143 368.000000
92.484947 -0.211492 368.000000
92.484947 0.388159 368.000000
92.484947 0.987811 368.000000
92.233627 1.583148 367.000000
92.233627 2.181170 367.000000
92.233627 2.779192 367.000000
91.982307 3.368011 366.000000
91.982307 3.964404 366.000000
91.982307 4.560796 366.000000
91.982307 5.157188 366.000000
91.982307 5.753581 366.000000
91.982307 6.349973 366.000000
91.982307 6.946366 366.000000
91.982307 7.542758 366.000000
91.982307 8.139151 366.000000
91.982307 8.735543 366.000000
91.982307 9.331936 366.000000
91.982307 9.928328 366.000000
91.982307 10.524720 366.000000
91.982307 11.121113 366.000000
91.982307 11.717505 366.000000
91.982307 12.313897 366.000000
91.982307 12.910290 366.000000
91.982307 13.506682 366.000000
91.982307 14.103075 366.000000
91.982307 14.699467 366.000000
91.982307 15.295859 366.000000
91.982307 15.892252 366.000000
91.982307 16.488644 366.000000
91.982307 17.085037 366.000000
91.982307 17.681429 366.000000
91.982307 18.277821 366.000000
91.982307 18.874214 366.000000
91.982307 19.470606 366.000000
91.982307 20.066998 366.000000
91.982307 20.663391 366.000000
91.982307 21.259783 366.000000
91.982307 21.856176 366.000000
91.982307 22.452568 366.000000
91.982307 23.048960 366.000000
91.730995 23.580748 365.000000
91.730995 24.175510 365.000000
91.730995 24.770273 365.000000
91.730995 25.365036 365.000000
91.730995 25.959799 365.000000
91.730995 26.554562 365.000000
91.730995 27.149324 365.000000
91.730995 27.744087 365.000000
91.730995 28.338850 365.000000
91.730995 28.933613 365.000000
91.730995 29.528376 365.000000
91.730995 30.123138 365.000000
91.730995 30.717901 365.000000
91.730995 31.312666 365.000000
91.730995 31.907429 365.000000
91.730995 32.502190 365.000000
91.730995 33.096954 365.000000
91.730995 33.691715 365.000000
91.730995 34.286480 365.000000
91.730995 34.881241 365.000000
91.730995 35.476006 365.000000
91.730995 36.070766 365.000000
91.730995 36.665531 365.000000
91.730995 37.260292 365.000000
91.730995 37.855057 365.000000
91.730995 38.449821 365.000000
91.730995 39.044582 365.000000
91.730995 39.639347 365.000000
91.730995 40.234108 365.000000
91.730995 40.828873 365.000000
91.730995 41.423634 365.000000
91.730995 42.018398 365.000000
91.730995 42.613159 365.000000
91.730995 43.207924 365.000000
91.730995 43.802685 365.000000
91.730995 44.397449 365.000000
91.730995 44.992210 365.000000
91.730995 45.586975 365.000000
91.730995 46.181736 365.000000
91.730995 46.776501 365.000000
91.479675 47.241482 364.000000
91.479675 47.834614 364.000000
91.479675 48.427746 364.000000
91.479675 49.020882 364.000000
91.479675 49.614014 364.000000
91.479675 50.207146 364.000000
91.479675 50.800282 364.000000
91.479675 51.393414 364.000000
91.479675 51.986546 364.000000
91.479675 52.579681 364.000000
91.479675 53.172813 364.000000
91.479675 53.765949 364.000000
91.479675 54.359081 364.000000
91.228355 54.801243 363.000000
91.228355 55.392750 363.000000
91.228355 55.984253 363.000000
91.228355 56.575756 363.000000
91.228355 57.167259 363.000000
91.228355 57.758762 363.000000
91.228355 58.350269 363.000000
91.228355 58.941772 363.000000
91.228355 59.533276 363.000000
91.228355 60.124779 363.000000
91.228355 60.716286 363.000000
91.228355 61.307789 363.000000
91.228355 61.899292 363.000000
91.228355 62.490795 363.000000
91.228355 63.082298 363.000000
91.228355 63.673805 363.000000
91.228355 64.265305 363.000000
91.228355 64.856812 363.000000
91.228355 65.448318 363.000000
91.228355 66.039818 363.000000
91.228355 66.631325 363.000000
91.228355 67.222824 363.000000
90.977036 67.627510 362.000000
90.977036 68.217384 362.000000
90.977036 68.807259 362.000000
90.977036 69.397133 362.000000
90.977036 69.987007 362.000000
90.977036 70.576881 362.000000
90.977036 71.166756 362.000000
90.977036 71.756630 362.000000
90.977036 72.346504 362.000000
90.977036 72.936386 362.000000
90.977036 73.526260 362.000000
90.977036 74.116135 362.000000
90.977036 74.706009 362.000000
90.977036 75.295883 362.000000
90.977036 75.885757 362.000000
90.977036 76.475632 362.000000
90.977036 77.065506 362.000000
90.977036 77.655380 362.000000
90.977036 78.245255 362.000000
90.725723 78.617355 361.000000
90.725723 79.205597 361.000000
90.725723 79.793846 361.000000
90.725723 80.382088 361.000000
90.725723 80.970337 361.000000
90.725723 81.558578 361.000000
90.725723 82.146828 361.000000
90.725723 82.735069 361.000000
90.725723 83.323311 361.000000
90.977036 84.143997 362.000000
90.977036 84.733871 362.000000
90.977036 85.323746 362.000000
90.977036 85.913620 362.000000
90.977036 86.503494 362.000000
90.725723 86.852783 361.000000
90.725723 87.441025 361.000000
90.725723 88.029274 361.000000
90.725723 88.617516 361.000000
90.725723 89.205765 361.000000
90.725723 89.794006 361.000000
90.725723 90.382256 361.000000
90.725723 90.970497 361.000000
90.725723 91.558746 361.000000
90.725723 92.146988 361.000000
90.725723 92.735229 361.000000
90.725723 93.323479 361.000000
90.725723 93.911720 361.000000
90.725723 94.499969 361.000000
90.725723 95.088211 361.000000
90.725723 95.676460 361.000000
90.725723 96.264702 361.000000
90.738281 96.866356 361.049988
90.738281 97.454681 361.049988
90.754539 98.060577 361.114685
90.754539 98.649010 361.114685
90.754539 99.237442 361.114685
93.315544 -23.656511 368.914093
93.318306 -23.056055 368.925049
93.318306 -22.454895 368.925049
93.337265 -21.858177 369.000000
93.337265 -21.256897 369.000000
93.337265 -20.655615 369.000000
93.337265 -20.054335 369.000000
93.337265 -19.453054 369.000000
93.337265 -18.851772 369.000000
93.337265 -18.250492 369.000000
93.337265 -17.649212 369.000000
93.337265 -17.047930 369.000000
93.337265 -16.446650 369.000000
93.337265 -15.845369 369.000000
93.337265 -15.244088 369.000000
93.337265 -14.642807 369.000000
93.337265 -14.041527 369.000000
93.337265 -13.440246 369.000000
93.337265 -12.838964 369.000000
93.337265 -12.237683 369.000000
93.337265 -11.636402 369.000000
93.337265 -11.035122 369.000000
93.084320 -10.405565 368.000000
93.084320 -9.805914 368.000000
93.084320 -9.206263 368.000000
93.084320 -8.606611 368.000000
93.084320 -8.006960 368.000000
93.084320 -7.407308 368.000000
93.084320 -6.807657 368.000000
93.084320 -6.208005 368.000000
93.084320 -5.608354 368.000000
93.084320 -5.008703 368.000000
93.084320 -4.409051 368.000000
93.084320 -3.809400 368.000000
93.084320 -3.209749 368.000000
93.084320 -2.610097 368.000000
93.084320 -2.010446 368.000000
93.084320 -1.410795 368.000000
93.084320 -0.811143 368.000000
93.084320 -0.211492 368.000000
93.084320 0.388159 368.000000
92.831375 0.985126 367.000000
92.831375 1.583148 367.000000
92.831375 2.181170 367.000000
92.578430 2.771619 366.000000
92.578430 3.368011 366.000000
92.578430 3.964404 366.000000
92.578430 4.560796 366.000000
92.578430 5.157188 366.000000
92.578430 5.753581 366.000000
92.578430 6.349973 366.000000
92.578430 6.946366 366.000000
92.578430 7.542758 366.000000
92.578430 8.139151 366.000000
92.578430 8.735543 366.000000
92.578430 9.331936 366.000000
92.578430 9.928328 366.000000
92.578430 10.524720 366.000000
92.578430 11.121113 366.000000
92.578430 11.717505 366.000000
92.578430 12.313897 366.000000
92.578430 12.910290 366.000000
92.578430 13.506682 366.000000
92.578430 14.103075 366.000000
92.578430 14.699467 366.000000
92.578430 15.295859 366.000000
92.578430 15.892252 366.000000
92.578430 16.488644 366.000000
92.578430 17.085037 366.000000
92.578430 17.681429 366.000000
92.578430 18.277821 366.000000
92.578430 18.874214 366.000000
92.578430 19.470606 366.000000
92.578430 20.066998 366.000000
92.578430 20.663391 366.000000
92.578430 21.259783 366.000000
92.578430 21.856176 366.000000
92.578430 22.452568 366.000000
92.325485 22.985985 365.000000
92.325485 23.580748 365.000000
92.325485 24.175510 365.000000
92.325485 24.770273 365.000000
92.325485 25.365036 365.000000
92.325485 25.959799 365.000000
92.325485 26.554562 365.000000
92.325485 27.149324 365.000000
92.325485 27.744087 365.000000
92.325485 28.338850 365.000000
92.325485 28.933613 365.000000
92.325485 29.528376 365.000000
92.325485 30.123138 365.000000
92.325485 30.717901 365.000000
92.325485 31.312666 365.000000
92.325485 31.907429 365.000000
92.325485 32.502190 365.000000
92.325485 33.096954 365.000000
92.325485 33.691715 365.000000
92.325485 34.286480 365.000000
92.325485 34.881241 365.000000
92.325485 35.476006 365.000000
92.325485 36.070766 365.000000
92.325485 36.665531 365.000000
92.325485 37.260292 365.000000
92.325485 37.855057 365.000000
92.325485 38.449821 365.000000
92.325485 39.044582 365.000000
92.325485 39.639347 365.000000
92.325485 40.234108 365.000000
92.325485 40.828873 365.000000
92.325485 41.423634 365.000000
92.325485 42.018398 365.000000
92.325485 42.613159 365.000000
92.325485 43.207924 365.000000
92.072540 43.682678 364.000000
92.072540 44.275814 364.000000
92.072540 44.868946 364.000000
92.072540 45.462078 364.000000
92.072540 46.055214 364.000000
92.072540 46.648346 364.000000
92.072540 47.241482 364.000000
92.072540 47.834614 364.000000
92.072540 48.427746 364.000000
92.072540 49.020882 364.000000
92.072540 49.614014 364.000000
92.072540 50.207146 364.000000
92.072540 50.800282 364.000000
92.072540 51.393414 364.000000
92.072540 51.986546 364.000000
92.072540 52.579681 364.000000
92.072540 53.172813 364.000000
92.072540 53.765949 364.000000
92.072540 54.359081 364.000000
91.819588 54.801243 363.000000
91.819588 55.392750 363.000000
91.819588 55.984253 363.000000
91.819588 56.575756 363.000000
91.819588 57.167259 363.000000
91.819588 57.758762 363.000000
91.819588 58.350269 363.000000
91.819588 58.941772 363.000000
91.819588 59.533276 363.000000
91.819588 60.124779 363.000000
91.819588 60.716286 363.000000
91.819588 61.307789 363.000000
91.819588 61.899292 363.000000
91.819588 62.490795 363.000000
91.819588 63.082298 363.000000
91.819588 63.673805 363.000000
91.819588 64.265305 363.000000
91.819588 64.856812 363.000000
91.819588 65.448318 363.000000
91.819588 66.039818 363.000000
91.819588 66.631325 363.000000
91.819588 67.222824 363.000000
91.819588 67.814331 363.000000
91.819588 68.405838 363.000000
91.566643 68.807259 362.000000
91.566643 69.397133 362.000000
91.566643 69.987007 362.000000
91.566643 70.576881 362.000000
91.566643 71.166756 362.000000
91.566643 71.756630 362.000000
91.566643 72.346504 362.000000
91.566643 72.936386 362.000000
91.566643 73.526260 362.000000
91.566643 74.116135 362.000000
91.566643 74.706009 362.000000
91.566643 75.295883 362.000000
91.566643 75.885757 362.000000
91.566643 76.475632 362.000000
91.566643 77.065506 362.000000
91.566643 77.655380 362.000000
91.566643 78.245255 362.000000
91.313698 78.617355 361.000000
91.313698 79.205597 361.000000
91.313698 79.793846 361.000000
91.313698 80.382088 361.000000
91.313698 80.970337 361.000000
91.313698 81.558578 361.000000
91.313698 82.146828 361.000000
91.313698 82.735069 361.000000
91.566643 83.554123 362.000000
91.566643 84.143997 362.000000
91.566643 84.733871 362.000000
91.566643 85.323746 362.000000
91.566643 85.913620 362.000000
91.566643 86.503494 362.000000
91.313698 86.852783 361.000000
91.313698 87.441025 361.000000
91.313698 88.029274 361.000000
91.313698 88.617516 361.000000
91.313698 89.205765 361.000000
91.313698 89.794006 361.000000
91.313698 90.382256 361.000000
91.313698 90.970497 361.000000
91.313698 91.558746 361.000000
91.313698 92.146988 361.000000
91.313698 92.735229 361.000000
91.313698 93.323479 361.000000
91.313698 93.911720 361.000000
91.313698 94.499969 361.000000
91.313698 95.088211 361.000000
91.313698 95.676460 361.000000
91.313698 96.264702 361.000000
91.314362 96.853645 361.002625
91.314362 97.441902 361.002625
91.330910 98.047913 361.068054
91.330910 98.636269 361.068054
91.330910 99.224625 361.068054
93.812546 -23.630348 368.506104
93.812546 -23.029873 368.506104
93.812546 -22.429398 368.506104
93.822601 -21.831261 368.545624
93.822601 -21.230721 368.545624
93.822601 -20.630180 368.545624
93.683701 -19.999987 368.000000
93.683701 -19.400335 368.000000
93.683701 -18.800684 368.000000
93.683701 -18.201033 368.000000
93.683701 -17.601381 368.000000
93.683701 -17.001730 368.000000
93.683701 -16.402079 368.000000
93.683701 -15.802428 368.000000
93.683701 -15.202777 368.000000
93.683701 -14.603126 368.000000
93.938271 -14.041527 369.000000
93.938271 -13.440246 369.000000
93.938271 -12.838964 369.000000
93.938271 -12.237683 369.000000
93.683701 -11.604868 368.000000
93.683701 -11.005217 368.000000
93.683701 -10.405565 368.000000
93.683701 -9.805914 368.000000
93.683701 -9.206263 368.000000
93.683701 -8.606611 368.000000
93.683701 -8.006960 368.000000
93.683701 -7.407308 368.000000
93.683701 -6.807657 368.000000
93.683701 -6.208005 368.000000
93.683701 -5.608354 368.000000
93.683701 -5.008703 368.000000
93.683701 -4.409051 368.000000
93.683701 -3.809400 368.000000
93.683701 -3.209749 368.000000
93.683701 -2.610097 368.000000
93.683701 -2.010446 368.000000
93.683701 -1.410795 368.000000
93.683701 -0.811143 368.000000
93.683701 -0.211492 368.000000
93.683701 0.388159 368.000000
93.429123 0.985126 367.000000
93.429123 1.583148 367.000000
93.429123 2.181170 367.000000
93.174545 2.771619 366.000000
93.174545 3.368011 366.000000
93.174545 3.964404 366.000000
93.174545 4.560796 366.000000
93.174545 5.157188 366.000000
93.174545 5.753581 366.000000
93.174545 6.349973 366.000000
93.174545 6.946366 366.000000
93.174545 7.542758 366.000000
93.174545 8.139151 366.000000
93.174545 8.735543 366.000000
93.174545 9.331936 366.000000
93.174545 9.928328 366.000000
93.174545 10.524720 366.000000
93.174545 11.121113 366.000000
93.174545 11.717505 366.000000
93.174545 12.313897 366.000000
93.174545 12.910290 366.000000
93.174545 13.506682 366.000000
93.174545 14.103075 366.000000
93.174545 14.699467 366.000000
93.174545 15.295859 366.000000
93.174545 15.892252 366.000000
93.174545 16.488644 366.000000
93.174545 17.085037 366.000000
93.174545 17.681429 366.000000
93.174545 18.277821 366.000000
93.174545 18.874214 366.000000
93.174545 19.470606 366.000000
93.174545 20.066998 366.000000
93.174545 20.663391 366.000000
93.174545 21.259783 366.000000
93.174545 21.856176 366.000000
93.174545 22.452568 366.000000
92.919975 22.985985 365.000000
92.919975 23.580748 365.000000
92.919975 24.175510 365.000000
92.919975 24.770273 365.000000
92.919975 25.365036 365.000000
92.919975 25.959799 365.000000
92.919975 26.554562 365.000000
92.919975 27.149324 365.000000
92.919975 27.744087 365.000000
92.919975 28.338850 365.000000
92.919975 28.933613 365.000000
92.919975 29.528376 365.000000
92.919975 30.123138 365.000000
92.919975 30.717901 365.000000
92.919975 31.312666 365.000000
92.919975 31.907429 365.000000
92.919975 32.502190 365.000000
92.919975 33.096954 365.000000
92.919975 33.691715 365.000000
92.919975 34.286480 365.000000
92.919975 34.881241 365.000000
92.919975 35.476006 365.000000
92.919975 36.070766 365.000000
92.919975 36.665531 365.000000
92.919975 37.260292 365.000000
92.919975 37.855057 365.000000
92.919975 38.449821 365.000000
92.919975 39.044582 365.000000
92.919975 39.639347 365.000000
92.919975 40.234108 365.000000
92.919975 40.828873 365.000000
92.919975 41.423634 365.000000
92.919975 42.018398 365.000000
92.919975 42.613159 365.000000
92.919975 43.207924 365.000000
92.665398 43.682678 364.000000
92.665398 44.275814 364.000000
92.665398 44.868946 364.000000
92.665398 45.462078 364.000000
92.665398 46.055214 364.000000
92.665398 46.648346 364.000000
92.665398 47.241482 364.000000
92.665398 47.834614 364.000000
92.665398 48.427746 364.000000
92.665398 49.020882 364.000000
92.665398 49.614014 364.000000
92.665398 50.207146 364.000000
92.665398 50.800282 364.000000
92.665398 51.393414 364.000000
92.665398 51.986546 364.000000
92.665398 52.579681 364.000000
92.665398 53.172813 364.000000
92.665398 53.765949 364.000000
92.665398 54.359081 364.000000
92.410820 54.801243 363.000000
92.410820 55.392750 363.000000
92.410820 55.984253 363.000000
92.410820 56.575756 363.000000
92.410820 57.167259 363.000000
92.410820 57.758762 363.000000
92.410820 58.350269 363.000000
92.410820 58.941772 363.000000
92.410820 59.533276 363.000000
92.410820 60.124779 363.000000
92.410820 60.716286 363.000000
92.410820 61.307789 363.000000
92.410820 61.899292 363.000000
92.410820 62.490795 363.000000
92.410820 63.082298 363.000000
92.410820 63.673805 363.000000
92.410820 64.265305 363.000000
92.410820 64.856812 363.000000
92.410820 65.448318 363.000000
92.410820 66.039818 363.000000
92.410820 66.631325 363.000000
92.410820 67.222824 363.000000
92.410820 67.814331 363.000000
92.410820 68.405838 363.000000
92.410820 68.997337 363.000000
92.156250 69.397133 362.000000
92.156250 69.987007 362.000000
92.156250 70.576881 362.000000
92.156250 71.166756 362.000000
92.156250 71.756630 362.000000
92.156250 72.346504 362.000000
92.156250 72.936386 362.000000
92.156250 73.526260 362.000000
92.156250 74.116135 362.000000
92.156250 74.706009 362.000000
92.156250 75.295883 362.000000
92.156250 75.885757 362.000000
92.156250 76.475632 362.000000
92.156250 77.065506 362.000000
92.156250 77.655380 362.000000
92.156250 78.245255 362.000000
92.156250 78.835129 362.000000
92.156250 79.425003 362.000000
91.901672 79.793846 361.000000
91.901672 80.382088 361.000000
91.901672 80.970337 361.000000
92.156250 81.784500 362.000000
92.156250 82.374374 362.000000
92.156250 82.964249 362.000000
92.156250 83.554123 362.000000
92.156250 84.143997 362.000000
92.156250 84.733871 362.000000
92.156250 85.323746 362.000000
92.156250 85.913620 362.000000
92.156250 86.503494 362.000000
91.901672 86.852783 361.000000
91.901672 87.441025 361.000000
91.901672 88.029274 361.000000
91.901672 88.617516 361.000000
91.901672 89.205765 361.000000
91.901672 89.794006 361.000000
91.901672 90.382256 361.000000
91.901672 90.970497 361.000000
91.901672 91.558746 361.000000
91.901672 92.146988 361.000000
91.901672 92.735229 361.000000
91.901672 93.323479 361.000000
91.901672 93.911720 361.000000
91.901672 94.499969 361.000000
91.901672 95.088211 361.000000
91.901672 95.676460 361.000000
91.901672 96.264702 361.000000
91.902374 96.853676 361.002747
91.902374 97.441933 361.002747
91.917953 98.046799 361.063965
91.917953 98.635155 361.063965
91.917953 99.223503 361.063965
94.408943 -23.629396 368.491272
94.411560 -23.029585 368.501495
94.411560 -22.429115 368.501495
94.417953 -21.830124 368.526428
94.417953 -21.229616 368.526428
94.417953 -20.629107 368.526428
94.326111 -20.009115 368.167969
94.283081 -19.400335 368.000000
94.283081 -18.800684 368.000000
94.283081 -18.201033 368.000000
94.283081 -17.601381 368.000000
94.283081 -17.001730 368.000000
94.283081 -16.402079 368.000000
94.306572 -15.806365 368.091705
94.306572 -15.206564 368.091705
94.306572 -14.606763 368.091705
94.243355 -13.997573 367.844940
94.220879 -13.394979 367.757233
94.220879 -12.795724 367.757233
94.213745 -12.195544 367.729370
94.283081 -11.604868 368.000000
94.283081 -11.005217 368.000000
94.283081 -10.405565 368.000000
94.283081 -9.805914 368.000000
94.283081 -9.206263 368.000000
94.172867 -8.596550 367.569824
94.172867 -7.997600 367.569824
94.172867 -7.398649 367.569824
94.026871 -6.789158 367.000000
94.026871 -6.191136 367.000000
94.026871 -5.593114 367.000000
94.283081 -5.008703 368.000000
94.283081 -4.409051 368.000000
94.283081 -3.809400 368.000000
94.283081 -3.209749 368.000000
94.283081 -2.610097 368.000000
94.283081 -2.010446 368.000000
94.283081 -1.410795 368.000000
94.283081 -0.811143 368.000000
94.026871 -0.210917 367.000000
94.026871 0.387105 367.000000
94.026871 0.985126 367.000000
93.770668 1.578835 366.000000
93.770668 2.175227 366.000000
93.770668 2.771619 366.000000
93.770668 3.368011 366.000000
93.770668 3.964404 366.000000
93.891228 4.566660 366.470581
93.891228 5.163820 366.470581
93.891228 5.760979 366.470581
93.862770 6.356210 366.359467
93.770668 6.946366 366.000000
93.770668 7.542758 366.000000
93.770668 8.139151 366.000000
93.770668 8.735543 366.000000
93.770668 9.331936 366.000000
93.770668 9.928328 366.000000
93.770668 10.524720 366.000000
93.770668 11.121113 366.000000
93.770668 11.717505 366.000000
93.770668 12.313897 366.000000
93.770668 12.910290 366.000000
93.770668 13.506682 366.000000
93.770668 14.103075 366.000000
93.770668 14.699467 366.000000
93.770668 15.295859 366.000000
93.770668 15.892252 366.000000
93.770668 16.488644 366.000000
93.770668 17.085037 366.000000
93.770668 17.681429 366.000000
93.770668 18.277821 366.000000
93.770668 18.874214 366.000000
93.770668 19.470606 366.000000
93.770668 20.066998 366.000000
93.770668 20.663391 366.000000
93.770668 21.259783 366.000000
93.514465 21.796459 365.000000
93.514465 22.391222 365.000000
93.514465 22.985985 365.000000
93.514465 23.580748 365.000000
93.514465 24.175510 365.000000
93.514465 24.770273 365.000000
93.514465 25.365036 365.000000
93.514465 25.959799 365.000000
93.514465 26.554562 365.000000
93.514465 27.149324 365.000000
93.514465 27.744087 365.000000
93.514465 28.338850 365.000000
93.514465 28.933613 365.000000
93.514465 29.528376 365.000000
93.514465 30.123138 365.000000
93.514465 30.717901 365.000000
93.514465 31.312666 365.000000
93.514465 31.907429 365.000000
93.514465 32.502190 365.000000
93.514465 33.096954 365.000000
93.514465 33.691715 365.000000
93.514465 34.286480 365.000000
93.514465 34.881241 365.000000
93.514465 35.476006 365.000000
93.514465 36.070766 365.000000
93.514465 36.665531 365.000000
93.514465 37.260292 365.000000
93.514465 37.855057 365.000000
93.514465 38.449821 365.000000
93.514465 39.044582 365.000000
93.514465 39.639347 365.000000
93.514465 40.234108 365.000000
93.514465 40.828873 365.000000
93.514465 41.423634 365.000000
93.258263 41.903278 364.000000
93.258263 42.496414 364.000000
93.258263 43.089546 364.000000
93.258263 43.682678 364.000000
93.258263 44.275814 364.000000
93.258263 44.868946 364.000000
93.258263 45.462078 364.000000
93.258263 46.055214 364.000000
93.258263 46.648346 364.000000
93.258263 47.241482 364.000000
93.258263 47.834614 364.000000
93.258263 48.427746 364.000000
93.258263 49.020882 364.000000
93.258263 49.614014 364.000000
93.258263 50.207146 364.000000
93.258263 50.800282 364.000000
93.258263 51.393414 364.000000
93.258263 51.986546 364.000000
93.258263 52.579681 364.000000
93.258263 53.172813 364.000000
93.258263 53.765949 364.000000
93.258263 54.359081 364.000000
93.002052 54.801243 363.000000
93.002052 55.392750 363.000000
93.002052 55.984253 363.000000
93.002052 56.575756 363.000000
93.002052 57.167259 363.000000
93.002052 57.758762 363.000000
93.002052 58.350269 363.000000
93.002052 58.941772 363.000000
93.002052 59.533276 363.000000
93.002052 60.124779 363.000000
93.002052 60.716286 363.000000
93.002052 61.307789 363.000000
93.002052 61.899292 363.000000
93.002052 62.490795 363.000000
93.002052 63.082298 363.000000
93.002052 63.673805 363.000000
93.002052 64.265305 363.000000
93.002052 64.856812 363.000000
93.002052 65.448318 363.000000
93.002052 66.039818 363.000000
93.002052 66.631325 363.000000
93.002052 67.222824 363.000000
93.002052 67.814331 363.000000
93.002052 68.405838 363.000000
93.002052 68.997337 363.000000
92.745850 69.397133 362.000000
92.745850 69.987007 362.000000
92.745850 70.576881 362.000000
92.745850 71.166756 362.000000
92.745850 71.756630 362.000000
92.745850 72.346504 362.000000
92.745850 72.936386 362.000000
92.745850 73.526260 362.000000
92.745850 74.116135 362.000000
92.745850 74.706009 362.000000
92.745850 75.295883 362.000000
92.745850 75.885757 362.000000
92.745850 76.475632 362.000000
92.745850 77.065506 362.000000
92.745850 77.655380 362.000000
92.745850 78.245255 362.000000
92.745850 78.835129 362.000000
92.745850 79.425003 362.000000
92.489647 79.793846 361.000000
92.489647 80.382088 361.000000
92.489647 80.970337 361.000000
92.745850 81.784500 362.000000
92.745850 82.374374 362.000000
92.745850 82.964249 362.000000
92.745850 83.554123 362.000000
92.745850 84.143997 362.000000
92.745850 84.733871 362.000000
92.745850 85.323746 362.000000
92.745850 85.913620 362.000000
92.745850 86.503494 362.000000
92.489647 86.852783 361.000000
92.489647 87.441025 361.000000
92.489647 88.029274 361.000000
92.489647 88.617516 361.000000
92.489647 89.205765 361.000000
92.489647 89.794006 361.000000
92.489647 90.382256 361.000000
92.489647 90.970497 361.000000
92.489647 91.558746 361.000000
92.489647 92.146988 361.000000
92.489647 92.735229 361.000000
92.489647 93.323479 361.000000
92.489647 93.911720 361.000000
92.489647 94.499969 361.000000
92.489647 95.088211 361.000000
92.489647 95.676460 361.000000
92.489647 96.264702 361.000000
92.490349 96.853676 361.002747
92.490349 97.441933 361.002747
92.506035 98.046799 361.063965
92.506035 98.635155 361.063965
92.506035 99.223503 361.063965
94.935036 -23.610971 368.203918
95.082779 -23.046799 368.776947
95.082779 -22.445881 368.776947
95.092491 -21.847197 368.814636
95.092491 -21.246218 368.814636
95.092491 -20.645239 368.814636
95.063477 -20.038145 368.702118
95.041580 -19.432871 368.617188
95.046227 -18.833134 368.635193
95.046227 -18.232449 368.635193
95.046227 -17.631763 368.635193
