88.453461 -28.230433 373.758942
88.497627 -27.635193 373.945587
88.497627 -27.025852 373.945587
88.497627 -26.416512 373.945587
88.432068 -25.788054 373.668549
87.277901 -6.822301 368.791656
87.277901 -6.221361 368.791656
87.277901 -5.620419 368.791656
88.132195 12.529270 372.401428
88.132195 13.136094 372.401428
88.132195 13.742916 372.401428
87.722992 14.283113 370.672363
87.751808 14.892009 370.794098
87.751808 15.496213 370.794098
87.751808 16.100418 370.794098
87.751808 16.704622 370.794098
87.751808 17.308826 370.794098
87.751808 17.913031 370.794098
87.751808 18.517235 370.794098
87.751808 19.121439 370.794098
87.751808 19.725645 370.794098
87.751808 20.329849 370.794098
87.751808 20.934053 370.794098
87.751808 21.538258 370.794098
87.751808 22.142460 370.794098
87.751808 22.746664 370.794098
87.713768 23.340746 370.633362
87.385918 23.855192 369.248047
87.385918 24.456877 369.248047
87.378235 25.056360 369.215607
87.321777 25.641415 368.977051
87.321777 26.242659 368.977051
87.296158 26.836023 368.868774
87.296158 27.437092 368.868774
87.296158 28.038158 368.868774
87.235199 28.619228 368.611206
87.235199 29.219875 368.611206
86.128174 29.442093 363.933472
86.128174 30.035118 363.933472
86.128174 30.628143 363.933472
86.933968 32.710415 367.338348
86.933968 33.308987 367.338348
86.933968 33.907558 367.338348
86.850769 34.473110 366.986786
86.528122 43.877510 365.623474
87.320526 44.880558 368.971741
87.320526 45.481792 368.971741
87.320526 46.083031 368.971741
90.640442 57.820595 383.000000
90.640442 58.444691 383.000000
90.640442 59.068783 383.000000
89.542793 58.970001 378.361908
89.542793 59.586540 378.361908
89.542793 60.203079 378.361908
89.542793 60.819611 378.361908
89.542793 61.436150 378.361908
88.524628 61.347099 374.059662
89.129631 62.380054 376.616089
89.220665 63.058086 377.000763
89.220665 63.672401 377.000763
89.220665 64.286720 377.000763
90.167122 67.452019 381.000000
90.167122 68.072853 381.000000
90.167122 68.693687 381.000000
89.693802 68.950661 379.000000
89.693802 69.568237 379.000000
85.926987 82.029251 363.083344
85.926987 82.620895 363.083344
85.926987 83.212532 363.083344
85.798790 83.679153 362.541687
88.166504 -32.769798 370.000000
88.255859 -32.199490 370.375000
88.255859 -31.595970 370.375000
88.255859 -30.992449 370.375000
89.007378 -27.604391 373.528809
89.007378 -26.995729 373.528809
89.007378 -26.387070 373.528809
87.878571 -6.822301 368.791656
87.878571 -6.221361 368.791656
87.878571 -5.620419 368.791656
90.787674 3.506045 381.000000
90.787674 4.126880 381.000000
91.025955 4.760175 382.000000
91.025955 5.382639 382.000000
91.025955 6.005104 382.000000
88.738739 12.529270 372.401428
88.738739 13.136094 372.401428
88.738739 13.742916 372.401428
88.326721 14.283113 370.672363
88.355728 14.892009 370.794098
88.355728 15.496213 370.794098
88.355728 16.100418 370.794098
88.355728 16.704622 370.794098
88.355728 17.308826 370.794098
88.355728 17.913031 370.794098
88.355728 18.517235 370.794098
88.355728 19.121439 370.794098
88.355728 19.725645 370.794098
88.355728 20.329849 370.794098
88.355728 20.934053 370.794098
88.355728 21.538258 370.794098
88.355728 22.142460 370.794098
88.355728 22.746664 370.794098
88.317429 23.340746 370.633362
87.987320 23.855192 369.248047
87.987320 24.456877 369.248047
87.979591 25.056360 369.215607
87.922745 25.641415 368.977051
87.922745 26.242659 368.977051
87.896950 26.836023 368.868774
87.896950 27.437092 368.868774
87.896950 28.038158 368.868774
87.835571 28.619228 368.611206
87.835571 29.219875 368.611206
87.598442 29.740015 367.616058
87.598442 30.339041 367.616058
87.457199 30.888180 367.023315
87.734901 31.586218 368.188721
87.734901 32.186180 368.188721
87.734901 32.786140 368.188721
87.532265 33.308987 367.338348
87.532265 33.907558 367.338348
87.448494 34.473110 366.986786
87.123634 43.877510 365.623474
87.921486 44.880558 368.971741
87.921486 45.481792 368.971741
87.921486 46.083031 368.971741
87.598145 53.101837 367.614807
87.598145 53.700863 367.614807
87.598145 54.299885 367.614807
87.544960 54.865578 367.391632
91.264252 57.820595 383.000000
91.264252 58.444691 383.000000
91.264252 59.068783 383.000000
91.025955 59.537025 382.000000
91.025955 60.159489 382.000000
90.708237 60.569794 380.666656
90.628815 61.136505 380.333344
90.628815 61.756260 380.333344
90.628815 62.376007 380.333344
89.743034 62.380054 376.616089
89.834702 63.058086 377.000763
89.834702 63.672401 377.000763
89.834702 64.286720 377.000763
88.221916 63.735882 370.232544
88.221916 64.339172 370.232544
90.787674 67.452019 381.000000
90.787674 68.072853 381.000000
90.787674 68.693687 381.000000
90.311096 68.950661 379.000000
90.311096 69.568237 379.000000
86.924324 83.008583 364.787048
86.924324 83.602997 364.787048
86.924324 84.197411 364.787048
86.426239 84.305962 362.696777
86.426239 84.896965 362.696777
88.769135 -33.975620 370.000000
88.769135 -33.372711 370.000000
88.769135 -32.769798 370.000000
88.833405 -32.190174 370.267853
88.833405 -31.586830 370.267853
88.833405 -30.983480 370.267853
88.479240 -6.822301 368.791656
88.479240 -6.221361 368.791656
88.479240 -5.620419 368.791656
90.928391 1.634913 379.000000
90.928391 2.252489 379.000000
91.168304 2.877637 380.000000
91.408218 3.506045 381.000000
91.408218 4.126880 381.000000
91.648140 4.760175 382.000000
91.648140 5.382639 382.000000
91.648140 6.005104 382.000000
91.408218 6.610219 381.000000
89.446053 11.328385 372.821442
89.446053 11.935894 372.821442
89.446053 12.543402 372.821442
89.368103 13.139449 372.496552
89.368103 13.746427 372.496552
89.027824 14.298753 371.078217
89.157776 14.925175 371.619873
89.157776 15.530725 371.619873
89.157776 16.136274 371.619873
89.157776 16.741823 371.619873
89.157776 17.347374 371.619873
89.157776 17.952925 371.619873
89.157776 18.558474 371.619873
89.157776 19.164024 371.619873
89.157776 19.769573 371.619873
89.157776 20.375124 371.619873
89.157776 20.980673 371.619873
89.157776 21.586224 371.619873
89.128952 22.184599 371.499725
89.128952 22.789953 371.499725
89.112755 23.391056 371.432220
89.112755 23.996300 371.432220
89.112755 24.601543 371.432220
88.668755 25.081196 369.581573
89.041275 25.791327 371.134277
89.041275 26.396086 371.134277
89.041275 27.000845 371.134277
89.029625 27.601992 371.085724
89.029625 28.206671 371.085724
89.016808 28.807203 371.032318
89.002716 29.407139 370.973572
88.197197 29.740015 367.616058
88.197197 30.339041 367.616058
88.054985 30.888180 367.023315
88.334579 31.586218 368.188721
88.334579 32.186180 368.188721
88.334579 32.786140 368.188721
88.130562 33.308987 367.338348
88.130562 33.907558 367.338348
88.046219 34.473110 366.986786
87.719139 43.877510 365.623474
88.653564 44.947037 369.518280
88.653564 45.549160 369.518280
90.448555 47.085724 377.000000
90.448555 47.700039 377.000000
90.448555 48.314358 377.000000
88.196892 53.101837 367.614807
88.196892 53.700863 367.614807
88.196892 54.299885 367.614807
88.143349 54.865578 367.391632
88.709297 55.820362 369.750549
88.709297 56.422863 369.750549
91.648140 58.914562 382.000000
91.648140 59.537025 382.000000
91.648140 60.159489 382.000000
91.328247 60.569794 380.666656
91.248283 61.136505 380.333344
91.248283 61.756260 380.333344
91.248283 62.376007 380.333344
90.356445 62.380054 376.616089
90.448738 63.058086 377.000763
90.448738 63.672401 377.000763
90.448738 64.286720 377.000763
88.824928 63.735882 370.232544
88.824928 64.339172 370.232544
90.448555 66.129539 377.000000
90.688469 66.920898 378.000000
90.688469 67.536850 378.000000
90.928391 68.333084 379.000000
90.928391 68.950661 379.000000
90.928391 69.568237 379.000000
90.688469 77.391983 378.000000
90.688469 78.007935 378.000000
90.688469 78.623878 378.000000
87.518471 83.008583 364.787048
87.518471 83.602997 364.787048
87.518471 84.197411 364.787048
87.016975 84.305962 362.696777
87.016975 84.896965 362.696777
89.371773 -33.975620 370.000000
89.371773 -33.372711 370.000000
89.371773 -32.769798 370.000000
89.423538 -32.185520 370.214294
89.423538 -31.582260 370.214294
89.423538 -30.978998 370.214294
89.056007 -6.820472 368.692719
89.056007 -6.219691 368.692719
89.056007 -5.618911 368.692719
90.579506 1.006600 375.000000
91.545685 1.634913 379.000000
91.545685 2.252489 379.000000
91.787231 2.877637 380.000000
92.028770 3.506045 381.000000
92.028770 4.126880 381.000000
92.270317 4.760175 382.000000
92.270317 5.382639 382.000000
92.270317 6.005104 382.000000
92.028770 6.610219 381.000000
90.821045 7.136157 376.000000
90.821045 7.748844 376.000000
90.053284 11.328385 372.821442
90.053284 11.935894 372.821442
90.821045 12.650342 376.000000
90.821045 13.263029 376.000000
90.821045 13.875716 376.000000
90.869537 14.496140 376.200745
90.869537 15.109154 376.200745
90.869537 15.722168 376.200745
90.797104 16.322163 375.900879
90.793114 16.933943 375.884338
90.793114 17.546440 375.884338
90.793114 18.158939 375.884338
90.793114 18.771439 375.884338
90.793114 19.383938 375.884338
90.793114 19.996437 375.884338
90.793114 20.608934 375.884338
90.793114 21.221434 375.884338
91.304138 21.956825 378.000000
91.304138 22.572771 378.000000
91.304138 23.188717 378.000000
91.304138 23.804663 378.000000
89.827843 24.025753 371.888123
89.827843 24.631741 371.888123
90.697197 25.481979 375.487274
90.697197 26.093830 375.487274
90.697197 26.705685 375.487274
90.687614 27.314644 375.447571
90.677055 27.923182 375.403870
90.677055 28.534899 375.403870
90.665451 29.142885 375.355835
90.652679 29.750334 375.302979
90.638641 30.357182 375.244843
90.638641 30.968636 375.244843
89.164330 31.066418 369.141174
89.164330 31.667929 369.141174
89.164330 32.269440 369.141174
88.934273 32.786140 368.188721
88.959923 36.996517 368.294922
88.959923 37.596649 368.294922
88.959923 38.196781 368.294922
88.954285 38.794456 368.271606
88.954285 39.394550 368.271606
90.821045 45.735455 376.000000
90.821045 46.348141 376.000000
91.062592 47.085724 377.000000
91.062592 47.700039 377.000000
91.062592 48.314358 377.000000
90.579506 48.669106 375.000000
90.337952 49.148750 374.000000
90.337952 49.758179 374.000000
89.065437 53.263180 368.731750
89.072327 53.868191 368.760284
89.072327 54.469086 368.760284
89.072327 55.069969 368.760284
89.372253 55.858318 370.001984
89.372253 56.461235 370.001984
92.270317 58.914562 382.000000
92.270317 59.537025 382.000000
92.270317 60.159489 382.000000
91.948257 60.569794 380.666656
91.867744 61.136505 380.333344
91.867744 61.756260 380.333344
91.867744 62.376007 380.333344
89.907066 61.651272 372.216125
89.907066 62.257797 372.216125
89.907066 62.864319 372.216125
89.773727 63.376709 371.664093
89.823830 64.018036 371.871521
89.823830 64.624001 371.871521
91.062592 66.129539 377.000000
91.062592 66.743858 377.000000
91.062592 67.358177 377.000000
91.062592 67.972496 377.000000
91.062592 68.586807 377.000000
91.062592 69.201126 377.000000
90.337952 69.259880 374.000000
91.304138 77.391983 378.000000
91.304138 78.007935 378.000000
91.304138 78.623878 378.000000
88.112610 83.008583 364.787048
88.112610 83.602997 364.787048
88.112610 84.197411 364.787048
87.607712 84.305962 362.696777
87.607712 84.896965 362.696777
89.974403 -33.975620 370.000000
89.974403 -33.372711 370.000000
89.974403 -32.769798 370.000000
90.026520 -32.185520 370.214294
90.026520 -31.582260 370.214294
90.026520 -30.978998 370.214294
89.656509 -6.820472 368.692719
89.656509 -6.219691 368.692719
89.656509 -5.618911 368.692719
91.190285 1.006600 375.000000
92.162979 1.634913 379.000000
92.162979 2.252489 379.000000
92.406151 2.877637 380.000000
92.406151 3.496842 380.000000
92.406151 4.116048 380.000000
92.649323 4.747715 381.000000
92.649323 5.368549 381.000000
92.649323 5.989384 381.000000
92.649323 6.610219 381.000000
91.433456 7.136157 376.000000
91.433456 7.748844 376.000000
90.660507 11.328385 372.821442
90.660507 11.935894 372.821442
91.433456 12.650342 376.000000
91.433456 13.263029 376.000000
91.433456 13.875716 376.000000
91.482269 14.496140 376.200745
91.482269 15.109154 376.200745
91.482269 15.722168 376.200745
91.409348 16.322163 375.900879
91.405327 16.933943 375.884338
91.405327 17.546440 375.884338
91.405327 18.158939 375.884338
91.405327 18.771439 375.884338
91.405327 19.383938 375.884338
91.405327 19.996437 375.884338
91.405327 20.608934 375.884338
91.405327 21.221434 375.884338
91.919800 21.956825 378.000000
91.919800 22.572771 378.000000
91.919800 23.188717 378.000000
91.919800 23.804663 378.000000
90.433556 24.025753 371.888123
90.433556 24.631741 371.888123
91.308769 25.481979 375.487274
91.308769 26.093830 375.487274
91.308769 26.705685 375.487274
91.299118 27.314644 375.447571
91.288490 27.923182 375.403870
91.288490 28.534899 375.403870
91.276810 29.142885 375.355835
91.263954 29.750334 375.302979
91.249817 30.357182 375.244843
91.249817 30.968636 375.244843
89.765564 31.066418 369.141174
89.765564 31.667929 369.141174
89.765564 32.269440 369.141174
89.564087 32.797169 368.312622
89.230286 36.262486 366.939972
89.559776 36.996517 368.294922
89.559776 37.596649 368.294922
89.559776 38.196781 368.294922
89.554108 38.794456 368.271606
89.554108 39.394550 368.271606
91.433456 45.735455 376.000000
91.433456 46.348141 376.000000
91.676628 47.085724 377.000000
91.676628 47.700039 377.000000
91.676628 48.314358 377.000000
91.190285 48.669106 375.000000
90.947105 49.148750 374.000000
90.947105 49.758179 374.000000
89.707794 53.288006 368.903625
89.707794 53.889133 368.903625
89.707794 54.490253 368.903625
89.706352 55.090492 368.897675
89.974892 55.858318 370.001984
89.974892 56.461235 370.001984
90.081223 57.131584 370.439240
90.347130 57.905636 371.532715
90.347130 58.511040 371.532715
90.513313 59.225189 372.216125
90.513313 59.831707 372.216125
90.513313 60.438232 372.216125
90.513313 61.044754 372.216125
90.513313 61.651272 372.216125
90.513313 62.257797 372.216125
90.513313 62.864319 372.216125
90.379074 63.376709 371.664093
90.429512 64.018036 371.871521
90.429512 64.624001 371.871521
91.676628 66.129539 377.000000
91.676628 66.743858 377.000000
91.676628 67.358177 377.000000
91.676628 67.972496 377.000000
91.676628 68.586807 377.000000
91.676628 69.201126 377.000000
90.947105 69.259880 374.000000
91.919800 77.391983 378.000000
91.919800 78.007935 378.000000
91.919800 78.623878 378.000000
88.062904 83.586288 362.139343
88.062904 84.176392 362.139343
88.062904 84.766495 362.139343
91.712036 -34.401360 374.636353
91.712036 -33.790894 374.636353
91.712036 -33.180428 374.636353
91.415306 -32.464584 373.424255
91.415306 -31.856096 373.424255
92.290665 -31.546818 377.000000
92.290665 -30.932501 377.000000
92.290665 -30.318184 377.000000
92.290665 -29.703867 377.000000
92.535461 -29.166714 378.000000
92.535461 -28.550766 378.000000
92.535461 -27.934820 378.000000
92.535461 -27.318874 378.000000
92.535461 -26.702929 378.000000
92.290665 -26.017967 377.000000
92.290665 -25.403650 377.000000
92.290665 -24.789333 377.000000
92.045860 -24.110893 376.000000
91.556252 -9.965793 374.000000
91.556252 -9.356364 374.000000
91.556252 -8.746936 374.000000
90.411980 -6.832181 369.325714
90.411980 -6.230370 369.325714
90.411980 -5.628558 369.325714
91.801056 1.006600 375.000000
92.045860 1.621972 376.000000
92.045860 2.234659 376.000000
92.290665 2.854919 377.000000
92.535461 3.478438 378.000000
92.535461 4.094385 378.000000
92.535461 4.710331 378.000000
92.535461 5.326277 378.000000
92.535461 5.942223 378.000000
92.535461 6.558169 378.000000
92.045860 7.136157 376.000000
92.045860 7.748844 376.000000
91.801056 11.394583 375.000000
91.801056 12.005640 375.000000
92.045860 12.650342 376.000000
92.045860 13.263029 376.000000
92.045860 13.875716 376.000000
92.095001 14.496140 376.200745
92.095001 15.109154 376.200745
92.095001 15.722168 376.200745
92.021599 16.322163 375.900879
92.017548 16.933943 375.884338
92.017548 17.546440 375.884338
92.017548 18.158939 375.884338
92.017548 18.771439 375.884338
92.017548 19.383938 375.884338
92.017548 19.996437 375.884338
92.017548 20.608934 375.884338
92.017548 21.221434 375.884338
92.535461 21.956825 378.000000
92.535461 22.572771 378.000000
92.535461 23.188717 378.000000
92.535461 23.804663 378.000000
91.039261 24.025753 371.888123
91.039261 24.631741 371.888123
91.920349 25.481979 375.487274
91.920349 26.093830 375.487274
91.920349 26.705685 375.487274
91.910622 27.314644 375.447571
91.899925 27.923182 375.403870
91.899925 28.534899 375.403870
91.888168 29.142885 375.355835
91.875221 29.750334 375.302979
91.860992 30.357182 375.244843
91.860992 30.968636 375.244843
90.366798 31.066418 369.141174
90.366798 31.667929 369.141174
90.366798 32.269440 369.141174
90.163971 32.797169 368.312622
89.827942 36.262486 366.939972
90.159637 36.996517 368.294922
90.159637 37.596649 368.294922
90.159637 38.196781 368.294922
90.153923 38.794456 368.271606
90.153923 39.394550 368.271606
92.045860 45.735455 376.000000
92.045860 46.348141 376.000000
92.045860 46.960831 376.000000
91.801056 47.446991 375.000000
91.801056 48.058048 375.000000
91.801056 48.669106 375.000000
91.556252 49.148750 374.000000
91.556252 49.758179 374.000000
91.311455 50.232933 373.000000
91.311455 50.840733 373.000000
91.311455 51.448528 373.000000
90.308647 53.288006 368.903625
90.308647 53.889133 368.903625
90.308647 54.490253 368.903625
90.307190 55.090492 368.897675
90.577530 55.858318 370.001984
90.577530 56.461235 370.001984
90.577530 57.064144 370.001984
90.500885 57.618267 369.688904
90.500885 58.220665 369.688904
90.874596 59.065971 371.215485
90.936562 59.711552 371.468597
90.936562 60.316856 371.468597
90.936562 60.922161 371.468597
90.936562 61.527458 371.468597
90.936562 62.132759 371.468597
90.936562 62.738064 371.468597
90.984421 63.376709 371.664093
91.035194 64.018036 371.871521
91.035194 64.624001 371.871521
92.045860 65.954132 376.000000
92.045860 66.566818 376.000000
92.045860 67.179504 376.000000
92.045860 67.792191 376.000000
91.801056 68.222954 375.000000
91.801056 68.834015 375.000000
91.556252 69.259880 374.000000
88.965469 83.881149 363.416870
88.965469 84.473335 363.416870
88.965469 85.065521 363.416870
92.362541 -35.027115 374.799988
92.362541 -34.416382 374.799988
92.362541 -33.805649 374.799988
92.322220 -33.180428 374.636353
92.023521 -32.464584 373.424255
92.023521 -31.856096 373.424255
92.904701 -31.546818 377.000000
92.904701 -30.932501 377.000000
92.904701 -30.318184 377.000000
92.904701 -29.703867 377.000000
93.151131 -29.166714 378.000000
93.151131 -28.550766 378.000000
93.151131 -27.934820 378.000000
93.151131 -27.318874 378.000000
93.151131 -26.702929 378.000000
92.904701 -26.017967 377.000000
92.904701 -25.403650 377.000000
92.904701 -24.789333 377.000000
92.658264 -24.110893 376.000000
92.411835 -23.435711 375.000000
92.411835 -22.824654 375.000000
91.931892 -22.098228 373.052429
91.930771 -21.490080 373.047852
91.930771 -20.882204 373.047852
91.896675 -20.266809 372.909546
91.829475 -19.644779 372.636810
91.775902 -19.026466 372.419434
91.775902 -18.419615 372.419434
91.732338 -17.804306 372.242645
91.705154 -17.192646 372.132355
91.705154 -16.586260 372.132355
92.165405 -16.060074 374.000000
92.165405 -15.450646 374.000000
92.165405 -14.841218 374.000000
92.165405 -14.231790 374.000000
92.165405 -13.622361 374.000000
92.165405 -13.012934 374.000000
91.532166 -12.318285 371.430359
91.672539 -11.731008 372.000000
91.672539 -11.124838 372.000000
91.672539 -10.518669 372.000000
92.165405 -9.965793 374.000000
92.165405 -9.356364 374.000000
92.165405 -8.746936 374.000000
91.426109 -8.072234 371.000000
91.426109 -7.467694 371.000000
91.241081 -6.849264 370.249146
91.290764 -6.249350 370.450806
91.290764 -5.645705 370.450806
91.290764 -5.042059 370.450806
91.258629 -4.436852 370.320374
91.258629 -3.833420 370.320374
91.227829 -3.228897 370.195374
91.223579 -2.625546 370.178162
91.221321 -2.022296 370.169006
91.221321 -1.419110 370.169006
91.193947 -0.815679 370.057892
91.672539 -0.213791 372.000000
91.672539 0.392378 372.000000
91.918968 1.001232 373.000000
91.918968 1.609031 373.000000
91.918968 2.216830 373.000000
92.165405 2.832201 374.000000
93.151131 3.478438 378.000000
93.151131 4.094385 378.000000
93.151131 4.710331 378.000000
93.151131 5.326277 378.000000
93.151131 5.942223 378.000000
93.151131 6.558169 378.000000
92.165405 7.098199 374.000000
92.165405 7.707627 374.000000
91.179672 8.228103 370.000000
91.101120 8.823405 369.681213
91.101120 9.425796 369.681213
91.101120 10.028187 369.681213
91.076271 10.627678 369.580383
92.411835 11.394583 375.000000
92.411835 12.005640 375.000000
92.411835 12.616698 375.000000
92.165405 13.192482 374.000000
92.165405 13.801910 374.000000
92.214691 14.419045 374.200012
92.214691 15.028800 374.200012
92.214691 15.638553 374.200012
92.177238 16.241707 374.048004
92.177238 16.851215 374.048004
92.177238 17.460720 374.048004
92.177238 18.070227 374.048004
92.177238 18.679733 374.048004
92.177238 19.289240 374.048004
92.177238 19.898746 374.048004
92.177238 20.508253 374.048004
92.177238 21.117760 374.048004
92.177238 21.727266 374.048004
91.469505 22.165274 371.176117
91.469505 22.770100 371.176117
91.370789 23.349699 370.775513
91.254982 23.923513 370.305573
91.254982 24.526920 370.305573
91.835075 25.290081 372.659576
91.835075 25.897326 372.659576
91.835075 26.504570 372.659576
91.800865 27.101709 372.520721
91.763229 27.697371 372.368011
91.763229 28.304138 372.368011
91.721832 28.897863 372.200012
91.676285 29.489708 372.015198
91.179672 29.932875 370.000000
91.179672 30.535784 370.000000
91.179672 31.138695 370.000000
90.763855 31.596848 368.312622
90.763855 32.197010 368.312622
90.763855 32.797169 368.312622
90.467026 33.288109 367.108124
90.467026 33.886311 367.108124
90.418884 34.466160 366.912781
90.412506 35.061562 366.886871
90.412506 35.659397 366.886871
90.425591 36.262486 366.939972
90.443375 36.867657 367.012146
90.443375 37.465698 367.012146
90.471809 38.075710 367.127533
90.471809 38.673939 367.127533
90.471809 39.272167 367.127533
90.414680 39.845222 366.895721
92.165405 45.492180 374.000000
92.165405 46.101608 374.000000
92.165405 46.711037 374.000000
92.165405 47.320465 374.000000
92.165405 47.929893 374.000000
91.918968 48.409534 373.000000
91.918968 49.017334 373.000000
91.918968 49.625134 373.000000
91.918968 50.232933 373.000000
91.918968 50.840733 373.000000
91.918968 51.448528 373.000000
91.179672 51.637646 370.000000
90.736183 51.986458 368.200317
90.736183 52.586437 368.200317
90.909492 53.288006 368.903625
90.909492 53.889133 368.903625
90.909492 54.490253 368.903625
90.908035 55.090492 368.897675
91.168388 55.851105 369.954193
91.168388 56.453941 369.954193
91.168388 57.056774 369.954193
91.102043 57.617649 369.684967
91.102043 58.220051 369.684967
91.179672 58.872570 370.000000
91.179672 59.475479 370.000000
91.426109 60.240765 371.000000
91.426109 60.845306 371.000000
91.672539 61.615475 372.000000
91.672539 62.221645 372.000000
91.672539 62.827812 372.000000
91.421623 63.260361 370.981781
91.458305 63.890491 371.130646
91.458305 64.495247 371.130646
92.165405 65.603317 374.000000
92.165405 66.212746 374.000000
92.165405 66.822166 374.000000
92.165405 67.431595 374.000000
92.165405 68.041023 374.000000
92.165405 68.650452 374.000000
91.918968 69.074692 373.000000
90.933243 68.935226 369.000000
90.933243 69.536507 369.000000
90.933243 70.137787 369.000000
89.947517 75.919876 365.000000
89.947517 76.514641 365.000000
89.947517 77.109406 365.000000
89.947517 77.704170 365.000000
89.947517 78.298927 365.000000
89.947517 78.893692 365.000000
89.947517 79.488457 365.000000
89.947517 80.083221 365.000000
90.193947 80.899017 366.000000
90.193947 81.495415 366.000000
90.193947 82.091805 366.000000
89.557388 83.881149 363.416870
89.557388 84.473335 363.416870
89.557388 85.065521 363.416870
93.518730 -36.461353 377.000000
93.518730 -35.847034 377.000000
93.518730 -35.232719 377.000000
92.973000 -34.416382 374.799988
92.973000 -33.805649 374.799988
92.932404 -33.180428 374.636353
92.631729 -32.464584 373.424255
92.631729 -31.856096 373.424255
93.518730 -31.546818 377.000000
93.518730 -30.932501 377.000000
93.518730 -30.318184 377.000000
93.518730 -29.703867 377.000000
93.766792 -29.166714 378.000000
93.766792 -28.550766 378.000000
93.766792 -27.934820 378.000000
93.766792 -27.318874 378.000000
93.766792 -26.702929 378.000000
93.518730 -26.017967 377.000000
93.518730 -25.403650 377.000000
93.518730 -24.789333 377.000000
93.270676 -24.110893 376.000000
93.022614 -23.435711 375.000000
93.022614 -22.824654 375.000000
92.539497 -22.098228 373.052429
92.538361 -21.490080 373.047852
92.538361 -20.882204 373.047852
92.504051 -20.266809 372.909546
92.436401 -19.644779 372.636810
92.382477 -19.026466 372.419434
92.382477 -18.419615 372.419434
92.338623 -17.804306 372.242645
92.311264 -17.192646 372.132355
92.311264 -16.586260 372.132355
92.774551 -16.060074 374.000000
92.774551 -15.450646 374.000000
92.774551 -14.841218 374.000000
92.774551 -14.231790 374.000000
92.774551 -13.622361 374.000000
92.774551 -13.012934 374.000000
92.137131 -12.318285 371.430359
92.278435 -11.731008 372.000000
92.278435 -11.124838 372.000000
92.278435 -10.518669 372.000000
92.774551 -9.965793 374.000000
92.774551 -9.356364 374.000000
92.774551 -8.746936 374.000000
92.030373 -8.072234 371.000000
92.030373 -7.467694 371.000000
91.844116 -6.849264 370.249146
91.894142 -6.249350 370.450806
91.894142 -5.645705 370.450806
91.894142 -5.042059 370.450806
91.861778 -4.436852 370.320374
91.861778 -3.833420 370.320374
91.830780 -3.228897 370.195374
91.826508 -2.625546 370.178162
91.824234 -2.022296 370.169006
91.824234 -1.419110 370.169006
91.796669 -0.815679 370.057892
92.278435 -0.213791 372.000000
92.278435 0.392378 372.000000
92.526489 1.001232 373.000000
92.526489 1.609031 373.000000
92.526489 2.216830 373.000000
92.774551 2.832201 374.000000
93.022614 3.450832 375.000000
93.022614 4.061890 375.000000
93.270676 4.685408 376.000000
93.270676 5.298096 376.000000
93.270676 5.910783 376.000000
93.022614 6.506121 375.000000
92.774551 7.098199 374.000000
92.774551 7.707627 374.000000
91.782310 8.228103 370.000000
91.703232 8.823405 369.681213
91.703232 9.425796 369.681213
91.703232 10.028187 369.681213
91.678223 10.627678 369.580383
93.022614 11.394583 375.000000
93.022614 12.005640 375.000000
93.022614 12.616698 375.000000
92.774551 13.192482 374.000000
92.774551 13.801910 374.000000
92.824173 14.419045 374.200012
92.824173 15.028800 374.200012
92.824173 15.638553 374.200012
92.786461 16.241707 374.048004
92.786461 16.851215 374.048004
92.786461 17.460720 374.048004
92.786461 18.070227 374.048004
92.786461 18.679733 374.048004
92.786461 19.289240 374.048004
92.786461 19.898746 374.048004
92.786461 20.508253 374.048004
92.786461 21.117760 374.048004
92.786461 21.727266 374.048004
92.074059 22.165274 371.176117
92.074059 22.770100 371.176117
91.974686 23.349699 370.775513
91.858109 23.923513 370.305573
91.858109 24.526920 370.305573
92.442047 25.290081 372.659576
92.442047 25.897326 372.659576
92.442047 26.504570 372.659576
92.407600 27.101709 372.520721
92.369720 27.697371 372.368011
92.369720 28.304138 372.368011
92.328049 28.897863 372.200012
92.282204 29.489708 372.015198
91.782310 29.932875 370.000000
91.782310 30.535784 370.000000
91.782310 31.138695 370.000000
91.286194 31.570028 368.000000
91.286194 32.169682 368.000000
91.116020 32.708244 367.313995
91.064949 33.288109 367.108124
91.064949 33.886311 367.108124
91.038132 34.474350 367.000000
91.010071 35.061562 366.886871
91.010071 35.659397 366.886871
91.038132 36.268417 367.000000
91.038132 36.866440 367.000000
91.038132 37.464462 367.000000
91.008209 38.049973 366.879364
91.012268 38.649517 366.895721
91.012268 39.247372 366.895721
91.012268 39.845222 366.895721
90.790070 40.344337 366.000000
90.790070 40.940731 366.000000
90.790070 41.537121 366.000000
90.790070 42.133514 366.000000
90.790070 42.729908 366.000000
90.790070 43.326298 366.000000
91.286194 44.162708 368.000000
92.774551 45.492180 374.000000
92.774551 46.101608 374.000000
92.774551 46.711037 374.000000
92.774551 47.320465 374.000000
92.774551 47.929893 374.000000
92.526489 48.409534 373.000000
92.526489 49.017334 373.000000
92.526489 49.625134 373.000000
92.526489 50.232933 373.000000
92.526489 50.840733 373.000000
92.526489 51.448528 373.000000
91.782310 51.637646 370.000000
91.335884 51.986458 368.200317
91.335884 52.586437 368.200317
91.360420 53.200706 368.299255
91.360420 53.800842 368.299255
91.360420 54.400982 368.299255
91.341255 54.989578 368.221954
91.627716 55.763927 369.376770
91.627716 56.365826 369.376770
91.627716 56.967720 369.376770
91.534248 57.510891 369.000000
91.534248 58.112171 369.000000
91.534248 58.713451 369.000000
91.782310 59.475479 370.000000
91.782310 60.078392 370.000000
91.782310 60.681301 370.000000
92.278435 61.615475 372.000000
92.278435 62.221645 372.000000
92.278435 62.827812 372.000000
91.705505 63.040142 369.690369
91.731529 63.660610 369.795258
91.731529 64.263184 369.795258
92.774551 65.603317 374.000000
92.774551 66.212746 374.000000
92.774551 66.822166 374.000000
92.774551 67.431595 374.000000
92.774551 68.041023 374.000000
92.774551 68.650452 374.000000
92.526489 69.074692 373.000000
91.534248 68.935226 369.000000
91.534248 69.536507 369.000000
91.534248 70.137787 369.000000
90.596405 70.014282 365.219269
90.596405 70.609406 365.219269
90.559433 71.175468 365.070221
90.790070 71.953133 366.000000
90.790070 72.549522 366.000000
90.790070 73.145920 366.000000
90.790070 73.742310 366.000000
90.790070 74.338699 366.000000
90.542007 74.730354 365.000000
90.542007 75.325119 365.000000
90.542007 75.919876 365.000000
90.542007 76.514641 365.000000
90.542007 77.109406 365.000000
90.542007 77.704170 365.000000
90.542007 78.298927 365.000000
90.542007 78.893692 365.000000
90.542007 79.488457 365.000000
90.542007 80.083221 365.000000
90.790070 80.899017 366.000000
90.790070 81.495415 366.000000
90.790070 82.091805 366.000000
90.293953 82.236351 364.000000
90.157127 82.703972 363.448425
90.157127 83.296204 363.448425
90.149300 83.881149 363.416870
90.149300 84.473335 363.416870
90.149300 85.065521 363.416870
90.089645 85.601028 363.176392
90.063034 86.167358 363.069122
90.063034 86.758972 363.069122
94.132767 -36.461353 377.000000
94.132767 -35.847034 377.000000
94.132767 -35.232719 377.000000
93.583450 -34.416382 374.799988
93.583450 -33.805649 374.799988
93.424255 -33.138451 374.162415
93.183807 -32.445038 373.199402
93.183807 -31.836914 373.199402
94.132767 -31.546818 377.000000
94.132767 -30.932501 377.000000
94.132767 -30.318184 377.000000
94.132767 -29.703867 377.000000
94.132767 -29.089552 377.000000
94.132767 -28.475235 377.000000
94.132767 -27.860918 377.000000
94.132767 -27.246601 377.000000
94.132767 -26.632284 377.000000
93.883080 -25.948954 376.000000
93.633392 -25.268885 375.000000
93.633392 -24.657825 375.000000
93.633392 -24.046768 375.000000
93.633392 -23.435711 375.000000
93.633392 -22.824654 375.000000
93.147110 -22.098228 373.052429
93.145958 -21.490080 373.047852
93.145958 -20.882204 373.047852
93.111427 -20.266809 372.909546
93.043335 -19.644779 372.636810
92.989052 -19.026466 372.419434
92.989052 -18.419615 372.419434
92.944908 -17.804306 372.242645
92.917374 -17.192646 372.132355
92.917374 -16.586260 372.132355
93.383698 -16.060074 374.000000
93.383698 -15.450646 374.000000
93.383698 -14.841218 374.000000
93.383698 -14.231790 374.000000
93.383698 -13.622361 374.000000
93.383698 -13.012934 374.000000
92.884323 -12.337176 372.000000
92.884323 -11.731008 372.000000
92.884323 -11.124838 372.000000
92.884323 -10.518669 372.000000
92.884323 -9.912499 372.000000
92.884323 -9.306330 372.000000
92.884323 -8.700161 372.000000
92.634636 -8.072234 371.000000
92.634636 -7.467694 371.000000
92.447151 -6.849264 370.249146
92.497505 -6.249350 370.450806
92.497505 -5.645705 370.450806
92.497505 -5.042059 370.450806
92.464935 -4.436852 370.320374
92.464935 -3.833420 370.320374
92.433731 -3.228897 370.195374
92.429428 -2.625546 370.178162
92.427147 -2.022296 370.169006
92.427147 -1.419110 370.169006
92.399399 -0.815679 370.057892
92.884323 -0.213791 372.000000
92.884323 0.392378 372.000000
92.884323 0.998548 372.000000
92.634636 1.600403 371.000000
92.634636 2.204943 371.000000
92.634636 2.809483 371.000000
92.634636 3.414023 371.000000
92.634636 4.018562 371.000000
92.634636 4.623102 371.000000
92.634636 5.227642 371.000000
92.634636 5.832182 371.000000
92.634636 6.436722 371.000000
92.634636 7.041262 371.000000
92.634636 7.645802 371.000000
92.384941 8.228103 370.000000
92.305344 8.823405 369.681213
92.305344 9.425796 369.681213
92.305344 10.028187 369.681213
92.280174 10.627678 369.580383
92.884323 11.303426 372.000000
92.884323 11.909595 372.000000
92.884323 12.515764 372.000000
92.884323 13.121934 372.000000
92.884323 13.728104 372.000000
92.384941 14.257206 370.000000
92.384941 14.860116 370.000000
92.384941 15.463027 370.000000
92.384941 16.065937 370.000000
92.271561 16.648390 369.545898
92.271561 17.250561 369.545898
92.267517 17.851948 369.529694
92.267982 18.454185 369.531555
92.267982 19.056332 369.531555
92.267982 19.658480 369.531555
92.252205 20.257162 369.468384
92.252205 20.859205 369.468384
92.235306 21.457319 369.400696
92.197830 22.050289 369.250610
92.197830 22.651979 369.250610
92.120239 23.234098 368.939850
92.031059 23.812204 368.582672
92.031059 24.412806 368.582672
92.006729 25.006794 368.485229
92.010986 25.608423 368.502319
92.010986 26.208895 368.502319
92.010986 26.809364 368.502319
91.998901 27.406231 368.453888
92.135254 28.048134 369.000000
92.135254 28.649414 369.000000
92.135254 29.250694 369.000000
92.384941 29.932875 370.000000
92.384941 30.535784 370.000000
92.384941 31.138695 370.000000
91.885567 31.570028 368.000000
91.885567 32.169682 368.000000
91.714279 32.708244 367.313995
91.662880 33.288109 367.108124
91.662880 33.886311 367.108124
91.635880 34.474350 367.000000
91.607635 35.061562 366.886871
91.607635 35.659397 366.886871
91.635880 36.268417 367.000000
91.635880 36.866440 367.000000
91.635880 37.464462 367.000000
91.605759 38.049973 366.879364
91.609840 38.649517 366.895721
91.609840 39.247372 366.895721
91.609840 39.845222 366.895721
91.386192 40.344337 366.000000
91.386192 40.940731 366.000000
91.386192 41.537121 366.000000
91.386192 42.133514 366.000000
91.386192 42.729908 366.000000
91.386192 43.326298 366.000000
91.885567 44.162708 368.000000
92.634636 45.127270 371.000000
92.634636 45.731812 371.000000
92.634636 46.336349 371.000000
92.634636 46.940891 371.000000
92.634636 47.545429 371.000000
92.884323 48.279755 372.000000
92.884323 48.885921 372.000000
92.884323 49.492092 372.000000
92.884323 50.098263 372.000000
92.384941 50.431824 370.000000
92.384941 51.034737 370.000000
92.384941 51.637646 370.000000
91.935585 51.986458 368.200317
91.935585 52.586437 368.200317
91.960289 53.200706 368.299255
91.960289 53.800842 368.299255
91.960289 54.400982 368.299255
91.940987 54.989578 368.221954
92.229332 55.763927 369.376770
92.229332 56.365826 369.376770
92.229332 56.967720 369.376770
92.135254 57.510891 369.000000
92.135254 58.112171 369.000000
92.135254 58.713451 369.000000
92.384941 59.475479 370.000000
92.384941 60.078392 370.000000
92.384941 60.681301 370.000000
92.884323 61.615475 372.000000
92.884323 62.221645 372.000000
92.884323 62.827812 372.000000
92.307640 63.040142 369.690369
92.333824 63.660610 369.795258
92.333824 64.263184 369.795258
92.333824 64.865761 369.795258
92.248962 65.408165 369.455383
92.248962 66.010193 369.455383
92.884323 67.070999 372.000000
92.884323 67.677170 372.000000
92.884323 68.283340 372.000000
92.884323 68.889503 372.000000
92.135254 68.935226 369.000000
92.135254 69.536507 369.000000
92.135254 70.137787 369.000000
91.191246 70.014282 365.219269
91.191246 70.609406 365.219269
91.154037 71.175468 365.070221
91.386192 71.953133 366.000000
91.386192 72.549522 366.000000
91.386192 73.145920 366.000000
91.386192 73.742310 366.000000
91.386192 74.338699 366.000000
91.136505 74.730354 365.000000
91.136505 75.325119 365.000000
91.136505 75.919876 365.000000
91.136505 76.514641 365.000000
91.136505 77.109406 365.000000
91.136505 77.704170 365.000000
91.136505 78.298927 365.000000
91.136505 78.893692 365.000000
91.136505 79.488457 365.000000
91.136505 80.083221 365.000000
91.386192 80.899017 366.000000
91.386192 81.495415 366.000000
91.386192 82.091805 366.000000
90.886810 82.236351 364.000000
90.749092 82.703972 363.448425
90.749092 83.296204 363.448425
90.723991 83.865242 363.347900
90.687675 84.423500 363.202454
90.687675 85.015335 363.202454
90.681168 85.601028 363.176392
90.654381 86.167358 363.069122
90.654381 86.758972 363.069122
90.574692 87.273804 362.749969
94.746803 -36.461353 377.000000
94.746803 -35.847034 377.000000
94.746803 -35.232719 377.000000
93.877853 -34.300907 373.542419
93.877853 -33.692223 373.542419
93.734253 -33.032936 372.971039
93.566696 -32.367222 372.304321
93.566696 -31.760555 372.304321
94.746803 -31.546818 377.000000
94.746803 -30.932501 377.000000
94.746803 -30.318184 377.000000
94.746803 -29.703867 377.000000
94.746803 -29.089552 377.000000
94.746803 -28.475235 377.000000
94.746803 -27.860918 377.000000
94.746803 -27.246601 377.000000
94.746803 -26.632284 377.000000
94.244171 -25.879942 375.000000
93.992851 -25.201498 374.000000
93.992851 -24.592070 374.000000
93.992851 -23.982641 374.000000
93.741531 -23.310719 373.000000
93.741531 -22.702921 373.000000
93.490219 -22.035885 372.000000
93.490219 -21.429716 372.000000
93.490219 -20.823547 372.000000
93.463432 -20.211586 371.893433
93.238899 -19.558491 371.000000
93.490219 -19.005039 372.000000
93.490219 -18.398870 372.000000
93.490219 -17.792700 372.000000
93.490219 -17.186531 372.000000
93.490219 -16.580362 372.000000
93.741531 -16.017134 373.000000
93.741531 -15.409335 373.000000
93.741531 -14.801536 373.000000
93.741531 -14.193737 373.000000
93.741531 -13.585938 373.000000
93.741531 -12.978141 373.000000
93.490219 -12.337176 372.000000
93.238899 -11.699472 371.000000
93.238899 -11.094933 371.000000
93.238899 -10.490393 371.000000
92.987579 -9.859207 370.000000
92.987579 -9.256296 370.000000
92.987579 -8.653386 370.000000
92.987579 -8.050476 370.000000
92.987579 -7.447566 370.000000
92.987579 -6.844655 370.000000
92.736259 -6.224875 369.000000
92.736259 -5.623594 369.000000
92.736259 -5.022314 369.000000
92.736259 -4.421033 369.000000
92.736259 -3.819752 369.000000
92.736259 -3.218471 369.000000
92.736259 -2.617190 369.000000
92.736259 -2.015909 369.000000
92.736259 -1.414628 369.000000
92.987579 -0.815552 370.000000
92.987579 -0.212641 370.000000
92.987579 0.390269 370.000000
92.987579 0.993179 370.000000
92.987579 1.596089 370.000000
92.987579 2.199000 370.000000
92.987579 2.801910 370.000000
92.736259 3.395618 369.000000
92.736259 3.996899 369.000000
92.987579 4.610641 370.000000
92.987579 5.213552 370.000000
92.987579 5.816462 370.000000
92.987579 6.419372 370.000000
92.736259 7.003304 369.000000
92.736259 7.604584 369.000000
92.736259 8.205865 369.000000
92.736259 8.807146 369.000000
92.736259 9.408427 369.000000
92.736259 10.009707 369.000000
92.736259 10.610989 369.000000
92.736259 11.212270 369.000000
92.736259 11.813550 369.000000
92.736259 12.414831 369.000000
92.736259 13.016112 369.000000
92.736259 13.617392 369.000000
92.736259 14.218673 369.000000
92.736259 14.819954 369.000000
92.736259 15.421234 369.000000
92.736259 16.022514 369.000000
92.736259 16.623796 369.000000
92.736259 17.225077 369.000000
92.736259 17.826357 369.000000
92.736259 18.427639 369.000000
92.736259 19.028919 369.000000
92.736259 19.630199 369.000000
92.484947 20.176653 368.000000
92.484947 20.776304 368.000000
92.533577 21.387197 368.193512
92.533577 21.987164 368.193512
92.533577 22.587132 368.193512
92.233627 23.111937 367.000000
92.233627 23.709957 367.000000
92.233627 24.307980 367.000000
92.233627 24.906002 367.000000
91.982307 25.434530 366.000000
91.982307 26.030922 366.000000
91.982307 26.627314 366.000000
91.982307 27.223705 366.000000
92.233627 27.896111 367.000000
92.233627 28.494133 367.000000
92.484947 29.171423 368.000000
92.736259 29.851976 369.000000
92.736259 30.453257 369.000000
92.736259 31.054537 369.000000
92.484947 31.570028 368.000000
92.484947 32.169682 368.000000
92.233627 32.680286 367.000000
92.233627 33.278309 367.000000
92.233627 33.876328 367.000000
92.233627 34.474350 367.000000
92.044121 35.000313 366.245972
92.044121 35.597107 366.245972
92.233627 36.268417 367.000000
92.233627 36.866440 367.000000
92.233627 37.464462 367.000000
91.982307 37.958767 366.000000
91.982307 38.555161 366.000000
91.982307 39.151554 366.000000
91.982307 39.747944 366.000000
91.982307 40.344337 366.000000
91.982307 40.940731 366.000000
91.982307 41.537121 366.000000
91.982307 42.133514 366.000000
91.982307 42.729908 366.000000
91.982307 43.326298 366.000000
92.484947 44.162708 368.000000
92.484947 44.762360 368.000000
92.484947 45.362011 368.000000
92.736259 46.086559 369.000000
92.736259 46.687840 369.000000
92.736259 47.289120 369.000000
92.736259 47.890400 369.000000
92.736259 48.491680 369.000000
92.736259 49.092964 369.000000
92.736259 49.694244 369.000000
92.736259 50.295525 369.000000
92.736259 50.896805 369.000000
92.736259 51.498085 369.000000
92.484947 51.958176 368.000000
92.484947 52.557827 368.000000
91.982307 52.868576 366.000000
92.201317 53.592266 366.871429
92.201317 54.190079 366.871429
92.201317 54.787891 366.871429
92.137283 55.347244 366.616669
92.137283 55.944641 366.616669
91.982307 56.446930 366.000000
92.233627 57.199181 367.000000
92.233627 57.797203 367.000000
92.233627 58.395226 367.000000
92.484947 59.153996 368.000000
92.736259 59.916016 369.000000
92.736259 60.517296 369.000000
92.736259 61.118576 369.000000
92.239738 61.389400 367.024323
92.239738 61.987461 367.024323
92.218132 62.570862 366.938354
92.112808 63.096642 366.519257
92.112808 63.693878 366.519257
92.048965 64.246559 366.265228
92.402870 65.092690 367.673431
92.402870 65.691811 367.673431
92.402870 66.290924 367.673431
92.304176 66.818596 367.280701
92.304176 67.417076 367.280701
91.982307 67.778389 366.000000
92.233627 68.561600 367.000000
92.233627 69.159622 367.000000
92.233627 69.757637 367.000000
91.786095 70.014282 365.219269
91.786095 70.609406 365.219269
91.748642 71.175468 365.070221
91.982307 71.953133 366.000000
91.982307 72.549522 366.000000
91.982307 73.145920 366.000000
91.982307 73.742310 366.000000
91.982307 74.338699 366.000000
91.730995 74.730354 365.000000
91.730995 75.325119 365.000000
91.730995 75.919876 365.000000
91.730995 76.514641 365.000000
91.730995 77.109406 365.000000
91.479675 77.491280 364.000000
91.479675 78.084419 364.000000
91.730995 78.893692 365.000000
91.730995 79.488457 365.000000
91.730995 80.083221 365.000000
91.479675 80.456947 364.000000
91.479675 81.050087 364.000000
91.479675 81.643219 364.000000
91.479675 82.236351 364.000000
91.341057 82.703972 363.448425
91.341057 83.296204 363.448425
91.315788 83.865242 363.347900
91.279236 84.423500 363.202454
91.279236 85.015335 363.202454
91.272682 85.601028 363.176392
91.245728 86.167358 363.069122
91.245728 86.758972 363.069122
91.165520 87.273804 362.749969
94.897102 -36.284039 375.166656
94.897102 -35.672710 375.166656
94.897102 -35.061382 375.166656
94.486259 -34.300907 373.542419
94.486259 -33.692223 373.542419
94.341728 -33.032936 372.971039
94.173088 -32.367222 372.304321
94.173088 -31.760555 372.304321
94.601997 -31.295782 374.000000
94.854950 -30.768404 375.000000
94.854950 -30.157347 375.000000
94.854950 -29.546288 375.000000
94.854950 -28.935230 375.000000
94.854950 -28.324173 375.000000
94.854950 -27.713116 375.000000
94.854950 -27.102057 375.000000
94.854950 -26.490999 375.000000
94.854950 -25.879942 375.000000
94.601997 -25.201498 374.000000
94.601997 -24.592070 374.000000
94.601997 -23.982641 374.000000
94.349052 -23.310719 373.000000
94.349052 -22.702921 373.000000
94.096107 -22.035885 372.000000
94.096107 -21.429716 372.000000
94.096107 -20.823547 372.000000
94.069153 -20.211586 371.893433
93.843163 -19.558491 371.000000
94.096107 -19.005039 372.000000
94.096107 -18.398870 372.000000
94.096107 -17.792700 372.000000
94.096107 -17.186531 372.000000
94.096107 -16.580362 372.000000
94.349052 -16.017134 373.000000
94.349052 -15.409335 373.000000
94.349052 -14.801536 373.000000
94.349052 -14.193737 373.000000
94.349052 -13.585938 373.000000
94.349052 -12.978141 373.000000
94.096107 -12.337176 372.000000
93.843163 -11.699472 371.000000
93.843163 -11.094933 371.000000
93.843163 -10.490393 371.000000
93.590210 -9.859207 370.000000
93.590210 -9.256296 370.000000
93.590210 -8.653386 370.000000
93.590210 -8.050476 370.000000
93.590210 -7.447566 370.000000
93.590210 -6.844655 370.000000
93.337265 -6.224875 369.000000
93.337265 -5.623594 369.000000
93.337265 -5.022314 369.000000
93.337265 -4.421033 369.000000
93.337265 -3.819752 369.000000
93.337265 -3.218471 369.000000
93.337265 -2.617190 369.000000
93.337265 -2.015909 369.000000
93.337265 -1.414628 369.000000
93.590210 -0.815552 370.000000
93.590210 -0.212641 370.000000
93.590210 0.390269 370.000000
93.590210 0.993179 370.000000
93.590210 1.596089 370.000000
93.590210 2.199000 370.000000
93.590210 2.801910 370.000000
93.337265 3.395618 369.000000
93.337265 3.996899 369.000000
93.590210 4.610641 370.000000
93.590210 5.213552 370.000000
93.590210 5.816462 370.000000
93.590210 6.419372 370.000000
93.337265 7.003304 369.000000
93.337265 7.604584 369.000000
93.337265 8.205865 369.000000
93.337265 8.807146 369.000000
93.337265 9.408427 369.000000
93.337265 10.009707 369.000000
93.337265 10.610989 369.000000
93.337265 11.212270 369.000000
93.337265 11.813550 369.000000
93.337265 12.414831 369.000000
93.337265 13.016112 369.000000
93.337265 13.617392 369.000000
93.337265 14.218673 369.000000
93.337265 14.819954 369.000000
93.337265 15.421234 369.000000
93.337265 16.022514 369.000000
93.084320 16.578745 368.000000
93.084320 17.178396 368.000000
93.084320 17.778048 368.000000
93.084320 18.377699 368.000000
93.084320 18.977350 368.000000
93.084320 19.577002 368.000000
93.084320 20.176653 368.000000
93.084320 20.776304 368.000000
93.084320 21.375956 368.000000
93.084320 21.975607 368.000000
93.084320 22.575258 368.000000
92.831375 23.111937 367.000000
92.831375 23.709957 367.000000
92.831375 24.307980 367.000000
92.831375 24.906002 367.000000
92.578430 25.434530 366.000000
92.578430 26.030922 366.000000
92.578430 26.627314 366.000000
92.578430 27.223705 366.000000
92.831375 27.896111 367.000000
92.831375 28.494133 367.000000
92.831375 29.092154 367.000000
93.084320 29.771074 368.000000
93.084320 30.370726 368.000000
93.084320 30.970377 368.000000
93.084320 31.570028 368.000000
93.084320 32.169682 368.000000
92.831375 32.680286 367.000000
92.831375 33.278309 367.000000
92.831375 33.876328 367.000000
92.578430 34.380413 366.000000
92.578430 34.976807 366.000000
92.578430 35.573200 366.000000
92.578430 36.169590 366.000000
92.578430 36.765984 366.000000
92.578430 37.362377 366.000000
92.578430 37.958767 366.000000
92.578430 38.555161 366.000000
92.578430 39.151554 366.000000
92.578430 39.747944 366.000000
92.578430 40.344337 366.000000
92.578430 40.940731 366.000000
92.578430 41.537121 366.000000
92.578430 42.133514 366.000000
92.578430 42.729908 366.000000
92.578430 43.326298 366.000000
92.578430 43.922691 366.000000
93.084320 44.762360 368.000000
93.084320 45.362011 368.000000
93.084320 45.961662 368.000000
93.084320 46.561314 368.000000
93.084320 47.160965 368.000000
93.084320 47.760616 368.000000
93.084320 48.360268 368.000000
93.084320 48.959919 368.000000
93.084320 49.559570 368.000000
93.084320 50.159222 368.000000
93.084320 50.758873 368.000000
92.831375 51.218964 367.000000
92.831375 51.816986 367.000000
92.831375 52.415009 367.000000
92.578430 52.868576 366.000000
92.325485 53.318893 365.000000
92.325485 53.913651 365.000000
92.325485 54.508415 365.000000
92.325485 55.103176 365.000000
92.325485 55.697941 365.000000
92.325485 56.292702 365.000000
92.578430 57.043324 366.000000
92.578430 57.639717 366.000000
92.578430 58.236107 366.000000
