37.859108 173.519257 326.000000
37.742977 173.516571 325.000000
37.742977 174.046158 325.000000
37.742977 174.575745 325.000000
37.626842 174.566528 324.000000
37.510712 174.554077 323.000000
37.510712 175.080399 323.000000
37.510712 175.606720 323.000000
37.510712 176.133041 323.000000
37.510712 176.659363 323.000000
37.510712 177.185699 323.000000
37.394581 177.161819 322.000000
37.394581 177.686523 322.000000
37.394581 178.211212 322.000000
37.394581 178.735916 322.000000
37.278450 178.703903 321.000000
37.278450 179.226974 321.000000
37.162315 179.190063 320.000000
37.162315 179.711502 320.000000
37.162315 180.232941 320.000000
37.162315 180.754379 320.000000
37.162315 181.275803 320.000000
37.162315 181.797241 320.000000
37.046181 181.748932 319.000000
37.046181 182.268738 319.000000
37.046181 182.788544 319.000000
37.046181 183.308350 319.000000
36.930050 183.251892 318.000000
36.930050 183.770065 318.000000
36.930050 184.288254 318.000000
36.813919 184.225266 317.000000
36.813919 184.741821 317.000000
36.813919 185.258362 317.000000
36.813919 185.774918 317.000000
36.813919 186.291458 317.000000
36.697788 186.218704 316.000000
36.697788 186.733627 316.000000
36.697788 187.248535 316.000000
36.581654 187.169266 315.000000
36.581654 187.682556 315.000000
36.465523 187.598404 314.000000
36.465523 188.110077 314.000000
36.465523 188.621735 314.000000
36.465523 189.133392 314.000000
36.465523 189.645050 314.000000
36.465523 190.156708 314.000000
36.349388 190.061142 313.000000
36.349388 190.571167 313.000000
36.349388 191.081192 313.000000
36.349388 191.591232 313.000000
36.349388 192.101257 313.000000
36.233257 191.995911 312.000000
36.233257 192.504318 312.000000
36.233257 193.012711 312.000000
36.233257 193.521118 312.000000
36.117126 193.407623 311.000000
36.117126 193.914398 311.000000
36.117126 194.421158 311.000000
36.117126 194.927933 311.000000
36.117126 195.434708 311.000000
36.117126 195.941483 311.000000
36.117126 196.448242 311.000000
36.117126 196.955017 311.000000
36.117126 197.461792 311.000000
36.000996 197.332001 310.000000
36.000996 197.837143 310.000000
35.884861 197.702469 309.000000
35.768730 197.564529 308.000000
35.768730 198.066422 308.000000
35.768730 198.568298 308.000000
35.768730 199.070175 308.000000
35.768730 199.572067 308.000000
35.768730 200.073944 308.000000
35.768730 200.575821 308.000000
35.652596 200.424866 307.000000
35.652596 200.925125 307.000000
35.652596 201.425369 307.000000
35.557579 201.387482 306.181824
35.557579 201.886398 306.181824
35.540752 202.289536 306.036926
35.539883 202.783249 306.029419
35.539883 203.281921 306.029419
35.420330 203.095123 305.000000
35.420330 203.592102 305.000000
35.420330 204.089096 305.000000
35.304203 203.915314 304.000000
35.304203 204.410690 304.000000
35.304203 204.906052 304.000000
35.304203 205.401413 304.000000
35.188068 205.219482 303.000000
35.188068 205.713211 303.000000
35.188068 206.206955 303.000000
35.188068 206.700684 303.000000
35.188068 207.194427 303.000000
35.188068 207.688156 303.000000
35.188068 208.181885 303.000000
35.188068 208.675629 303.000000
35.071934 208.479034 302.000000
35.071934 208.971130 302.000000
35.056206 209.369308 301.864563
35.056206 209.861191 301.864563
34.955803 209.750610 301.000000
34.955803 210.241074 301.000000
34.955803 210.731552 301.000000
34.955803 211.222031 301.000000
45.748669 19.400833 388.487518
45.748669 20.033869 388.487518
46.636948 21.068184 396.030579
47.107574 21.932629 400.027039
47.107574 22.584467 400.027039
47.107574 23.236305 400.027039
47.099228 23.883911 399.956146
47.099228 24.535635 399.956146
46.867641 25.063513 397.989563
46.746723 25.645693 396.962738
46.746723 26.292540 396.962738
46.712353 26.919580 396.670898
46.886471 27.668701 398.149475
46.886471 28.317480 398.149475
46.886471 28.966261 398.149475
46.956684 29.659388 398.745697
46.956684 30.309139 398.745697
46.956684 30.958889 398.745697
46.929813 31.590557 398.517548
46.856335 32.189453 397.893555
46.856335 32.837818 397.893555
46.754086 33.413105 397.025299
46.662956 33.993668 396.251434
46.662956 34.639351 396.251434
46.570400 35.215054 395.465485
46.452370 35.768574 394.463196
46.452370 36.411346 394.463196
46.401150 37.013260 394.028229
46.241737 37.525963 392.674561
46.241737 38.165821 392.674561
46.172192 38.747314 392.083984
45.455738 38.775055 386.000000
45.455738 39.404037 386.000000
45.455738 40.033020 386.000000
45.337978 40.556656 385.000000
45.337978 41.184010 385.000000
45.337978 41.811363 385.000000
45.220215 42.328487 384.000000
45.220215 42.954208 384.000000
45.337978 43.693420 385.000000
45.337978 44.320774 385.000000
45.337978 44.948128 385.000000
45.337978 45.575478 385.000000
45.337978 46.202831 385.000000
45.337978 46.830185 385.000000
45.337978 47.457535 385.000000
45.337978 48.084888 385.000000
45.337978 48.712242 385.000000
45.337978 49.339596 385.000000
45.337978 49.966946 385.000000
45.337978 50.594299 385.000000
45.337978 51.221653 385.000000
45.220215 51.714333 384.000000
45.220215 52.340057 384.000000
45.220215 52.965778 384.000000
45.220215 53.591503 384.000000
45.220215 54.217228 384.000000
45.220215 54.842949 384.000000
45.220215 55.468674 384.000000
45.220215 56.094395 384.000000
45.220215 56.720119 384.000000
44.090828 55.913616 374.409515
44.073494 56.501488 374.262299
44.073494 57.111343 374.262299
44.002987 57.628857 373.663544
43.991703 58.222805 373.567749
43.991703 58.831528 373.567749
43.834858 59.228333 372.235870
43.630703 59.556210 370.502228
43.630703 60.159943 370.502228
43.513256 60.600101 369.504883
43.360165 60.986881 368.204865
43.227207 61.398022 367.075836
43.227207 61.996162 367.075836
43.052734 62.341660 365.594208
42.888790 62.697735 364.202057
42.888790 63.291191 364.202057
42.888790 63.884655 364.202057
42.809345 64.358681 363.527405
42.809345 64.951042 363.527405
42.648811 65.297623 362.164215
42.648811 65.887764 362.164215
42.648811 66.477913 362.164215
41.805149 65.741333 355.000000
41.805149 66.319801 355.000000
41.805149 66.898270 355.000000
41.687386 67.286667 354.000000
41.687386 67.863503 354.000000
41.687386 68.440338 354.000000
41.687386 69.017181 354.000000
41.687386 69.594017 354.000000
41.687386 70.170853 354.000000
41.687386 70.747696 354.000000
41.569626 71.123047 353.000000
41.569626 71.698257 353.000000
41.569626 72.273468 353.000000
41.569626 72.848679 353.000000
41.569626 73.423889 353.000000
41.569626 73.999092 353.000000
41.569626 74.574303 353.000000
41.687386 75.362404 354.000000
41.687386 75.939240 354.000000
41.687386 76.516083 354.000000
41.687386 77.092918 354.000000
41.687386 77.669754 354.000000
41.687386 78.246597 354.000000
41.569626 78.600769 353.000000
41.569626 79.175980 353.000000
41.569626 79.751183 353.000000
41.569626 80.326393 353.000000
41.569626 80.901604 353.000000
41.569626 81.476814 353.000000
41.569626 82.052025 353.000000
41.569626 82.627228 353.000000
41.569626 83.202438 353.000000
41.569626 83.777649 353.000000
41.569626 84.352859 353.000000
41.451862 84.687477 352.000000
41.451862 85.261055 352.000000
41.451862 85.834633 352.000000
41.451862 86.408211 352.000000
41.451862 86.981796 352.000000
41.451862 87.555374 352.000000
41.451862 88.128952 352.000000
41.451862 88.702530 352.000000
41.451862 89.276108 352.000000
41.451862 89.849693 352.000000
41.451862 90.423271 352.000000
41.451862 90.996849 352.000000
41.451862 91.570427 352.000000
41.451862 92.144012 352.000000
41.451862 92.717590 352.000000
41.451862 93.291168 352.000000
41.451862 93.864746 352.000000
41.334103 94.170044 351.000000
41.334103 94.741989 351.000000
41.334103 95.313942 351.000000
41.334103 95.885895 351.000000
41.334103 96.457840 351.000000
41.334103 97.029793 351.000000
41.216343 97.323669 350.000000
41.216343 97.893990 350.000000
41.216343 98.464310 350.000000
41.216343 99.034637 350.000000
41.216343 99.604958 350.000000
41.216343 100.175278 350.000000
41.098579 100.457748 349.000000
41.098579 101.026443 349.000000
41.098579 101.595131 349.000000
41.098579 102.163826 349.000000
41.098579 102.732513 349.000000
41.098579 103.301201 349.000000
41.098579 103.869896 349.000000
41.098579 104.438583 349.000000
41.098579 105.007278 349.000000
40.980820 105.273460 348.000000
40.980820 105.840515 348.000000
40.980820 106.407578 348.000000
40.863056 106.667252 347.000000
40.863056 107.232681 347.000000
40.863056 107.798111 347.000000
40.863056 108.363541 347.000000
40.863056 108.928978 347.000000
40.863056 109.494408 347.000000
40.745300 109.742661 346.000000
40.745300 110.306465 346.000000
40.745300 110.870270 346.000000
40.745300 111.434074 346.000000
40.745300 111.997871 346.000000
40.745300 112.561676 346.000000
40.745300 113.125481 346.000000
40.627537 113.360695 345.000000
40.627537 113.922874 345.000000
40.627537 114.485046 345.000000
40.509777 114.713745 344.000000
40.509777 115.274292 344.000000
40.509777 115.834831 344.000000
40.509777 116.395378 344.000000
40.509777 116.955917 344.000000
40.509777 117.516464 344.000000
40.392014 117.733757 343.000000
40.392014 118.292671 343.000000
40.392014 118.851585 343.000000
40.392014 119.410500 343.000000
40.392014 119.969414 343.000000
40.392014 120.528328 343.000000
40.392014 121.087242 343.000000
40.392014 121.646156 343.000000
40.392014 122.205070 343.000000
40.392014 122.763985 343.000000
40.392014 123.322899 343.000000
40.392014 123.881813 343.000000
40.274254 124.077942 342.000000
40.274254 124.635223 342.000000
40.274254 125.192505 342.000000
40.274254 125.749794 342.000000
40.274254 126.307076 342.000000
40.274254 126.864365 342.000000
40.274254 127.421646 342.000000
40.274254 127.978928 342.000000
40.274254 128.536209 342.000000
40.274254 129.093506 342.000000
40.274254 129.650787 342.000000
40.274254 130.208069 342.000000
40.274254 130.765350 342.000000
40.274254 131.322632 342.000000
40.274254 131.879929 342.000000
40.274254 132.437210 342.000000
40.274254 132.994492 342.000000
40.274254 133.551773 342.000000
40.156494 133.716934 341.000000
40.156494 134.272583 341.000000
40.156494 134.828247 341.000000
40.156494 135.383896 341.000000
40.156494 135.939545 341.000000
40.156494 136.495209 341.000000
40.156494 137.050858 341.000000
40.156494 137.606522 341.000000
40.156494 138.162170 341.000000
40.156494 138.717819 341.000000
40.156494 139.273483 341.000000
40.156494 139.829132 341.000000
40.156494 140.384796 341.000000
40.156494 140.940445 341.000000
40.156494 141.496109 341.000000
40.156494 142.051758 341.000000
40.156494 142.607407 341.000000
40.156494 143.163071 341.000000
40.156494 143.718719 341.000000
40.156494 144.274384 341.000000
40.274254 145.254761 342.000000
40.274254 145.812042 342.000000
40.274254 146.369324 342.000000
40.274254 146.926605 342.000000
40.274254 147.483902 342.000000
40.274254 148.041183 342.000000
40.274254 148.598465 342.000000
40.274254 149.155746 342.000000
40.274254 149.713028 342.000000
40.156494 149.830933 341.000000
40.156494 150.386581 341.000000
40.156494 150.942245 341.000000
40.156494 151.497894 341.000000
40.038734 151.607651 340.000000
40.038734 152.161667 340.000000
40.038734 152.715698 340.000000
40.038734 153.269714 340.000000
40.038734 153.823746 340.000000
40.038734 154.377777 340.000000
40.038734 154.931793 340.000000
40.038734 155.485825 340.000000
40.038734 156.039856 340.000000
39.920971 156.133301 339.000000
39.920971 156.685699 339.000000
39.920971 157.238098 339.000000
39.920971 157.790497 339.000000
39.920971 158.342880 339.000000
39.920971 158.895279 339.000000
39.803211 158.977325 338.000000
39.803211 159.528091 338.000000
39.685448 159.605255 337.000000
39.685448 160.154388 337.000000
39.685448 160.703537 337.000000
39.567688 160.774170 336.000000
39.567688 161.321686 336.000000
39.567688 161.869186 336.000000
39.449928 161.933319 335.000000
39.449928 162.479202 335.000000
39.449928 163.025085 335.000000
39.332165 163.082687 334.000000
39.332165 163.626938 334.000000
39.332165 164.171188 334.000000
39.214405 164.222275 333.000000
39.214405 164.764893 333.000000
39.214405 165.307510 333.000000
39.214405 165.850128 333.000000
39.096642 165.893066 332.000000
39.096642 166.434052 332.000000
39.096642 166.975052 332.000000
38.978886 167.011475 331.000000
38.861122 167.044632 330.000000
38.861122 167.582367 330.000000
38.743362 167.610641 329.000000
38.743362 168.146744 329.000000
38.743362 168.682831 329.000000
38.743362 169.218933 329.000000
38.625599 169.239075 328.000000
38.625599 169.773544 328.000000
38.507839 169.788788 327.000000
38.507839 170.321625 327.000000
38.507839 170.854477 327.000000
38.507839 171.387314 327.000000
38.507839 171.920151 327.000000
38.507839 172.453003 327.000000
38.390079 172.456833 326.000000
38.390079 172.988052 326.000000
38.390079 173.519257 326.000000
38.272320 173.516571 325.000000
38.272320 174.046158 325.000000
38.272320 174.575745 325.000000
38.154556 174.566528 324.000000
38.036797 174.554077 323.000000
38.036797 175.080399 323.000000
38.036797 175.606720 323.000000
38.036797 176.133041 323.000000
38.036797 176.659363 323.000000
38.036797 177.185699 323.000000
37.919033 177.161819 322.000000
37.919033 177.686523 322.000000
37.919033 178.211212 322.000000
37.919033 178.735916 322.000000
37.801273 178.703903 321.000000
37.801273 179.226974 321.000000
37.683514 179.190063 320.000000
37.683514 179.711502 320.000000
37.683514 180.232941 320.000000
37.683514 180.754379 320.000000
37.683514 181.275803 320.000000
37.683514 181.797241 320.000000
37.565750 181.748932 319.000000
37.565750 182.268738 319.000000
37.565750 182.788544 319.000000
37.447990 182.733719 318.000000
37.447990 183.251892 318.000000
37.447990 183.770065 318.000000
37.447990 184.288254 318.000000
37.330227 184.225266 317.000000
37.330227 184.741821 317.000000
37.330227 185.258362 317.000000
37.212471 185.188873 316.000000
37.212471 185.703781 316.000000
37.212471 186.218704 316.000000
37.094707 186.142700 315.000000
37.094707 186.655975 315.000000
37.094707 187.169266 315.000000
37.094707 187.682556 315.000000
36.976948 187.598404 314.000000
36.976948 188.110077 314.000000
36.976948 188.621735 314.000000
36.976948 189.133392 314.000000
36.976948 189.645050 314.000000
36.859184 189.551117 313.000000
36.859184 190.061142 313.000000
36.859184 190.571167 313.000000
36.859184 191.081192 313.000000
36.859184 191.591232 313.000000
36.859184 192.101257 313.000000
36.741425 191.995911 312.000000
36.741425 192.504318 312.000000
36.741425 193.012711 312.000000
36.741425 193.521118 312.000000
36.623665 193.407623 311.000000
36.623665 193.914398 311.000000
36.623665 194.421158 311.000000
36.623665 194.927933 311.000000
36.623665 195.434708 311.000000
36.505905 195.311432 310.000000
36.505905 195.816574 310.000000
36.505905 196.321716 310.000000
36.505905 196.826859 310.000000
36.505905 197.332001 310.000000
36.505905 197.837143 310.000000
36.270382 197.062653 308.000000
36.270382 197.564529 308.000000
36.270382 198.066422 308.000000
36.270382 198.568298 308.000000
36.270382 199.070175 308.000000
36.270382 199.572067 308.000000
36.270382 200.073944 308.000000
36.270382 200.575821 308.000000
36.152618 200.424866 307.000000
36.152618 200.925125 307.000000
36.152618 201.425369 307.000000
36.056271 201.387482 306.181824
36.056271 201.886398 306.181824
36.039207 202.289536 306.036926
36.038326 202.783249 306.029419
36.038326 203.281921 306.029419
35.917099 203.095123 305.000000
35.917099 203.592102 305.000000
35.917099 204.089096 305.000000
35.799339 203.915314 304.000000
35.799339 204.410690 304.000000
35.799339 204.906052 304.000000
35.799339 205.401413 304.000000
35.681576 205.219482 303.000000
35.681576 205.713211 303.000000
35.681576 206.206955 303.000000
35.681576 206.700684 303.000000
35.681576 207.194427 303.000000
35.681576 207.688156 303.000000
35.563812 207.494827 302.000000
35.563812 207.986923 302.000000
35.563812 208.479034 302.000000
35.563812 208.971130 302.000000
35.446056 208.769653 301.000000
35.446056 209.260132 301.000000
35.446056 209.750610 301.000000
35.446056 210.241074 301.000000
35.446056 210.731552 301.000000
35.328293 210.520309 300.000000
47.044216 19.678076 394.039093
47.044216 20.320158 394.039093
47.762436 21.282269 400.054840
47.762436 21.934153 400.054840
47.762436 22.586037 400.054840
47.759113 23.236305 400.027039
48.773506 24.395521 408.523499
48.773506 25.061207 408.523499
48.773506 25.726891 408.523499
48.773506 26.392574 408.523499
48.773506 27.058258 408.523499
48.773506 27.723942 408.523499
48.773506 28.389626 408.523499
48.773506 29.055309 408.523499
48.773506 29.720993 408.523499
48.168121 30.009512 403.452820
48.192875 30.682695 403.660187
48.192875 31.340456 403.660187
48.192875 31.998215 403.660187
48.099487 32.592690 402.877960
48.099487 33.249172 402.877960
47.903255 33.767334 401.234344
47.726093 34.293842 399.750458
47.726093 34.945229 399.750458
47.580101 35.487728 398.527618
47.412712 36.009991 397.125580
47.412712 36.657104 397.125580
47.314877 37.227238 396.306122
47.109055 37.708263 394.582153
47.109055 38.351231 394.582153
47.074604 38.965679 394.293610
47.074604 39.608177 394.293610
47.074604 40.250675 394.293610
46.084431 40.033020 386.000000
45.965042 40.556656 385.000000
45.965042 41.184010 385.000000
45.965042 41.811363 385.000000
45.845654 42.328487 384.000000
45.845654 42.954208 384.000000
45.965042 43.693420 385.000000
45.965042 44.320774 385.000000
45.965042 44.948128 385.000000
45.965042 45.575478 385.000000
45.965042 46.202831 385.000000
45.965042 46.830185 385.000000
45.965042 47.457535 385.000000
45.965042 48.084888 385.000000
45.965042 48.712242 385.000000
45.965042 49.339596 385.000000
45.965042 49.966946 385.000000
45.965042 50.594299 385.000000
45.965042 51.221653 385.000000
45.845654 51.714333 384.000000
45.845654 52.340057 384.000000
45.845654 52.965778 384.000000
45.845654 53.591503 384.000000
45.845654 54.217228 384.000000
45.845654 54.842949 384.000000
45.845654 55.468674 384.000000
45.845654 56.094395 384.000000
45.845654 56.720119 384.000000
44.700645 55.913616 374.409515
44.683071 56.501488 374.262299
44.683071 57.111343 374.262299
44.611584 57.628857 373.663544
44.686035 58.334927 374.287140
44.686035 58.944820 374.287140
44.686035 59.554722 374.287140
44.547108 59.977566 373.123505
44.547108 60.585567 373.123505
44.408352 61.002960 371.961273
44.246559 61.384602 370.606110
44.102779 61.787067 369.401794
44.102779 62.388996 369.401794
43.927330 62.740349 367.932251
43.750214 63.084496 366.448730
43.750214 63.681622 366.448730
43.726185 64.243446 366.247498
43.612766 64.672058 365.297485
43.612766 65.267303 365.297485
43.371552 65.498276 363.277100
43.238682 65.887764 362.164215
43.238682 66.477913 362.164215
42.383350 65.741333 355.000000
42.383350 66.319801 355.000000
42.383350 66.898270 355.000000
42.263962 67.286667 354.000000
42.263962 67.863503 354.000000
42.263962 68.440338 354.000000
42.263962 69.017181 354.000000
42.263962 69.594017 354.000000
42.263962 70.170853 354.000000
42.263962 70.747696 354.000000
42.263962 71.324532 354.000000
42.263962 71.901375 354.000000
42.263962 72.478210 354.000000
42.263962 73.055046 354.000000
42.263962 73.631889 354.000000
42.263962 74.208725 354.000000
42.263962 74.785561 354.000000
42.263962 75.362404 354.000000
42.263962 75.939240 354.000000
42.263962 76.516083 354.000000
42.263962 77.092918 354.000000
42.263962 77.669754 354.000000
42.263962 78.246597 354.000000
42.263962 78.823433 354.000000
42.263962 79.400269 354.000000
42.144573 79.751183 353.000000
42.144573 80.326393 353.000000
42.144573 80.901604 353.000000
42.144573 81.476814 353.000000
42.144573 82.052025 353.000000
42.144573 82.627228 353.000000
42.144573 83.202438 353.000000
42.144573 83.777649 353.000000
42.144573 84.352859 353.000000
42.144573 84.928062 353.000000
42.144573 85.503273 353.000000
42.144573 86.078484 353.000000
42.144573 86.653694 353.000000
42.144573 87.228905 353.000000
42.144573 87.804108 353.000000
42.025181 88.128952 352.000000
42.025181 88.702530 352.000000
42.025181 89.276108 352.000000
42.025181 89.849693 352.000000
42.025181 90.423271 352.000000
42.025181 90.996849 352.000000
42.025181 91.570427 352.000000
42.025181 92.144012 352.000000
42.025181 92.717590 352.000000
42.025181 93.291168 352.000000
42.025181 93.864746 352.000000
41.905788 94.170044 351.000000
41.905788 94.741989 351.000000
41.905788 95.313942 351.000000
41.905788 95.885895 351.000000
41.905788 96.457840 351.000000
41.905788 97.029793 351.000000
41.905788 97.601738 351.000000
41.905788 98.173691 351.000000
41.786404 98.464310 350.000000
41.786404 99.034637 350.000000
41.786404 99.604958 350.000000
41.786404 100.175278 350.000000
41.667011 100.457748 349.000000
41.667011 101.026443 349.000000
41.667011 101.595131 349.000000
41.667011 102.163826 349.000000
41.667011 102.732513 349.000000
41.667011 103.301201 349.000000
41.667011 103.869896 349.000000
41.667011 104.438583 349.000000
41.667011 105.007278 349.000000
41.667011 105.575966 349.000000
41.667011 106.144661 349.000000
41.547623 106.407578 348.000000
41.547623 106.974648 348.000000
41.428230 107.232681 347.000000
41.428230 107.798111 347.000000
41.428230 108.363541 347.000000
41.428230 108.928978 347.000000
41.428230 109.494408 347.000000
41.428230 110.059837 347.000000
41.428230 110.625275 347.000000
41.428230 111.190704 347.000000
41.428230 111.756134 347.000000
41.428230 112.321571 347.000000
41.428230 112.887001 347.000000
41.308842 113.125481 346.000000
41.308842 113.689285 346.000000
41.308842 114.253082 346.000000
41.308842 114.816887 346.000000
41.189453 115.047218 345.000000
41.189453 115.609390 345.000000
41.189453 116.171562 345.000000
41.070065 116.395378 344.000000
41.070065 116.955917 344.000000
41.070065 117.516464 344.000000
41.070065 118.077011 344.000000
41.070065 118.637550 344.000000
41.070065 119.198097 344.000000
40.950672 119.410500 343.000000
40.950672 119.969414 343.000000
40.950672 120.528328 343.000000
40.950672 121.087242 343.000000
40.950672 121.646156 343.000000
40.950672 122.205070 343.000000
40.950672 122.763985 343.000000
40.950672 123.322899 343.000000
40.950672 123.881813 343.000000
40.950672 124.440727 343.000000
40.950672 124.999641 343.000000
40.950672 125.558556 343.000000
40.950672 126.117470 343.000000
40.950672 126.676384 343.000000
40.950672 127.235298 343.000000
40.950672 127.794212 343.000000
40.950672 128.353134 343.000000
40.950672 128.912048 343.000000
40.950672 129.470963 343.000000
40.950672 130.029877 343.000000
40.950672 130.588791 343.000000
40.950672 131.147705 343.000000
40.950672 131.706619 343.000000
40.950672 132.265533 343.000000
40.831284 132.437210 342.000000
40.831284 132.994492 342.000000
40.831284 133.551773 342.000000
40.831284 134.109070 342.000000
40.831284 134.666351 342.000000
40.831284 135.223633 342.000000
40.831284 135.780914 342.000000
40.711895 135.939545 341.000000
40.711895 136.495209 341.000000
40.711895 137.050858 341.000000
40.711895 137.606522 341.000000
40.711895 138.162170 341.000000
40.711895 138.717819 341.000000
40.711895 139.273483 341.000000
40.711895 139.829132 341.000000
40.711895 140.384796 341.000000
40.711895 140.940445 341.000000
40.711895 141.496109 341.000000
40.711895 142.051758 341.000000
40.711895 142.607407 341.000000
40.711895 143.163071 341.000000
40.711895 143.718719 341.000000
40.711895 144.274384 341.000000
40.831284 145.254761 342.000000
40.831284 145.812042 342.000000
40.831284 146.369324 342.000000
40.831284 146.926605 342.000000
40.831284 147.483902 342.000000
40.831284 148.041183 342.000000
40.831284 148.598465 342.000000
40.831284 149.155746 342.000000
40.831284 149.713028 342.000000
40.711895 149.830933 341.000000
40.711895 150.386581 341.000000
40.711895 150.942245 341.000000
40.711895 151.497894 341.000000
40.592506 151.607651 340.000000
40.592506 152.161667 340.000000
40.592506 152.715698 340.000000
40.592506 153.269714 340.000000
40.592506 153.823746 340.000000
40.592506 154.377777 340.000000
40.592506 154.931793 340.000000
40.592506 155.485825 340.000000
40.592506 156.039856 340.000000
40.473114 156.133301 339.000000
40.473114 156.685699 339.000000
40.473114 157.238098 339.000000
40.473114 157.790497 339.000000
40.473114 158.342880 339.000000
40.473114 158.895279 339.000000
40.353725 158.977325 338.000000
40.353725 159.528091 338.000000
40.234337 159.605255 337.000000
40.234337 160.154388 337.000000
40.234337 160.703537 337.000000
40.114944 160.774170 336.000000
40.114944 161.321686 336.000000
40.114944 161.869186 336.000000
39.995556 161.933319 335.000000
39.995556 162.479202 335.000000
39.995556 163.025085 335.000000
39.995556 163.570953 335.000000
39.876163 163.626938 334.000000
39.876163 164.171188 334.000000
39.876163 164.715424 334.000000
39.756775 164.764893 333.000000
39.756775 165.307510 333.000000
39.756775 165.850128 333.000000
39.637386 165.893066 332.000000
39.637386 166.434052 332.000000
39.637386 166.975052 332.000000
39.517998 167.011475 331.000000
39.398605 167.044632 330.000000
39.398605 167.582367 330.000000
39.398605 168.120087 330.000000
39.279217 168.146744 329.000000
39.279217 168.682831 329.000000
39.279217 169.218933 329.000000
39.159828 169.239075 328.000000
39.159828 169.773544 328.000000
39.040440 169.788788 327.000000
39.040440 170.321625 327.000000
39.040440 170.854477 327.000000
39.040440 171.387314 327.000000
39.040440 171.920151 327.000000
39.040440 172.453003 327.000000
38.921047 172.456833 326.000000
38.921047 172.988052 326.000000
38.921047 173.519257 326.000000
38.801659 173.516571 325.000000
38.682270 173.510620 324.000000
38.682270 174.038574 324.000000
38.682270 174.566528 324.000000
38.562881 174.554077 323.000000
38.562881 175.080399 323.000000
38.562881 175.606720 323.000000
38.562881 176.133041 323.000000
38.443489 176.112442 322.000000
38.443489 176.637131 322.000000
38.443489 177.161819 322.000000
38.443489 177.686523 322.000000
38.443489 178.211212 322.000000
38.324100 178.180847 321.000000
38.324100 178.703903 321.000000
38.324100 179.226974 321.000000
38.204712 179.190063 320.000000
38.204712 179.711502 320.000000
38.204712 180.232941 320.000000
38.204712 180.754379 320.000000
38.204712 181.275803 320.000000
38.204712 181.797241 320.000000
38.085320 181.748932 319.000000
38.085320 182.268738 319.000000
38.085320 182.788544 319.000000
37.965931 182.733719 318.000000
37.965931 183.251892 318.000000
37.965931 183.770065 318.000000
37.965931 184.288254 318.000000
37.846539 184.225266 317.000000
37.846539 184.741821 317.000000
37.846539 185.258362 317.000000
37.727150 185.188873 316.000000
37.727150 185.703781 316.000000
37.727150 186.218704 316.000000
37.607761 186.142700 315.000000
37.607761 186.655975 315.000000
37.607761 187.169266 315.000000
37.607761 187.682556 315.000000
37.488373 187.598404 314.000000
37.488373 188.110077 314.000000
37.488373 188.621735 314.000000
37.368980 188.531052 313.000000
37.368980 189.041077 313.000000
37.368980 189.551117 313.000000
37.368980 190.061142 313.000000
37.368980 190.571167 313.000000
37.368980 191.081192 313.000000
37.249592 190.979111 312.000000
37.249592 191.487518 312.000000
37.249592 191.995911 312.000000
37.130203 191.887314 311.000000
37.130203 192.394089 311.000000
37.130203 192.900848 311.000000
37.130203 193.407623 311.000000
37.130203 193.914398 311.000000
37.010815 193.796021 310.000000
37.010815 194.301147 310.000000
37.010815 194.806290 310.000000
37.010815 195.311432 310.000000
37.010815 195.816574 310.000000
37.010815 196.321716 310.000000
37.010815 196.826859 310.000000
36.891422 196.695450 309.000000
36.891422 197.198959 309.000000
36.772034 197.062653 308.000000
36.772034 197.564529 308.000000
36.772034 198.066422 308.000000
36.772034 198.568298 308.000000
36.772034 199.070175 308.000000
36.772034 199.572067 308.000000
36.772034 200.073944 308.000000
36.652645 199.924622 307.000000
36.652645 200.424866 307.000000
36.652645 200.925125 307.000000
36.554962 200.888565 306.181824
36.554962 201.387482 306.181824
36.554962 201.886398 306.181824
36.537663 202.289536 306.036926
36.499989 202.579132 305.721375
36.499989 203.077286 305.721375
36.413864 203.095123 305.000000
36.294476 202.924591 304.000000
36.294476 203.419952 304.000000
36.294476 203.915314 304.000000
36.294476 204.410690 304.000000
36.294476 204.906052 304.000000
36.175083 204.725754 303.000000
36.175083 205.219482 303.000000
36.175083 205.713211 303.000000
36.175083 206.206955 303.000000
36.175083 206.700684 303.000000
36.175083 207.194427 303.000000
36.175083 207.688156 303.000000
36.055695 207.494827 302.000000
36.055695 207.986923 302.000000
36.055695 208.479034 302.000000
36.055695 208.971130 302.000000
35.936306 208.769653 301.000000
35.936306 209.260132 301.000000
35.936306 209.750610 301.000000
35.936306 210.241074 301.000000
35.936306 210.731552 301.000000
35.816914 210.520309 300.000000
47.686005 19.678076 394.039093
47.686005 20.320158 394.039093
48.414021 21.282269 400.054840
50.827751 23.027702 420.000000
50.827751 23.712088 420.000000
50.827751 24.396471 420.000000
50.827751 25.080856 420.000000
50.827751 25.765242 420.000000
49.438885 25.726891 408.523499
49.438885 26.392574 408.523499
49.438885 27.058258 408.523499
49.438885 27.723942 408.523499
49.438885 28.389626 408.523499
49.438885 29.055309 408.523499
49.438885 29.720993 408.523499
48.825241 30.009512 403.452820
48.850334 30.682695 403.660187
48.850334 31.340456 403.660187
48.850334 31.998215 403.660187
48.755669 32.592690 402.877960
48.755669 33.249172 402.877960
48.556763 33.767334 401.234344
48.377186 34.293842 399.750458
48.377186 34.945229 399.750458
48.229198 35.487728 398.527618
48.059525 36.009991 397.125580
48.059525 36.657104 397.125580
47.960358 37.227238 396.306122
48.431793 38.245293 400.201691
48.431793 38.897415 400.201691
48.431793 39.549541 400.201691
47.716805 39.608177 394.293610
47.716805 40.250675 394.293610
46.713127 40.033020 386.000000
46.592110 40.556656 385.000000
46.592110 41.184010 385.000000
46.592110 41.811363 385.000000
46.471088 42.328487 384.000000
47.432636 43.842991 391.945465
47.432636 44.481659 391.945465
47.432636 45.120331 391.945465
47.183178 45.518341 389.884125
47.183178 46.153652 389.884125
46.592110 46.202831 385.000000
46.592110 46.830185 385.000000
46.592110 47.457535 385.000000
46.713127 48.209785 386.000000
46.713127 48.838768 386.000000
46.713127 49.467751 386.000000
46.713127 50.096733 386.000000
46.592110 50.594299 385.000000
46.592110 51.221653 385.000000
46.592110 51.849007 385.000000
46.471088 52.340057 384.000000
46.471088 52.965778 384.000000
46.471088 53.591503 384.000000
46.471088 54.217228 384.000000
46.471088 54.842949 384.000000
46.471088 55.468674 384.000000
46.471088 56.094395 384.000000
46.471088 56.720119 384.000000
46.350067 57.196503 383.000000
46.350067 57.820595 383.000000
46.350067 58.444691 383.000000
46.350067 59.068783 383.000000
46.350067 59.692875 383.000000
46.350067 60.316971 383.000000
45.295654 59.554722 374.287140
45.154835 59.977566 373.123505
45.154835 60.585567 373.123505
45.014179 61.002960 371.961273
44.850182 61.384602 370.606110
45.077148 62.302197 372.481567
45.077148 62.909149 372.481567
45.077148 63.516106 372.481567
44.884258 63.848667 370.887695
44.884258 64.453026 370.887695
44.836372 64.987976 370.492004
44.701584 65.394501 369.378204
44.701584 65.996399 369.378204
44.436123 66.202805 367.184662
44.287060 66.577042 365.952942
44.287060 67.173355 365.952942
44.076443 67.447380 364.212555
43.883675 67.743279 362.619659
43.883675 68.334160 362.619659
43.515686 68.347076 359.578918
43.394669 68.741302 358.578918
43.394669 69.325600 358.578918
42.840534 69.017181 354.000000
42.840534 69.594017 354.000000
42.840534 70.170853 354.000000
42.840534 70.747696 354.000000
42.840534 71.324532 354.000000
42.840534 71.901375 354.000000
42.840534 72.478210 354.000000
42.840534 73.055046 354.000000
42.840534 73.631889 354.000000
42.840534 74.208725 354.000000
42.840534 74.785561 354.000000
42.840534 75.362404 354.000000
42.840534 75.939240 354.000000
42.840534 76.516083 354.000000
42.840534 77.092918 354.000000
42.840534 77.669754 354.000000
42.840534 78.246597 354.000000
42.840534 78.823433 354.000000
42.840534 79.400269 354.000000
42.719517 79.751183 353.000000
42.719517 80.326393 353.000000
42.719517 80.901604 353.000000
42.719517 81.476814 353.000000
42.719517 82.052025 353.000000
42.719517 82.627228 353.000000
42.719517 83.202438 353.000000
42.719517 83.777649 353.000000
42.719517 84.352859 353.000000
42.719517 84.928062 353.000000
42.719517 85.503273 353.000000
42.719517 86.078484 353.000000
42.719517 86.653694 353.000000
42.719517 87.228905 353.000000
42.719517 87.804108 353.000000
42.598499 88.128952 352.000000
42.598499 88.702530 352.000000
42.598499 89.276108 352.000000
42.598499 89.849693 352.000000
42.598499 90.423271 352.000000
42.598499 90.996849 352.000000
42.598499 91.570427 352.000000
42.598499 92.144012 352.000000
42.598499 92.717590 352.000000
42.598499 93.291168 352.000000
42.598499 93.864746 352.000000
42.477478 94.170044 351.000000
42.477478 94.741989 351.000000
42.477478 95.313942 351.000000
42.477478 95.885895 351.000000
42.477478 96.457840 351.000000
42.477478 97.029793 351.000000
42.477478 97.601738 351.000000
42.477478 98.173691 351.000000
42.356461 98.464310 350.000000
42.356461 99.034637 350.000000
42.356461 99.604958 350.000000
42.356461 100.175278 350.000000
42.235443 100.457748 349.000000
42.235443 101.026443 349.000000
42.235443 101.595131 349.000000
42.235443 102.163826 349.000000
42.235443 102.732513 349.000000
42.235443 103.301201 349.000000
42.235443 103.869896 349.000000
42.235443 104.438583 349.000000
42.235443 105.007278 349.000000
42.235443 105.575966 349.000000
42.235443 106.144661 349.000000
42.114426 106.407578 348.000000
42.114426 106.974648 348.000000
42.114426 107.541710 348.000000
42.114426 108.108772 348.000000
42.114426 108.675835 348.000000
41.993404 108.928978 347.000000
41.993404 109.494408 347.000000
41.993404 110.059837 347.000000
41.993404 110.625275 347.000000
41.993404 111.190704 347.000000
41.993404 111.756134 347.000000
41.993404 112.321571 347.000000
41.993404 112.887001 347.000000
41.993404 113.452431 347.000000
41.993404 114.017868 347.000000
41.993404 114.583298 347.000000
41.993404 115.148727 347.000000
41.872387 115.380692 346.000000
41.872387 115.944496 346.000000
41.872387 116.508293 346.000000
41.872387 117.072098 346.000000
41.872387 117.635902 346.000000
41.751369 117.858086 345.000000
41.751369 118.420258 345.000000
41.751369 118.982430 345.000000
41.751369 119.544601 345.000000
41.751369 120.106773 345.000000
41.751369 120.668945 345.000000
41.751369 121.231125 345.000000
41.751369 121.793297 345.000000
41.630352 122.000816 344.000000
41.630352 122.561356 344.000000
41.630352 123.121902 344.000000
41.630352 123.682442 344.000000
41.630352 124.242989 344.000000
41.630352 124.803528 344.000000
41.630352 125.364075 344.000000
41.630352 125.924622 344.000000
41.630352 126.485161 344.000000
41.509331 126.676384 343.000000
41.509331 127.235298 343.000000
41.509331 127.794212 343.000000
41.509331 128.353134 343.000000
41.509331 128.912048 343.000000
41.509331 129.470963 343.000000
41.509331 130.029877 343.000000
41.509331 130.588791 343.000000
41.509331 131.147705 343.000000
41.509331 131.706619 343.000000
41.509331 132.265533 343.000000
41.509331 132.824448 343.000000
41.509331 133.383362 343.000000
41.509331 133.942276 343.000000
41.509331 134.501190 343.000000
41.388313 134.666351 342.000000
41.388313 135.223633 342.000000
41.388313 135.780914 342.000000
41.388313 136.338196 342.000000
41.388313 136.895493 342.000000
41.388313 137.452774 342.000000
41.388313 138.010056 342.000000
41.388313 138.567337 342.000000
41.388313 139.124619 342.000000
41.388313 139.681915 342.000000
41.388313 140.239197 342.000000
41.388313 140.796478 342.000000
41.388313 141.353760 342.000000
41.388313 141.911041 342.000000
41.388313 142.468338 342.000000
41.388313 143.025620 342.000000
41.388313 143.582901 342.000000
41.388313 144.140182 342.000000
41.388313 144.697464 342.000000
41.388313 145.254761 342.000000
41.388313 145.812042 342.000000
41.388313 146.369324 342.000000
41.509331 147.356216 343.000000
41.509331 147.915131 343.000000
41.509331 148.474045 343.000000
41.509331 149.032959 343.000000
41.509331 149.591873 343.000000
41.509331 150.150787 343.000000
41.388313 150.270325 342.000000
41.388313 150.827606 342.000000
41.388313 151.384888 342.000000
41.388313 151.942169 342.000000
41.267296 152.053543 341.000000
41.267296 152.609207 341.000000
41.267296 153.164856 341.000000
41.146278 153.269714 340.000000
41.146278 153.823746 340.000000
41.146278 154.377777 340.000000
41.146278 154.931793 340.000000
41.146278 155.485825 340.000000
41.146278 156.039856 340.000000
41.146278 156.593872 340.000000
41.146278 157.147903 340.000000
41.146278 157.701920 340.000000
41.025257 157.790497 339.000000
41.025257 158.342880 339.000000
41.025257 158.895279 339.000000
41.025257 159.447678 339.000000
41.025257 160.000076 339.000000
41.025257 160.552475 339.000000
40.783222 160.154388 337.000000
40.783222 160.703537 337.000000
40.783222 161.252670 337.000000
40.662201 161.321686 336.000000
40.662201 161.869186 336.000000
40.662201 162.416702 336.000000
40.662201 162.964203 336.000000
40.662201 163.511703 336.000000
40.541183 163.570953 335.000000
40.420166 163.626938 334.000000
40.420166 164.171188 334.000000
40.420166 164.715424 334.000000
40.299149 164.764893 333.000000
40.299149 165.307510 333.000000
40.299149 165.850128 333.000000
40.178127 165.893066 332.000000
40.178127 166.434052 332.000000
40.178127 166.975052 332.000000
40.057110 167.011475 331.000000
39.936092 167.044632 330.000000
39.936092 167.582367 330.000000
39.936092 168.120087 330.000000
39.815075 168.146744 329.000000
39.815075 168.682831 329.000000
39.815075 169.218933 329.000000
39.694054 169.239075 328.000000
39.694054 169.773544 328.000000
39.573036 169.788788 327.000000
39.573036 170.321625 327.000000
39.573036 170.854477 327.000000
39.573036 171.387314 327.000000
39.573036 171.920151 327.000000
39.573036 172.453003 327.000000
39.452019 172.456833 326.000000
39.452019 172.988052 326.000000
39.452019 173.519257 326.000000
39.452019 174.050476 326.000000
39.209980 173.510620 324.000000
39.209980 174.038574 324.000000
39.209980 174.566528 324.000000
39.088963 174.554077 323.000000
39.088963 175.080399 323.000000
39.088963 175.606720 323.000000
39.088963 176.133041 323.000000
38.967945 176.112442 322.000000
38.967945 176.637131 322.000000
38.967945 177.161819 322.000000
38.846928 177.134705 321.000000
38.846928 177.657776 321.000000
38.846928 178.180847 321.000000
38.725906 178.147186 320.000000
38.725906 178.668625 320.000000
38.725906 179.190063 320.000000
38.725906 179.711502 320.000000
38.725906 180.232941 320.000000
38.725906 180.754379 320.000000
38.725906 181.275803 320.000000
38.725906 181.797241 320.000000
38.604889 181.748932 319.000000
38.604889 182.268738 319.000000
38.604889 182.788544 319.000000
38.483871 182.733719 318.000000
38.483871 183.251892 318.000000
38.483871 183.770065 318.000000
38.483871 184.288254 318.000000
38.362850 184.225266 317.000000
38.362850 184.741821 317.000000
38.362850 185.258362 317.000000
38.241833 185.188873 316.000000
38.241833 185.703781 316.000000
38.241833 186.218704 316.000000
38.120815 186.142700 315.000000
38.120815 186.655975 315.000000
38.120815 187.169266 315.000000
37.999798 187.086746 314.000000
37.999798 187.598404 314.000000
37.999798 188.110077 314.000000
37.999798 188.621735 314.000000
37.878777 188.531052 313.000000
37.878777 189.041077 313.000000
37.878777 189.551117 313.000000
37.878777 190.061142 313.000000
37.878777 190.571167 313.000000
37.878777 191.081192 313.000000
37.757759 190.979111 312.000000
37.757759 191.487518 312.000000
37.757759 191.995911 312.000000
37.636742 191.887314 311.000000
37.636742 192.394089 311.000000
37.636742 192.900848 311.000000
37.636742 193.407623 311.000000
37.636742 193.914398 311.000000
37.515724 193.796021 310.000000
37.515724 194.301147 310.000000
37.515724 194.806290 310.000000
37.515724 195.311432 310.000000
37.515724 195.816574 310.000000
37.515724 196.321716 310.000000
37.515724 196.826859 310.000000
37.273685 196.058884 308.000000
37.273685 196.560776 308.000000
37.273685 197.062653 308.000000
37.152668 196.923096 307.000000
37.152668 197.423355 307.000000
37.152668 197.923599 307.000000
37.152668 198.423859 307.000000
37.152668 198.924118 307.000000
37.152668 199.424362 307.000000
37.106762 199.677597 306.620697
37.073109 199.995682 306.342590
37.073109 200.494858 306.342590
37.020512 200.708893 305.907990
36.990341 201.043381 305.658661
36.990341 201.541443 305.658661
36.973156 201.945648 305.516663
36.910629 202.101135 305.000000
36.910629 202.598129 305.000000
36.789612 202.429230 304.000000
36.789612 202.924591 304.000000
36.789612 203.419952 304.000000
36.668594 203.244537 303.000000
36.668594 203.738281 303.000000
36.668594 204.232010 303.000000
36.668594 204.725754 303.000000
36.668594 205.219482 303.000000
36.668594 205.713211 303.000000
36.668594 206.206955 303.000000
36.668594 206.700684 303.000000
36.668594 207.194427 303.000000
36.547573 207.002716 302.000000
36.547573 207.494827 302.000000
36.547573 207.986923 302.000000
36.547573 208.479034 302.000000
36.547573 208.971130 302.000000
36.426556 208.769653 301.000000
36.426556 209.260132 301.000000
36.305538 209.053772 300.000000
36.305538 209.542618 300.000000
36.305538 210.031464 300.000000
36.305538 210.520309 300.000000
49.958767 19.678425 407.337189
49.958767 20.342175 407.337189
49.958767 21.005926 407.337189
51.511826 22.343317 420.000000
51.511826 23.027702 420.000000
51.511826 23.712088 420.000000
51.511826 24.396471 420.000000
51.511826 25.080856 420.000000
51.511826 25.765242 420.000000
51.389179 26.386652 419.000000
51.389179 27.069407 419.000000
51.389179 27.752161 419.000000
51.389179 28.434917 419.000000
51.389179 29.117672 419.000000
51.389179 29.800428 419.000000
51.389179 30.483183 419.000000
51.389179 31.165937 419.000000
51.266529 31.772680 418.000000
51.266529 32.453804 418.000000
51.266529 33.134933 418.000000
51.143887 33.735161 417.000000
51.143887 34.414654 417.000000
51.021236 35.009995 416.000000
51.021236 35.687862 416.000000
51.021236 36.365726 416.000000
51.021236 37.043594 416.000000
51.021236 37.721462 416.000000
51.021236 38.399326 416.000000
51.021236 39.077194 416.000000
49.219376 38.351074 401.308563
49.219376 39.005001 401.308563
51.021236 41.110794 416.000000
51.021236 41.788662 416.000000
51.021236 42.466530 416.000000
47.341820 40.033020 386.000000
47.219173 40.556656 385.000000
47.219173 41.184010 385.000000
47.096527 41.702763 384.000000
47.096527 42.328487 384.000000
48.071014 43.842991 391.945465
48.071014 44.481659 391.945465
48.071014 45.120331 391.945465
47.818199 45.518341 389.884125
47.818199 46.153652 389.884125
47.341820 46.322842 386.000000
47.341820 46.951824 386.000000
47.341820 47.580807 386.000000
47.341820 48.209785 386.000000
47.341820 48.838768 386.000000
47.341820 49.467751 386.000000
47.341820 50.096733 386.000000
47.219173 50.594299 385.000000
47.219173 51.221653 385.000000
47.219173 51.849007 385.000000
47.219173 52.476357 385.000000
47.219173 53.103710 385.000000
47.096527 53.591503 384.000000
47.096527 54.217228 384.000000
47.096527 54.842949 384.000000
46.973877 55.324223 383.000000
46.973877 55.948315 383.000000
46.973877 56.572407 383.000000
46.973877 57.196503 383.000000
46.973877 57.820595 383.000000
46.973877 58.444691 383.000000
46.973877 59.068783 383.000000
46.973877 59.692875 383.000000
46.973877 60.316971 383.000000
46.851231 60.781952 382.000000
46.851231 61.404419 382.000000
46.851231 62.026882 382.000000
46.851231 62.649345 382.000000
46.851231 63.271809 382.000000
46.851231 63.894276 382.000000
46.851231 64.516739 382.000000
45.683823 63.516106 372.481567
45.488338 63.848667 370.887695
45.488338 64.453026 370.887695
45.439808 64.987976 370.492004
45.303204 65.394501 369.378204
45.303204 65.996399 369.378204
45.034172 66.202805 367.184662
44.883102 66.577042 365.952942
44.883102 67.173355 365.952942
44.669651 67.447380 364.212555
44.474285 67.743279 362.619659
44.474285 68.334160 362.619659
44.461197 68.904762 362.512939
44.329792 69.290077 361.441528
44.329792 69.879044 361.441528
44.183552 70.235535 360.249146
43.785053 70.183800 357.000000
43.785053 70.765526 357.000000
43.785053 71.347252 357.000000
43.662403 71.727493 356.000000
43.662403 72.307594 356.000000
43.539757 72.682945 355.000000
43.539757 73.261414 355.000000
43.539757 73.839882 355.000000
43.539757 74.418350 355.000000
43.417110 74.785561 354.000000
43.417110 75.362404 354.000000
43.417110 75.939240 354.000000
43.417110 76.516083 354.000000
43.417110 77.092918 354.000000
43.417110 77.669754 354.000000
43.417110 78.246597 354.000000
43.417110 78.823433 354.000000
43.417110 79.400269 354.000000
43.417110 79.977112 354.000000
43.294464 80.326393 353.000000
43.294464 80.901604 353.000000
43.294464 81.476814 353.000000
43.294464 82.052025 353.000000
43.294464 82.627228 353.000000
43.294464 83.202438 353.000000
43.294464 83.777649 353.000000
43.294464 84.352859 353.000000
43.294464 84.928062 353.000000
43.294464 85.503273 353.000000
43.294464 86.078484 353.000000
43.294464 86.653694 353.000000
43.294464 87.228905 353.000000
43.294464 87.804108 353.000000
43.294464 88.379318 353.000000
43.294464 88.954529 353.000000
43.294464 89.529739 353.000000
43.171814 89.849693 352.000000
43.171814 90.423271 352.000000
43.171814 90.996849 352.000000
43.171814 91.570427 352.000000
43.171814 92.144012 352.000000
43.171814 92.717590 352.000000
43.171814 93.291168 352.000000
43.171814 93.864746 352.000000
43.171814 94.438324 352.000000
43.171814 95.011909 352.000000
43.049168 95.313942 351.000000
43.049168 95.885895 351.000000
43.049168 96.457840 351.000000
43.049168 97.029793 351.000000
43.049168 97.601738 351.000000
43.049168 98.173691 351.000000
42.926521 98.464310 350.000000
42.926521 99.034637 350.000000
42.926521 99.604958 350.000000
42.926521 100.175278 350.000000
42.926521 100.745598 350.000000
42.926521 101.315918 350.000000
42.803871 101.595131 349.000000
42.803871 102.163826 349.000000
42.803871 102.732513 349.000000
42.803871 103.301201 349.000000
42.803871 103.869896 349.000000
42.803871 104.438583 349.000000
42.803871 105.007278 349.000000
42.803871 105.575966 349.000000
42.803871 106.144661 349.000000
42.803871 106.713348 349.000000
42.803871 107.282051 349.000000
42.803871 107.850739 349.000000
42.803871 108.419434 349.000000
42.681225 108.675835 348.000000
42.558578 108.928978 347.000000
42.558578 109.494408 347.000000
42.558578 110.059837 347.000000
42.558578 110.625275 347.000000
42.558578 111.190704 347.000000
42.558578 111.756134 347.000000
42.558578 112.321571 347.000000
42.558578 112.887001 347.000000
42.558578 113.452431 347.000000
42.558578 114.017868 347.000000
42.558578 114.583298 347.000000
42.558578 115.148727 347.000000
42.435932 115.380692 346.000000
42.435932 115.944496 346.000000
42.435932 116.508293 346.000000
42.435932 117.072098 346.000000
42.435932 117.635902 346.000000
42.313282 117.858086 345.000000
42.313282 118.420258 345.000000
42.313282 118.982430 345.000000
42.313282 119.544601 345.000000
42.313282 120.106773 345.000000
42.313282 120.668945 345.000000
42.313282 121.231125 345.000000
42.313282 121.793297 345.000000
42.190639 122.000816 344.000000
42.190639 122.561356 344.000000
42.190639 123.121902 344.000000
42.190639 123.682442 344.000000
42.190639 124.242989 344.000000
42.190639 124.803528 344.000000
42.190639 125.364075 344.000000
42.190639 125.924622 344.000000
42.190639 126.485161 344.000000
42.067989 126.676384 343.000000
42.067989 127.235298 343.000000
42.067989 127.794212 343.000000
42.067989 128.353134 343.000000
42.067989 128.912048 343.000000
42.067989 129.470963 343.000000
42.067989 130.029877 343.000000
42.067989 130.588791 343.000000
42.067989 131.147705 343.000000
42.067989 131.706619 343.000000
42.067989 132.265533 343.000000
42.067989 132.824448 343.000000
42.067989 133.383362 343.000000
