46.231583 201.903000 301.000000
46.077988 201.721069 300.000000
46.077988 202.209915 300.000000
46.077988 202.698761 300.000000
45.924397 202.510315 299.000000
45.924397 202.997543 299.000000
45.924397 203.484756 299.000000
45.924397 203.971970 299.000000
45.924397 204.459183 299.000000
45.770802 204.260956 298.000000
45.770802 204.746552 298.000000
45.770802 205.232132 298.000000
45.617207 205.027390 297.000000
45.617207 205.511353 297.000000
45.617207 205.995316 297.000000
45.617207 206.479263 297.000000
45.463615 206.266373 296.000000
45.463615 206.748703 296.000000
45.463615 207.231033 296.000000
45.310020 207.011627 295.000000
52.871227 165.203400 340.616760
52.871227 165.758423 340.616760
52.871227 166.313461 340.616760
52.797935 166.637177 340.144592
52.797886 167.191269 340.144257
52.797886 167.745529 340.144257
52.797886 168.299789 340.144257
52.797886 168.854050 340.144257
52.797886 169.408310 340.144257
52.797886 169.962570 340.144257
52.797886 170.516846 340.144257
52.797886 171.071091 340.144257
52.797886 171.625351 340.144257
52.797886 172.179611 340.144257
52.797886 172.733871 340.144257
52.797886 173.288132 340.144257
52.797886 173.842392 340.144257
52.797886 174.396667 340.144257
52.619850 174.360977 338.997284
52.449818 174.348190 337.901886
52.449818 174.898788 337.901886
52.298523 174.943283 336.927185
52.152786 175.003281 335.988281
52.152786 175.550751 335.988281
52.006420 175.604050 335.045349
51.869198 175.685211 334.161316
51.869198 176.229736 334.161316
51.799900 176.538055 333.714874
51.762207 176.952988 333.472015
51.762207 177.496368 333.472015
51.728477 177.923752 333.254730
51.695866 178.354279 333.044647
51.653625 178.750778 332.772491
51.653625 179.293030 332.772491
51.068050 177.796555 329.000000
51.068050 178.332657 329.000000
51.068050 178.868759 329.000000
50.912827 178.859573 328.000000
50.805977 179.017548 327.311615
50.805977 179.550888 327.311615
51.309738 181.869843 330.557037
51.309738 182.408478 330.557037
51.309738 182.947113 330.557037
51.260719 183.310471 330.241241
51.028282 183.014954 328.743805
51.028282 183.550644 328.743805
50.818024 183.327789 327.389221
50.614506 183.124939 326.078094
50.614506 183.656281 326.078094
50.428547 183.510910 324.880066
50.283672 183.511581 323.946747
50.283672 184.039459 323.946747
50.147854 184.068787 323.071747
50.020020 184.124680 322.248199
50.020020 184.649780 322.248199
49.916542 184.791794 321.581543
49.807789 184.912064 320.880920
49.807789 185.434937 320.880920
49.205383 183.708725 317.000000
49.205383 184.225266 317.000000
49.205383 184.741821 317.000000
49.050163 184.673950 316.000000
49.050163 185.188873 316.000000
49.050163 185.703781 316.000000
48.894939 185.629410 315.000000
48.894939 186.142700 315.000000
48.739719 186.063431 314.000000
48.739719 186.575089 314.000000
48.746315 187.112061 314.042480
48.746315 187.623779 314.042480
48.746315 188.135513 314.042480
48.739719 188.621735 314.000000
48.490635 188.166840 312.395325
48.490635 188.675873 312.395325
48.421486 188.915131 311.949829
48.391541 189.306290 311.756897
48.391541 189.814301 311.756897
48.118832 189.249741 310.000000
48.118832 189.754883 310.000000
48.118832 190.260025 310.000000
48.118832 190.765167 310.000000
48.118832 191.270309 310.000000
48.118832 191.775452 310.000000
47.963608 191.660324 309.000000
47.808388 191.541946 308.000000
47.808388 192.043823 308.000000
47.808388 192.545715 308.000000
47.653164 192.420822 307.000000
47.653164 192.921082 307.000000
47.653164 193.421326 307.000000
47.653164 193.921585 307.000000
47.653164 194.421844 307.000000
47.497944 194.287170 306.000000
47.497944 194.785782 306.000000
47.497944 195.284409 306.000000
47.342720 195.143219 305.000000
47.342720 195.640213 305.000000
47.342720 196.137207 305.000000
47.342720 196.634201 305.000000
47.342720 197.131195 305.000000
47.187500 196.980225 304.000000
47.187500 197.475586 304.000000
47.032276 197.319733 303.000000
47.032276 197.813461 303.000000
47.032276 198.307205 303.000000
46.877052 198.144821 302.000000
46.877052 198.636932 302.000000
46.877052 199.129028 302.000000
46.877052 199.621140 302.000000
46.721832 199.450607 301.000000
46.721832 199.941086 301.000000
46.721832 200.431564 301.000000
46.721832 200.922043 301.000000
46.721832 201.412521 301.000000
46.721832 201.903000 301.000000
46.566608 201.721069 300.000000
46.566608 202.209915 300.000000
46.566608 202.698761 300.000000
46.411388 202.510315 299.000000
46.411388 202.997543 299.000000
46.411388 203.484756 299.000000
46.411388 203.971970 299.000000
46.411388 204.459183 299.000000
46.256165 204.260956 298.000000
46.256165 204.746552 298.000000
46.256165 205.232132 298.000000
46.100945 205.027390 297.000000
46.100945 205.511353 297.000000
46.100945 205.995316 297.000000
46.100945 206.479263 297.000000
45.945721 206.266373 296.000000
45.945721 206.748703 296.000000
45.945721 207.231033 296.000000
45.790501 207.011627 295.000000
53.225712 166.795853 339.339813
53.225712 167.348816 339.339813
53.225712 167.901749 339.339813
53.055305 167.915390 338.253387
53.055305 168.466568 338.253387
53.082127 169.103180 338.424377
53.082127 169.654648 338.424377
53.082127 170.206100 338.424377
53.082127 170.757553 338.424377
53.082127 171.309021 338.424377
53.082127 171.860474 338.424377
53.082127 172.411926 338.424377
53.082127 172.963394 338.424377
53.082127 173.514847 338.424377
53.082127 174.066315 338.424377
52.918617 174.079895 337.381927
52.918617 174.629654 337.381927
52.795986 174.773468 336.600098
52.647102 174.827530 335.650879
52.647102 175.374481 335.650879
52.521023 175.500122 334.847076
52.398891 175.636368 334.068420
52.398891 176.180740 334.068420
52.343437 176.538055 333.714874
52.305344 176.952988 333.472015
52.305344 177.496368 333.472015
52.271263 177.923752 333.254730
52.238312 178.354279 333.044647
52.195621 178.750778 332.772491
52.195621 179.293030 332.772491
51.603905 177.796555 329.000000
51.603905 178.332657 329.000000
51.603905 178.868759 329.000000
51.447052 178.859573 328.000000
51.339081 179.017548 327.311615
51.339081 179.550888 327.311615
51.848129 181.869843 330.557037
51.848129 182.408478 330.557037
51.848129 182.947113 330.557037
51.798595 183.310471 330.241241
51.563721 183.014954 328.743805
51.563721 183.550644 328.743805
51.351254 183.327789 327.389221
51.434193 184.158234 327.917999
51.434193 184.692581 327.917999
51.434193 185.226913 327.917999
51.234459 185.039886 326.644592
51.234459 185.572144 326.644592
51.037216 185.387955 325.387085
50.841602 185.205582 324.139954
50.841602 185.733765 324.139954
50.703934 185.757568 323.262238
50.651386 186.091278 322.927216
50.651386 186.617477 322.927216
49.721695 183.708725 317.000000
49.721695 184.225266 317.000000
49.721695 184.741821 317.000000
49.564846 184.673950 316.000000
49.564846 185.188873 316.000000
49.564846 185.703781 316.000000
49.564846 186.218704 316.000000
49.407993 186.142700 315.000000
49.251144 186.063431 314.000000
49.251144 186.575089 314.000000
49.257805 187.112061 314.042480
49.257805 187.623779 314.042480
49.257805 188.135513 314.042480
49.138119 188.188873 313.279419
48.999451 188.166840 312.395325
48.999451 188.675873 312.395325
48.929573 188.915131 311.949829
48.899311 189.306290 311.756897
48.899311 189.814301 311.756897
48.623741 189.249741 310.000000
48.623741 189.754883 310.000000
48.623741 190.260025 310.000000
48.623741 190.765167 310.000000
48.623741 191.270309 310.000000
48.623741 191.775452 310.000000
48.466888 191.660324 309.000000
48.310040 191.541946 308.000000
48.310040 192.043823 308.000000
48.310040 192.545715 308.000000
48.310040 193.047592 308.000000
48.310040 193.549484 308.000000
48.153187 193.421326 307.000000
48.153187 193.921585 307.000000
48.153187 194.421844 307.000000
48.153187 194.922089 307.000000
47.996338 194.785782 306.000000
47.996338 195.284409 306.000000
47.839485 195.143219 305.000000
47.839485 195.640213 305.000000
47.839485 196.137207 305.000000
47.839485 196.634201 305.000000
47.839485 197.131195 305.000000
47.682636 196.980225 304.000000
47.682636 197.475586 304.000000
47.525784 197.319733 303.000000
47.368931 197.160614 302.000000
47.368931 197.652710 302.000000
47.368931 198.144821 302.000000
47.368931 198.636932 302.000000
47.368931 199.129028 302.000000
47.212082 198.960144 301.000000
47.212082 199.450607 301.000000
47.212082 199.941086 301.000000
47.212082 200.431564 301.000000
47.212082 200.922043 301.000000
47.212082 201.412521 301.000000
47.212082 201.903000 301.000000
47.055233 201.721069 300.000000
47.055233 202.209915 300.000000
47.055233 202.698761 300.000000
46.898384 202.510315 299.000000
46.898384 202.997543 299.000000
46.898384 203.484756 299.000000
46.741531 203.289795 298.000000
46.741531 203.775375 298.000000
46.741531 204.260956 298.000000
46.741531 204.746552 298.000000
46.741531 205.232132 298.000000
46.584682 205.027390 297.000000
46.584682 205.511353 297.000000
46.584682 205.995316 297.000000
46.584682 206.479263 297.000000
46.427830 206.266373 296.000000
46.427830 206.748703 296.000000
46.427830 207.231033 296.000000
46.270981 207.011627 295.000000
53.501801 168.688477 337.594421
53.501801 169.238586 337.594421
53.501801 169.788681 337.594421
53.425854 170.096985 337.115204
53.330570 170.341980 336.513977
53.330570 170.890320 336.513977
53.384586 171.612320 336.854828
53.384586 172.161224 336.854828
53.384586 172.710129 336.854828
53.384586 173.259018 336.854828
53.384586 173.807922 336.854828
53.384586 174.356827 336.854828
53.228989 174.395920 335.872986
53.127937 174.611099 335.235352
53.127937 175.157364 335.235352
53.127937 175.703629 335.235352
53.127937 176.249878 335.235352
53.127937 176.796143 335.235352
53.127937 177.342422 335.235352
53.127937 177.888672 335.235352
53.127937 178.434937 335.235352
53.127937 178.981201 335.235352
53.127937 179.527466 335.235352
53.113560 180.024994 335.144653
53.113560 180.571121 335.144653
53.109703 181.104065 335.120300
53.122543 181.694061 335.201324
53.122543 182.240280 335.201324
53.122543 182.786469 335.201324
52.266376 180.377945 329.798950
52.266376 180.915344 329.798950
52.941666 183.797150 334.059998
52.941666 184.341492 334.059998
52.941666 184.885834 334.059998
52.923042 185.364944 333.942474
52.660324 184.986221 332.284729
52.660324 185.527679 332.284729
52.419495 185.218185 330.765106
52.185001 184.926208 329.285461
52.185001 185.462769 329.285461
51.968285 185.226913 327.917999
51.766479 185.039886 326.644592
51.766479 185.572144 326.644592
51.567188 185.387955 325.387085
51.369541 185.205582 324.139954
51.369541 185.733765 324.139954
51.230442 185.757568 323.262238
51.177349 186.091278 322.927216
51.177349 186.617477 322.927216
50.238007 183.708725 317.000000
50.238007 184.225266 317.000000
50.238007 184.741821 317.000000
50.079529 184.673950 316.000000
50.079529 185.188873 316.000000
50.079529 185.703781 316.000000
50.079529 186.218704 316.000000
50.079529 186.733627 316.000000
49.926735 186.677261 315.035889
49.926735 187.190613 315.035889
49.926735 187.703949 315.035889
49.806252 187.763077 314.275635
49.806252 188.275192 314.275635
49.684036 188.324036 313.504456
49.537136 188.276581 312.577545
49.537136 188.785919 312.577545
49.490284 189.116226 312.281891
49.454468 189.487869 312.055908
49.454468 189.996353 312.055908
49.378391 190.211792 311.575867
49.128651 189.754883 310.000000
49.128651 190.260025 310.000000
49.128651 190.765167 310.000000
49.128651 191.270309 310.000000
49.128651 191.775452 310.000000
48.970169 191.660324 309.000000
48.811691 191.541946 308.000000
48.811691 192.043823 308.000000
48.811691 192.545715 308.000000
48.811691 193.047592 308.000000
48.811691 193.549484 308.000000
48.653210 193.421326 307.000000
48.653210 193.921585 307.000000
48.653210 194.421844 307.000000
48.653210 194.922089 307.000000
48.494732 194.785782 306.000000
48.494732 195.284409 306.000000
48.336254 195.143219 305.000000
48.336254 195.640213 305.000000
48.336254 196.137207 305.000000
48.336254 196.634201 305.000000
48.336254 197.131195 305.000000
48.177776 196.980225 304.000000
48.177776 197.475586 304.000000
48.019295 197.319733 303.000000
47.860813 197.160614 302.000000
47.860813 197.652710 302.000000
47.860813 198.144821 302.000000
47.860813 198.636932 302.000000
47.860813 199.129028 302.000000
47.702335 198.960144 301.000000
47.702335 199.450607 301.000000
47.702335 199.941086 301.000000
47.702335 200.431564 301.000000
47.702335 200.922043 301.000000
47.702335 201.412521 301.000000
47.702335 201.903000 301.000000
47.543854 201.721069 300.000000
47.543854 202.209915 300.000000
47.543854 202.698761 300.000000
47.385376 202.510315 299.000000
47.385376 202.997543 299.000000
47.385376 203.484756 299.000000
47.226894 203.289795 298.000000
47.226894 203.775375 298.000000
47.226894 204.260956 298.000000
47.226894 204.746552 298.000000
47.226894 205.232132 298.000000
47.068417 205.027390 297.000000
47.068417 205.511353 297.000000
47.068417 205.995316 297.000000
47.068417 206.479263 297.000000
46.909935 206.266373 296.000000
46.909935 206.748703 296.000000
46.909935 207.231033 296.000000
46.751457 207.011627 295.000000
54.051651 168.688477 337.594421
54.051651 169.238586 337.594421
54.051651 169.788681 337.594421
53.974930 170.096985 337.115204
53.878670 170.341980 336.513977
53.878670 170.890320 336.513977
53.933239 171.612320 336.854828
53.933239 172.161224 336.854828
53.933239 172.710129 336.854828
53.933239 173.259018 336.854828
53.933239 173.807922 336.854828
53.933239 174.356827 336.854828
53.776039 174.395920 335.872986
53.673950 174.611099 335.235352
53.673950 175.157364 335.235352
53.673950 175.703629 335.235352
53.673950 176.249878 335.235352
53.673950 176.796143 335.235352
53.673950 177.342422 335.235352
53.673950 177.888672 335.235352
53.673950 178.434937 335.235352
53.673950 178.981201 335.235352
53.673950 179.527466 335.235352
53.659424 180.024994 335.144653
53.659424 180.571121 335.144653
53.655525 181.104065 335.120300
53.668499 181.694061 335.201324
53.668499 182.240280 335.201324
53.668499 182.786469 335.201324
53.246593 181.891434 332.566193
53.246593 182.433350 332.566193
53.485767 183.797150 334.059998
53.485767 184.341492 334.059998
53.485767 184.885834 334.059998
53.466946 185.364944 333.942474
53.201530 184.986221 332.284729
53.201530 185.527679 332.284729
52.958225 185.218185 330.765106
52.721321 184.926208 329.285461
52.721321 185.462769 329.285461
52.502380 185.226913 327.917999
52.298496 185.039886 326.644592
52.298496 185.572144 326.644592
52.097160 185.387955 325.387085
51.897484 185.205582 324.139954
51.897484 185.733765 324.139954
51.756954 185.757568 323.262238
51.703312 186.091278 322.927216
51.703312 186.617477 322.927216
50.754318 183.708725 317.000000
50.754318 184.225266 317.000000
50.754318 184.741821 317.000000
50.594212 184.673950 316.000000
50.594212 185.188873 316.000000
50.594212 185.703781 316.000000
50.594212 186.218704 316.000000
50.594212 186.733627 316.000000
50.439850 186.677261 315.035889
50.439850 187.190613 315.035889
50.439850 187.703949 315.035889
50.347069 187.871094 314.456421
50.347069 188.383499 314.456421
50.226879 188.444962 313.705750
50.092094 188.449066 312.863892
50.092094 188.958862 312.863892
50.041973 189.279114 312.550873
50.002304 189.637955 312.303101
50.002304 190.146851 312.303101
49.922188 190.350266 311.802704
49.633560 189.754883 310.000000
49.633560 190.260025 310.000000
49.633560 190.765167 310.000000
49.633560 191.270309 310.000000
49.633560 191.775452 310.000000
49.473450 191.660324 309.000000
49.313343 191.541946 308.000000
49.313343 192.043823 308.000000
49.313343 192.545715 308.000000
49.313343 193.047592 308.000000
49.313343 193.549484 308.000000
49.153236 193.421326 307.000000
49.153236 193.921585 307.000000
49.153236 194.421844 307.000000
49.153236 194.922089 307.000000
48.993130 194.785782 306.000000
48.993130 195.284409 306.000000
48.833019 195.143219 305.000000
48.833019 195.640213 305.000000
48.833019 196.137207 305.000000
48.833019 196.634201 305.000000
48.833019 197.131195 305.000000
48.672913 196.980225 304.000000
48.672913 197.475586 304.000000
48.512802 197.319733 303.000000
48.352692 197.160614 302.000000
48.352692 197.652710 302.000000
48.352692 198.144821 302.000000
48.352692 198.636932 302.000000
48.352692 199.129028 302.000000
48.192585 198.960144 301.000000
48.192585 199.450607 301.000000
48.192585 199.941086 301.000000
48.192585 200.431564 301.000000
48.192585 200.922043 301.000000
48.192585 201.412521 301.000000
48.192585 201.903000 301.000000
48.032475 201.721069 300.000000
48.032475 202.209915 300.000000
48.032475 202.698761 300.000000
47.872368 202.510315 299.000000
47.872368 202.997543 299.000000
47.872368 203.484756 299.000000
47.712261 203.289795 298.000000
47.712261 203.775375 298.000000
47.712261 204.260956 298.000000
47.712261 204.746552 298.000000
47.712261 205.232132 298.000000
47.552155 205.027390 297.000000
47.552155 205.511353 297.000000
47.552155 205.995316 297.000000
47.552155 206.479263 297.000000
47.392044 206.266373 296.000000
47.392044 206.748703 296.000000
47.392044 207.231033 296.000000
47.231937 207.011627 295.000000
54.366653 171.249329 336.142334
54.366653 171.797089 336.142334
54.366653 172.344818 336.142334
54.276272 172.605148 335.583527
54.166588 172.802048 334.905365
54.166588 173.347778 334.905365
54.219959 174.064850 335.235352
54.219959 174.611099 335.235352
54.219959 175.157364 335.235352
54.219959 175.703629 335.235352
54.219959 176.249878 335.235352
54.219959 176.796143 335.235352
54.219959 177.342422 335.235352
54.219959 177.888672 335.235352
54.219959 178.434937 335.235352
54.219959 178.981201 335.235352
54.219959 179.527466 335.235352
54.205288 180.024994 335.144653
54.205288 180.571121 335.144653
54.201351 181.104065 335.120300
54.214458 181.694061 335.201324
54.214458 182.240280 335.201324
54.214458 182.786469 335.201324
53.788261 181.891434 332.566193
53.788261 182.433350 332.566193
54.029861 183.797150 334.059998
54.029861 184.341492 334.059998
54.029861 184.885834 334.059998
54.010853 185.364944 333.942474
53.742733 184.986221 332.284729
53.742733 185.527679 332.284729
53.496960 185.218185 330.765106
53.257641 184.926208 329.285461
53.257641 185.462769 329.285461
52.837040 184.530411 326.684937
52.657593 184.434219 325.575439
52.657593 184.964737 325.575439
52.489361 184.902634 324.535278
52.321514 184.838486 323.497498
52.321514 185.365631 323.497498
52.235229 185.586212 322.964020
52.143955 185.787262 322.399658
52.143955 186.312607 322.399658
51.432365 184.288254 318.000000
51.270626 184.225266 317.000000
51.270626 184.741821 317.000000
51.270626 185.258362 317.000000
51.108891 185.188873 316.000000
51.108891 185.703781 316.000000
51.108891 186.218704 316.000000
51.108891 186.733627 316.000000
51.108891 187.248535 316.000000
51.108891 187.763458 316.000000
50.986668 187.828125 315.244293
50.859238 187.871094 314.456421
50.859238 188.383499 314.456421
50.737827 188.444962 313.705750
50.601665 188.449066 312.863892
50.601665 188.958862 312.863892
50.551041 189.279114 312.550873
50.510967 189.637955 312.303101
50.510967 190.146851 312.303101
50.430035 190.350266 311.802704
50.138470 189.754883 310.000000
50.138470 190.260025 310.000000
50.138470 190.765167 310.000000
50.138470 191.270309 310.000000
50.138470 191.775452 310.000000
49.976734 191.660324 309.000000
49.814999 191.541946 308.000000
49.814999 192.043823 308.000000
49.814999 192.545715 308.000000
49.814999 193.047592 308.000000
49.814999 193.549484 308.000000
49.814999 194.051361 308.000000
49.653259 193.921585 307.000000
49.653259 194.421844 307.000000
49.653259 194.922089 307.000000
49.491524 194.785782 306.000000
49.491524 195.284409 306.000000
49.329784 195.143219 305.000000
49.329784 195.640213 305.000000
49.329784 196.137207 305.000000
49.329784 196.634201 305.000000
49.329784 197.131195 305.000000
49.168049 196.980225 304.000000
49.168049 197.475586 304.000000
49.006310 197.319733 303.000000
48.844574 197.160614 302.000000
48.844574 197.652710 302.000000
48.844574 198.144821 302.000000
48.844574 198.636932 302.000000
48.844574 199.129028 302.000000
48.768761 199.311310 301.531250
48.768761 199.802643 301.531250
48.768761 200.293991 301.531250
48.705738 200.525864 301.141602
48.682838 200.922043 301.000000
48.682838 201.412521 301.000000
48.567230 201.423538 300.285217
48.521099 201.721069 300.000000
48.521099 202.209915 300.000000
48.359364 202.023102 299.000000
48.359364 202.510315 299.000000
48.359364 202.997543 299.000000
48.197624 202.804199 298.000000
48.197624 203.289795 298.000000
48.197624 203.775375 298.000000
48.197624 204.260956 298.000000
48.197624 204.746552 298.000000
48.197624 205.232132 298.000000
48.035889 205.027390 297.000000
48.035889 205.511353 297.000000
47.874149 205.301727 296.000000
47.874149 205.784042 296.000000
47.874149 206.266373 296.000000
47.874149 206.748703 296.000000
47.874149 207.231033 296.000000
47.712418 207.011627 295.000000
54.467121 173.114990 333.406006
54.467121 173.658279 333.406006
54.467121 174.201553 333.406006
54.343178 174.347198 332.647339
54.342396 174.886719 332.642548
54.342396 175.428757 332.642548
54.342396 175.970795 332.642548
54.342396 176.512833 332.642548
54.342396 177.054871 332.642548
54.342396 177.596909 332.642548
54.342396 178.138947 332.642548
54.342396 178.680984 332.642548
54.342396 179.223007 332.642548
54.342396 179.765060 332.642548
54.342396 180.307098 332.642548
54.342396 180.849121 332.642548
54.342396 181.391159 332.642548
54.329918 181.891434 332.566193
54.329918 182.433350 332.566193
54.328602 182.970825 332.558105
54.023956 182.483688 330.693329
54.023956 183.022552 330.693329
53.985420 183.430466 330.457428
53.985420 183.968948 330.457428
53.985420 184.507431 330.457428
53.772469 184.315964 329.153900
53.563328 184.133347 327.873688
53.563328 184.667618 327.873688
53.369129 184.530411 326.684937
53.187874 184.434219 325.575439
53.187874 184.964737 325.575439
53.017944 184.902634 324.535278
52.848408 184.838486 323.497498
52.848408 185.365631 323.497498
52.761257 185.586212 322.964020
52.669060 185.787262 322.399658
52.669060 186.312607 322.399658
51.950306 184.288254 318.000000
51.786938 184.225266 317.000000
51.786938 184.741821 317.000000
51.786938 185.258362 317.000000
51.786938 185.774918 317.000000
51.623573 185.703781 316.000000
51.623573 186.218704 316.000000
51.623573 186.733627 316.000000
51.623573 187.248535 316.000000
51.623573 187.763458 316.000000
51.500118 187.828125 315.244293
51.371407 187.871094 314.456421
51.371407 188.383499 314.456421
51.296844 188.621735 314.000000
51.133476 188.531052 313.000000
51.133476 189.041077 313.000000
51.060108 189.279114 312.550873
51.019627 189.637955 312.303101
51.019627 190.146851 312.303101
50.958282 190.426498 311.927582
50.643379 189.754883 310.000000
50.643379 190.260025 310.000000
50.643379 190.765167 310.000000
50.643379 191.270309 310.000000
50.643379 191.775452 310.000000
50.480015 191.660324 309.000000
50.316650 191.541946 308.000000
50.316650 192.043823 308.000000
50.316650 192.545715 308.000000
50.316650 193.047592 308.000000
50.316650 193.549484 308.000000
50.316650 194.051361 308.000000
50.153282 193.921585 307.000000
50.153282 194.421844 307.000000
50.153282 194.922089 307.000000
49.989918 194.785782 306.000000
49.989918 195.284409 306.000000
49.826550 195.143219 305.000000
49.826550 195.640213 305.000000
49.826550 196.137207 305.000000
49.826550 196.634201 305.000000
49.826550 197.131195 305.000000
49.663185 196.980225 304.000000
49.663185 197.475586 304.000000
49.499821 197.319733 303.000000
49.336452 197.160614 302.000000
49.336452 197.652710 302.000000
49.336452 198.144821 302.000000
49.336452 198.636932 302.000000
49.336452 199.129028 302.000000
49.306751 199.500961 301.818176
49.263927 199.819061 301.556030
49.263927 200.310455 301.556030
49.200394 200.542862 301.167145
49.139824 200.786133 300.796387
49.139824 201.276276 300.796387
49.060764 201.441803 300.312439
48.846355 201.048676 299.000000
48.846355 201.535889 299.000000
48.846355 202.023102 299.000000
48.846355 202.510315 299.000000
48.846355 202.997543 299.000000
48.682991 202.804199 298.000000
48.682991 203.289795 298.000000
48.682991 203.775375 298.000000
48.682991 204.260956 298.000000
48.519627 204.059479 297.000000
48.519627 204.543442 297.000000
48.519627 205.027390 297.000000
48.519627 205.511353 297.000000
48.356258 205.301727 296.000000
48.356258 205.784042 296.000000
48.356258 206.266373 296.000000
48.356258 206.748703 296.000000
48.356258 207.231033 296.000000
48.192894 207.011627 295.000000
54.665230 174.189041 331.315521
54.665230 174.728912 331.315521
54.665230 175.268799 331.315521
54.560413 175.471542 330.680206
54.562576 176.017365 330.693329
54.562576 176.556229 330.693329
54.562576 177.095078 330.693329
54.562576 177.633942 330.693329
54.562576 178.172806 330.693329
54.562576 178.711670 330.693329
54.562576 179.250519 330.693329
54.562576 179.789383 330.693329
54.562576 180.328247 330.693329
54.562576 180.867111 330.693329
54.562576 181.405960 330.693329
54.562576 181.944824 330.693329
54.562576 182.483688 330.693329
54.562576 183.022552 330.693329
54.274364 182.591797 328.946533
54.106903 182.562790 327.931580
54.106903 183.097137 327.931580
54.106903 183.631500 327.931580
53.933105 183.574310 326.878235
53.933105 184.106949 326.878235
53.759937 184.046753 325.828705
53.598316 184.022781 324.849152
53.598316 184.552124 324.849152
53.446796 184.558243 323.930817
53.304192 184.592239 323.066498
53.304192 185.118668 323.066498
53.230167 185.387299 322.617859
53.151791 185.639267 322.142853
53.151791 186.164200 322.142853
52.468246 184.288254 318.000000
52.303249 184.225266 317.000000
52.303249 184.741821 317.000000
52.303249 185.258362 317.000000
52.303249 185.774918 317.000000
52.138256 185.703781 316.000000
52.138256 186.218704 316.000000
52.138256 186.733627 316.000000
52.138256 187.248535 316.000000
52.138256 187.763458 316.000000
52.013569 187.828125 315.244293
51.808270 187.598404 314.000000
51.808270 188.110077 314.000000
51.808270 188.621735 314.000000
51.643272 188.531052 313.000000
51.643272 189.041077 313.000000
51.643272 189.551117 313.000000
51.478279 189.453918 312.000000
51.478279 189.962311 312.000000
51.466331 190.426498 311.927582
51.313282 190.367004 311.000000
51.313282 190.873764 311.000000
51.148293 190.765167 310.000000
51.148293 191.270309 310.000000
51.148293 191.775452 310.000000
50.983295 191.660324 309.000000
50.818302 191.541946 308.000000
50.818302 192.043823 308.000000
50.818302 192.545715 308.000000
50.818302 193.047592 308.000000
50.818302 193.549484 308.000000
50.818302 194.051361 308.000000
50.653305 193.921585 307.000000
50.653305 194.421844 307.000000
50.653305 194.922089 307.000000
50.488312 194.785782 306.000000
50.323318 194.646225 305.000000
50.323318 195.143219 305.000000
50.323318 195.640213 305.000000
50.323318 196.137207 305.000000
50.323318 196.634201 305.000000
50.323318 197.131195 305.000000
50.158325 196.980225 304.000000
50.158325 197.475586 304.000000
49.993328 197.319733 303.000000
49.828331 197.160614 302.000000
49.828331 197.652710 302.000000
49.828331 198.144821 302.000000
49.828331 198.636932 302.000000
49.828331 199.129028 302.000000
49.798336 199.500961 301.818176
49.755081 199.819061 301.556030
49.755081 200.310455 301.556030
49.690918 200.542862 301.167145
49.629745 200.786133 300.796387
49.629745 201.276276 300.796387
49.549896 201.441803 300.312439
49.333351 201.048676 299.000000
49.333351 201.535889 299.000000
49.333351 202.023102 299.000000
49.333351 202.510315 299.000000
49.333351 202.997543 299.000000
49.168354 202.804199 298.000000
49.168354 203.289795 298.000000
49.168354 203.775375 298.000000
49.168354 204.260956 298.000000
49.003361 204.059479 297.000000
49.003361 204.543442 297.000000
49.003361 205.027390 297.000000
49.003361 205.511353 297.000000
48.838367 205.301727 296.000000
48.838367 205.784042 296.000000
48.838367 206.266373 296.000000
48.673374 206.050232 295.000000
48.673374 206.530930 295.000000
48.673374 207.011627 295.000000
55.204861 174.189041 331.315521
55.204861 174.728912 331.315521
55.204861 175.268799 331.315521
55.099003 175.471542 330.680206
55.101185 176.017365 330.693329
55.101185 176.556229 330.693329
55.101185 177.095078 330.693329
55.101185 177.633942 330.693329
55.101185 178.172806 330.693329
55.101185 178.711670 330.693329
55.101185 179.250519 330.693329
55.101185 179.789383 330.693329
55.101185 180.328247 330.693329
55.101185 180.867111 330.693329
55.101185 181.405960 330.693329
55.101185 181.944824 330.693329
55.101185 182.483688 330.693329
55.101185 183.022552 330.693329
54.810131 182.591797 328.946533
54.358879 181.620117 326.238312
54.358879 182.151718 326.238312
54.278698 182.413864 325.757111
54.278698 182.944687 325.757111
54.278698 183.475510 325.757111
54.133980 183.515701 324.888550
53.993183 183.566422 324.043549
53.993183 184.094452 324.043549
53.863571 184.179291 323.265686
53.736675 184.270905 322.504120
53.736675 184.796417 322.504120
53.673531 185.104172 322.125153
53.535175 185.150558 321.294800
53.535175 185.674118 321.294800
53.298126 185.373199 319.872131
52.819561 184.225266 317.000000
52.819561 184.741821 317.000000
52.819561 185.258362 317.000000
52.819561 185.774918 317.000000
52.652939 185.703781 316.000000
52.652939 186.218704 316.000000
52.652939 186.733627 316.000000
52.652939 187.248535 316.000000
52.652939 187.763458 316.000000
52.486313 187.682556 315.000000
52.319695 187.598404 314.000000
52.319695 188.110077 314.000000
52.319695 188.621735 314.000000
52.153069 188.531052 313.000000
52.153069 189.041077 313.000000
52.153069 189.551117 313.000000
51.986446 189.453918 312.000000
51.986446 189.962311 312.000000
51.974380 190.426498 311.927582
51.819820 190.367004 311.000000
51.819820 190.873764 311.000000
51.653202 190.765167 310.000000
51.653202 191.270309 310.000000
51.653202 191.775452 310.000000
51.486576 191.660324 309.000000
51.486576 192.163834 309.000000
51.486576 192.667358 309.000000
51.319954 192.545715 308.000000
51.319954 193.047592 308.000000
51.319954 193.549484 308.000000
51.319954 194.051361 308.000000
51.153328 193.921585 307.000000
51.153328 194.421844 307.000000
51.153328 194.922089 307.000000
50.986710 194.785782 306.000000
50.820084 194.646225 305.000000
50.820084 195.143219 305.000000
50.820084 195.640213 305.000000
50.820084 196.137207 305.000000
50.820084 196.634201 305.000000
50.820084 197.131195 305.000000
50.653461 196.980225 304.000000
50.653461 197.475586 304.000000
50.486835 197.319733 303.000000
50.320213 197.160614 302.000000
50.320213 197.652710 302.000000
50.320213 198.144821 302.000000
50.320213 198.636932 302.000000
50.320213 199.129028 302.000000
50.309200 199.577454 301.933899
50.254677 199.852631 301.606689
50.254677 200.344101 301.606689
50.188171 200.569778 301.207550
50.129776 200.826660 300.857086
50.129776 201.316895 300.857086
50.039024 201.441803 300.312439
49.948475 201.565735 299.768982
49.948475 202.054199 299.768982
49.820343 202.023102 299.000000
49.820343 202.510315 299.000000
49.820343 202.997543 299.000000
49.653721 202.804199 298.000000
49.653721 203.289795 298.000000
49.653721 203.775375 298.000000
49.653721 204.260956 298.000000
49.487099 204.059479 297.000000
49.487099 204.543442 297.000000
49.487099 205.027390 297.000000
49.487099 205.511353 297.000000
49.320473 205.301727 296.000000
49.320473 205.784042 296.000000
49.320473 206.266373 296.000000
49.153851 206.050232 295.000000
49.153851 206.530930 295.000000
49.153851 207.011627 295.000000
55.439907 175.384979 329.505249
55.439907 175.921906 329.505249
55.439907 176.458847 329.505249
55.381794 176.810226 329.159851
55.381794 177.346588 329.159851
55.300236 177.621002 328.675140
55.345898 178.303680 328.946533
55.345898 178.839706 328.946533
55.345898 179.375717 328.946533
55.345898 179.911728 328.946533
55.345898 180.447754 328.946533
55.345898 180.983765 328.946533
55.345898 181.519775 328.946533
55.345898 182.055786 328.946533
55.345898 182.591797 328.946533
54.890240 181.620117 326.238312
54.890240 182.151718 326.238312
54.809273 182.413864 325.757111
54.809273 182.944687 325.757111
54.809273 183.475510 325.757111
54.663136 183.515701 324.888550
54.520966 183.566422 324.043549
54.520966 184.094452 324.043549
54.390087 184.179291 323.265686
54.261951 184.270905 322.504120
54.261951 184.796417 322.504120
54.072453 184.674744 321.377838
53.942360 184.752853 320.604645
54.262543 186.375000 322.507629
54.262543 186.900513 322.507629
54.262543 187.426041 322.507629
54.103939 187.402191 321.564972
54.103939 187.926193 321.564972
53.948776 187.909714 320.642761
53.807060 187.937210 319.800476
53.807060 188.458328 319.800476
53.668377 188.492355 318.976227
53.533401 188.536774 318.174011
53.533401 189.055237 318.174011
53.407822 189.128983 317.427612
52.831120 187.598404 314.000000
52.831120 188.110077 314.000000
52.831120 188.621735 314.000000
52.662865 188.531052 313.000000
52.662865 189.041077 313.000000
52.662865 189.551117 313.000000
52.494614 189.453918 312.000000
52.494614 189.962311 312.000000
52.494614 190.470718 312.000000
52.326359 190.367004 311.000000
52.326359 190.873764 311.000000
52.158112 190.765167 310.000000
52.158112 191.270309 310.000000
52.158112 191.775452 310.000000
51.989857 191.660324 309.000000
51.989857 192.163834 309.000000
51.989857 192.667358 309.000000
51.821606 192.545715 308.000000
51.821606 193.047592 308.000000
51.821606 193.549484 308.000000
51.821606 194.051361 308.000000
51.653355 193.921585 307.000000
51.653355 194.421844 307.000000
51.653355 194.922089 307.000000
51.485104 194.785782 306.000000
51.316849 194.646225 305.000000
51.316849 195.143219 305.000000
51.316849 195.640213 305.000000
51.316849 196.137207 305.000000
51.316849 196.634201 305.000000
51.316849 197.131195 305.000000
51.148598 196.980225 304.000000
51.148598 197.475586 304.000000
50.980347 197.319733 303.000000
50.980347 197.813461 303.000000
50.980347 198.307205 303.000000
50.812092 198.144821 302.000000
50.812092 198.636932 302.000000
50.812092 199.129028 302.000000
50.800972 199.577454 301.933899
50.756145 199.892899 301.667480
50.756145 200.384476 301.667480
50.684338 200.591843 301.240692
50.625538 200.849426 300.891205
50.625538 201.339722 300.891205
50.530178 201.449844 300.324432
50.436722 201.565735 299.768982
50.436722 202.054199 299.768982
50.307339 202.023102 299.000000
50.307339 202.510315 299.000000
50.307339 202.997543 299.000000
50.139084 202.804199 298.000000
50.139084 203.289795 298.000000
50.139084 203.775375 298.000000
49.970833 203.575516 297.000000
49.970833 204.059479 297.000000
49.970833 204.543442 297.000000
49.970833 205.027390 297.000000
49.802582 204.819397 296.000000
49.802582 205.301727 296.000000
49.802582 205.784042 296.000000
49.634331 205.569534 295.000000
49.634331 206.050232 295.000000
49.634331 206.530930 295.000000
49.634331 207.011627 295.000000
55.780060 177.979477 328.348389
55.780060 178.514496 328.348389
55.780060 179.049545 328.348389
55.706863 179.348938 327.917542
55.706863 179.883270 327.917542
55.706863 180.417618 327.917542
55.706863 180.951950 327.917542
55.706863 181.486298 327.917542
55.589333 181.636581 327.225677
55.414604 181.597198 326.197144
55.414604 182.128738 326.197144
55.352776 182.456482 325.833221
55.292225 182.787247 325.476776
55.292225 183.317612 325.476776
55.213295 183.585526 325.012177
55.116074 183.790939 324.439880
55.116074 184.319611 324.439880
55.405003 185.817291 326.140656
55.405003 186.348740 326.140656
55.405003 186.880173 326.140656
55.377678 187.319183 325.979797
55.166424 187.133759 324.736267
55.166424 187.662918 324.736267
54.973717 187.534668 323.601898
54.787827 187.426041 322.507629
54.627686 187.402191 321.564972
54.627686 187.926193 321.564972
54.471024 187.909714 320.642761
54.327927 187.937210 319.800476
54.327927 188.458328 319.800476
54.187908 188.492355 318.976227
54.051628 188.536774 318.174011
54.051628 189.055237 318.174011
53.924828 189.128983 317.427612
53.342545 187.598404 314.000000
53.342545 188.110077 314.000000
53.684162 189.829697 316.010925
53.684162 190.344635 316.010925
53.684162 190.859573 316.010925
53.172661 189.551117 313.000000
53.172661 190.061142 313.000000
53.172661 190.571167 313.000000
53.002781 190.470718 312.000000
52.832901 190.367004 311.000000
52.832901 190.873764 311.000000
52.663021 190.765167 310.000000
52.663021 191.270309 310.000000
52.663021 191.775452 310.000000
52.493137 191.660324 309.000000
52.493137 192.163834 309.000000
52.493137 192.667358 309.000000
52.323257 192.545715 308.000000
52.323257 193.047592 308.000000
52.323257 193.549484 308.000000
52.323257 194.051361 308.000000
52.323257 194.553238 308.000000
52.323257 195.055130 308.000000
52.153378 194.922089 307.000000
51.983498 194.785782 306.000000
51.983498 195.284409 306.000000
51.983498 195.783035 306.000000
51.813614 195.640213 305.000000
51.813614 196.137207 305.000000
51.813614 196.634201 305.000000
51.813614 197.131195 305.000000
51.643738 196.980225 304.000000
51.643738 197.475586 304.000000
51.473854 197.319733 303.000000
51.473854 197.813461 303.000000
51.473854 198.307205 303.000000
51.303974 198.144821 302.000000
51.303974 198.636932 302.000000
51.303974 199.129028 302.000000
51.292744 199.577454 301.933899
51.247486 199.892899 301.667480
51.247486 200.384476 301.667480
51.174980 200.591843 301.240692
51.115612 200.849426 300.891205
51.115612 201.339722 300.891205
51.019329 201.449844 300.324432
50.924965 201.565735 299.768982
50.924965 202.054199 299.768982
50.794331 202.023102 299.000000
50.794331 202.510315 299.000000
50.794331 202.997543 299.000000
50.624451 202.804199 298.000000
50.624451 203.289795 298.000000
50.624451 203.775375 298.000000
50.454571 203.575516 297.000000
50.454571 204.059479 297.000000
50.454571 204.543442 297.000000
50.454571 205.027390 297.000000
50.284687 204.819397 296.000000
50.284687 205.301727 296.000000
50.284687 205.784042 296.000000
50.114811 205.569534 295.000000
50.114811 206.050232 295.000000
50.114811 206.530930 295.000000
50.114811 207.011627 295.000000
56.212082 178.722794 327.749176
56.212082 179.256851 327.749176
56.212082 179.790909 327.749176
56.200047 180.286377 327.679016
56.188587 180.783463 327.612213
56.188587 181.317307 327.612213
56.122299 181.636581 327.225677
55.945892 181.597198 326.197144
55.945892 182.128738 326.197144
55.883480 182.456482 325.833221
55.822342 182.787247 325.476776
55.822342 183.317612 325.476776
55.742661 183.585526 325.012177
55.644505 183.790939 324.439880
55.644505 184.319611 324.439880
55.936203 185.817291 326.140656
55.936203 186.348740 326.140656
55.936203 186.880173 326.140656
55.908615 187.319183 325.979797
55.695339 187.133759 324.736267
55.695339 187.662918 324.736267
55.669109 188.103455 324.583344
55.669109 188.632339 324.583344
55.463779 188.463547 323.386139
55.463779 188.990509 323.386139
55.283127 188.900162 322.332825
55.109840 188.831635 321.322449
55.109840 189.355225 321.322449
54.943611 189.306107 320.353271
54.785103 189.280472 319.429077
54.785103 189.800980 319.429077
54.640194 189.818085 318.584167
54.497036 189.838516 317.749481
54.497036 190.356293 317.749481
54.348560 190.354019 316.883759
54.198856 190.344635 316.010925
54.198856 190.859573 316.010925
53.682457 189.551117 313.000000
53.682457 190.061142 313.000000
53.682457 190.571167 313.000000
53.510948 190.470718 312.000000
53.339439 190.367004 311.000000
53.339439 190.873764 311.000000
53.167931 190.765167 310.000000
53.167931 191.270309 310.000000
53.167931 191.775452 310.000000
53.167931 192.280594 310.000000
52.996418 192.163834 309.000000
52.996418 192.667358 309.000000
52.996418 193.170868 309.000000
52.824913 193.047592 308.000000
52.824913 193.549484 308.000000
52.824913 194.051361 308.000000
52.824913 194.553238 308.000000
52.824913 195.055130 308.000000
52.653400 194.922089 307.000000
52.653400 195.422348 307.000000
52.481892 195.284409 306.000000
52.481892 195.783035 306.000000
52.481892 196.281662 306.000000
52.310383 196.137207 305.000000
52.310383 196.634201 305.000000
52.310383 197.131195 305.000000
52.138874 196.980225 304.000000
52.138874 197.475586 304.000000
51.967361 197.319733 303.000000
51.967361 197.813461 303.000000
51.967361 198.307205 303.000000
51.795853 198.144821 302.000000
51.795853 198.636932 302.000000
51.795853 199.129028 302.000000
51.738823 199.401352 301.667480
51.738823 199.892899 301.667480
51.738823 200.384476 301.667480
51.665627 200.591843 301.240692
51.605682 200.849426 300.891205
51.605682 201.339722 300.891205
51.508476 201.449844 300.324432
51.413109 201.565323 299.768372
51.413109 202.053802 299.768372
51.281326 202.023102 299.000000
51.281326 202.510315 299.000000
51.281326 202.997543 299.000000
51.109814 202.804199 298.000000
51.109814 203.289795 298.000000
51.109814 203.775375 298.000000
50.938309 203.575516 297.000000
50.938309 204.059479 297.000000
50.938309 204.543442 297.000000
50.938309 205.027390 297.000000
50.766796 204.819397 296.000000
50.766796 205.301727 296.000000
50.766796 205.784042 296.000000
50.595287 205.569534 295.000000
50.595287 206.050232 295.000000
50.595287 206.530930 295.000000
50.595287 207.011627 295.000000
56.745895 178.722794 327.749176
56.745895 179.256851 327.749176
56.745895 179.790909 327.749176
56.733749 180.286377 327.679016
56.722183 180.783463 327.612213
56.722183 181.317307 327.612213
56.655258 181.636581 327.225677
56.477188 181.597198 326.197144
56.477188 182.128738 326.197144
56.414173 182.456482 325.833221
56.352459 182.787247 325.476776
56.352459 183.317612 325.476776
56.272022 183.585526 325.012177
56.172935 183.790939 324.439880
56.172935 184.319611 324.439880
56.467400 185.817291 326.140656
56.467400 186.348740 326.140656
56.467400 186.880173 326.140656
56.439552 187.319183 325.979797
56.224247 187.133759 324.736267
56.224247 187.662918 324.736267
56.197773 188.103455 324.583344
56.197773 188.632339 324.583344
55.990490 188.463547 323.386139
55.990490 188.990509 323.386139
55.808125 188.900162 322.332825
55.633186 188.831635 321.322449
55.633186 189.355225 321.322449
55.465389 189.306107 320.353271
55.305370 189.280472 319.429077
55.305370 189.800980 319.429077
55.159088 189.818085 318.584167
55.014568 189.838516 317.749481
55.014568 190.356293 317.749481
54.864681 190.354019 316.883759
54.730728 190.404373 316.110107
54.730728 190.919464 316.110107
54.591923 190.949051 315.308380
54.192253 190.061142 313.000000
54.192253 190.571167 313.000000
54.192253 191.081192 313.000000
54.019115 190.979111 312.000000
54.019115 191.487518 312.000000
53.672836 190.765167 310.000000
53.672836 191.270309 310.000000
53.672836 191.775452 310.000000
53.672836 192.280594 310.000000
53.499699 192.163834 309.000000
53.499699 192.667358 309.000000
53.499699 193.170868 309.000000
53.326565 193.047592 308.000000
53.326565 193.549484 308.000000
53.326565 194.051361 308.000000
53.326565 194.553238 308.000000
53.326565 195.055130 308.000000
53.153423 194.922089 307.000000
53.153423 195.422348 307.000000
52.980289 195.284409 306.000000
52.980289 195.783035 306.000000
52.980289 196.281662 306.000000
52.807148 196.137207 305.000000
52.807148 196.634201 305.000000
52.807148 197.131195 305.000000
52.634010 196.980225 304.000000
52.634010 197.475586 304.000000
52.460873 197.319733 303.000000
52.460873 197.813461 303.000000
52.460873 198.307205 303.000000
52.460873 198.800934 303.000000
52.287731 198.636932 302.000000
52.287731 199.129028 302.000000
52.114597 198.960144 301.000000
52.151905 199.593414 301.215485
52.151905 200.084229 301.215485
52.151905 200.575058 301.215485
52.101044 200.869797 300.921722
52.101044 201.360138 300.921722
52.010933 201.501389 300.401276
51.768318 201.048676 299.000000
51.768318 201.535889 299.000000
51.768318 202.023102 299.000000
51.768318 202.510315 299.000000
51.768318 202.997543 299.000000
51.595181 202.804199 298.000000
51.595181 203.289795 298.000000
51.595181 203.775375 298.000000
51.422043 203.575516 297.000000
51.422043 204.059479 297.000000
51.422043 204.543442 297.000000
51.422043 205.027390 297.000000
51.248905 204.819397 296.000000
51.248905 205.301727 296.000000
51.248905 205.784042 296.000000
51.075768 205.569534 295.000000
51.096752 206.134903 295.121216
51.096752 206.615799 295.121216
51.096752 207.096695 295.121216
57.003574 181.050110 326.169128
57.003574 181.581604 326.169128
57.003574 182.113098 326.169128
56.911060 182.348160 325.639771
56.868172 182.740967 325.394348
56.868172 183.271179 325.394348
56.723831 183.334900 324.568451
56.600574 183.464249 323.863190
56.600574 183.991989 323.863190
56.540325 184.323288 323.518433
56.726433 185.458923 324.583344
56.726433 185.987823 324.583344
56.726433 186.516739 324.583344
56.726433 187.045639 324.583344
56.726433 187.574539 324.583344
56.726433 188.103455 324.583344
56.726433 188.632339 324.583344
56.517204 188.463547 323.386139
56.517204 188.990509 323.386139
56.333118 188.900162 322.332825
56.156540 188.831635 321.322449
56.156540 189.355225 321.322449
55.987156 189.306107 320.353271
55.825638 189.280472 319.429077
55.825638 189.800980 319.429077
55.677979 189.818085 318.584167
55.532104 189.838516 317.749481
55.532104 190.356293 317.749481
55.380802 190.354019 316.883759
55.245598 190.404373 316.110107
55.245598 190.919464 316.110107
55.105480 190.949051 315.308380
54.876816 190.668365 314.000000
54.876816 191.180023 314.000000
54.876816 191.691681 314.000000
54.702049 191.591232 313.000000
54.702049 192.101257 313.000000
54.352520 191.380539 311.000000
54.177746 191.270309 310.000000
54.177746 191.775452 310.000000
54.177746 192.280594 310.000000
54.002983 192.163834 309.000000
54.002983 192.667358 309.000000
54.002983 193.170868 309.000000
53.828217 193.047592 308.000000
53.828217 193.549484 308.000000
53.828217 194.051361 308.000000
53.828217 194.553238 308.000000
53.828217 195.055130 308.000000
53.653450 194.922089 307.000000
53.653450 195.422348 307.000000
53.478680 195.284409 306.000000
53.478680 195.783035 306.000000
53.478680 196.281662 306.000000
53.303913 196.137207 305.000000
53.303913 196.634201 305.000000
53.303913 197.131195 305.000000
53.129150 196.980225 304.000000
53.129150 197.475586 304.000000
52.954380 197.319733 303.000000
52.954380 197.813461 303.000000
52.954380 198.307205 303.000000
52.954380 198.800934 303.000000
52.779613 198.636932 302.000000
52.779613 199.129028 302.000000
52.604847 198.960144 301.000000
52.642506 199.593414 301.215485
52.642506 200.084229 301.215485
52.642506 200.575058 301.215485
52.591164 200.869797 300.921722
52.591164 201.360138 300.921722
52.500210 201.501389 300.401276
52.255314 201.048676 299.000000
52.255314 201.535889 299.000000
52.255314 202.023102 299.000000
52.255314 202.510315 299.000000
52.255314 202.997543 299.000000
52.080544 202.804199 298.000000
52.080544 203.289795 298.000000
52.080544 203.775375 298.000000
51.905781 203.575516 297.000000
51.905781 204.059479 297.000000
51.905781 204.543442 297.000000
51.905781 205.027390 297.000000
51.905781 205.511353 297.000000
51.731010 205.301727 296.000000
51.731010 205.784042 296.000000
51.731010 206.266373 296.000000
51.583366 206.158630 295.155182
51.583366 206.639587 295.155182
51.583366 207.120529 295.155182
57.398155 182.210724 325.394348
57.398155 182.740967 325.394348
57.398155 183.271179 325.394348
56.951309 183.948807 322.861145
56.951309 184.474899 322.861145
56.951309 185.000992 322.861145
56.901131 185.363617 322.576660
57.016827 186.267227 323.232574
57.016827 186.793945 323.232574
57.016827 187.320648 323.232574
57.016827 187.847351 323.232574
57.016827 188.374054 323.232574
57.016827 188.900757 323.232574
56.791203 188.677856 321.953491
56.548286 188.393173 320.576355
56.548286 188.915558 320.576355
56.410751 188.977203 319.796692
56.277817 189.051758 319.043091
56.277817 189.571625 319.043091
56.171478 189.732300 318.440216
56.029690 189.770981 317.636414
56.029690 190.288559 317.636414
55.888809 190.326385 316.837769
55.760456 190.404373 316.110107
55.760456 190.919464 316.110107
55.619038 190.949051 315.308380
55.388241 190.668365 314.000000
