123.994888 72.346504 362.000000
123.994888 72.936386 362.000000
123.994888 73.526260 362.000000
123.994888 74.116135 362.000000
123.994888 74.706009 362.000000
123.994888 75.295883 362.000000
123.994888 75.885757 362.000000
123.994888 76.475632 362.000000
123.994888 77.065506 362.000000
123.994888 77.655380 362.000000
123.994888 78.245255 362.000000
123.994888 78.835129 362.000000
123.994888 79.425003 362.000000
123.994888 80.014877 362.000000
123.994888 80.604752 362.000000
123.994888 81.194626 362.000000
123.994888 81.784500 362.000000
123.994888 82.374374 362.000000
123.994888 82.964249 362.000000
123.994888 83.554123 362.000000
123.994888 84.143997 362.000000
123.994888 84.733871 362.000000
123.812645 85.198341 361.467957
123.812645 85.787354 361.467957
123.812645 86.376366 361.467957
122.459877 86.015182 357.518555
122.459877 86.597755 357.518555
122.459877 87.180321 357.518555
125.961121 2.771619 366.000000
125.961121 3.368011 366.000000
125.961121 3.964404 366.000000
125.959000 4.560719 365.993835
125.979713 5.157949 366.054016
125.979713 5.754430 366.054016
125.979713 6.350911 366.054016
125.979408 6.947375 366.053162
125.979408 7.543854 366.053162
125.978577 8.140279 366.050751
125.963043 8.735676 366.005585
125.963043 9.332078 366.005585
125.963043 9.928479 366.005585
125.961121 10.524720 366.000000
125.961121 11.121113 366.000000
125.961121 11.717505 366.000000
125.961121 12.313897 366.000000
125.961121 12.910290 366.000000
125.961121 13.506682 366.000000
125.961121 14.103075 366.000000
125.961121 14.699467 366.000000
125.961121 15.295859 366.000000
125.961121 15.892252 366.000000
125.961121 16.488644 366.000000
125.961121 17.085037 366.000000
125.961121 17.681429 366.000000
125.961121 18.277821 366.000000
125.961121 18.874214 366.000000
125.961121 19.470606 366.000000
125.961121 20.066998 366.000000
125.961121 20.663391 366.000000
125.961121 21.259783 366.000000
125.961121 21.856176 366.000000
125.961121 22.452568 366.000000
125.961121 23.048960 366.000000
125.616959 23.580748 365.000000
125.616959 24.175510 365.000000
125.616959 24.770273 365.000000
125.616959 25.365036 365.000000
125.616959 25.959799 365.000000
125.616959 26.554562 365.000000
125.616959 27.149324 365.000000
125.616959 27.744087 365.000000
125.616959 28.338850 365.000000
125.616959 28.933613 365.000000
125.616959 29.528376 365.000000
125.616959 30.123138 365.000000
125.616959 30.717901 365.000000
125.616959 31.312666 365.000000
125.616959 31.907429 365.000000
125.616959 32.502190 365.000000
125.616959 33.096954 365.000000
125.616959 33.691715 365.000000
125.616959 34.286480 365.000000
125.616959 34.881241 365.000000
125.616959 35.476006 365.000000
125.616959 36.070766 365.000000
125.616959 36.665531 365.000000
125.616959 37.260292 365.000000
125.616959 37.855057 365.000000
125.616959 38.449821 365.000000
125.616959 39.044582 365.000000
125.616959 39.639347 365.000000
125.616959 40.234108 365.000000
125.616959 40.828873 365.000000
125.616959 41.423634 365.000000
125.616959 42.018398 365.000000
125.616959 42.613159 365.000000
125.616959 43.207924 365.000000
125.616959 43.802685 365.000000
125.616959 44.397449 365.000000
125.272797 44.868946 364.000000
125.272797 45.462078 364.000000
125.272797 46.055214 364.000000
125.272797 46.648346 364.000000
125.272797 47.241482 364.000000
125.272797 47.834614 364.000000
125.272797 48.427746 364.000000
125.272797 49.020882 364.000000
125.272797 49.614014 364.000000
125.272797 50.207146 364.000000
125.272797 50.800282 364.000000
125.272797 51.393414 364.000000
125.272797 51.986546 364.000000
125.272797 52.579681 364.000000
125.272797 53.172813 364.000000
125.272797 53.765949 364.000000
124.928650 54.209740 363.000000
124.928650 54.801243 363.000000
124.928650 55.392750 363.000000
124.928650 55.984253 363.000000
124.928650 56.575756 363.000000
124.928650 57.167259 363.000000
124.928650 57.758762 363.000000
124.928650 58.350269 363.000000
124.928650 58.941772 363.000000
124.928650 59.533276 363.000000
124.928650 60.124779 363.000000
124.928650 60.716286 363.000000
124.928650 61.307789 363.000000
124.928650 61.899292 363.000000
124.928650 62.490795 363.000000
124.928650 63.082298 363.000000
124.584488 63.498390 362.000000
124.584488 64.088264 362.000000
124.584488 64.678139 362.000000
124.584488 65.268013 362.000000
124.584488 65.857887 362.000000
124.584488 66.447762 362.000000
124.584488 67.037636 362.000000
124.584488 67.627510 362.000000
124.584488 68.217384 362.000000
124.584488 68.807259 362.000000
124.584488 69.397133 362.000000
124.584488 69.987007 362.000000
124.584488 70.576881 362.000000
124.584488 71.166756 362.000000
124.584488 71.756630 362.000000
124.584488 72.346504 362.000000
124.584488 72.936386 362.000000
124.584488 73.526260 362.000000
124.584488 74.116135 362.000000
124.584488 74.706009 362.000000
124.584488 75.295883 362.000000
124.584488 75.885757 362.000000
124.584488 76.475632 362.000000
124.584488 77.065506 362.000000
124.584488 77.655380 362.000000
124.584488 78.245255 362.000000
124.584488 78.835129 362.000000
124.584488 79.425003 362.000000
124.584488 80.014877 362.000000
124.584488 80.604752 362.000000
124.584488 81.194626 362.000000
124.584488 81.784500 362.000000
124.584488 82.374374 362.000000
124.584488 82.964249 362.000000
124.584488 83.554123 362.000000
124.584488 84.143997 362.000000
124.584488 84.733871 362.000000
124.584488 85.323746 362.000000
124.414810 85.796608 361.506958
124.414810 86.385681 361.506958
123.042175 86.015182 357.518555
123.042175 86.597755 357.518555
123.042175 87.180321 357.518555
126.557243 2.771619 366.000000
126.557243 3.368011 366.000000
126.557243 3.964404 366.000000
126.555099 4.560719 365.993835
126.575905 5.157949 366.054016
126.575905 5.754430 366.054016
126.575905 6.350911 366.054016
126.575615 6.947375 366.053162
126.575615 7.543854 366.053162
126.574791 8.140279 366.050751
126.559158 8.735676 366.005585
126.559158 9.332078 366.005585
126.559158 9.928479 366.005585
126.557243 10.524720 366.000000
126.557243 11.121113 366.000000
126.557243 11.717505 366.000000
126.557243 12.313897 366.000000
126.557243 12.910290 366.000000
126.557243 13.506682 366.000000
126.557243 14.103075 366.000000
126.557243 14.699467 366.000000
126.557243 15.295859 366.000000
126.557243 15.892252 366.000000
126.557243 16.488644 366.000000
126.557243 17.085037 366.000000
126.557243 17.681429 366.000000
126.557243 18.277821 366.000000
126.557243 18.874214 366.000000
126.557243 19.470606 366.000000
126.557243 20.066998 366.000000
126.557243 20.663391 366.000000
126.557243 21.259783 366.000000
126.557243 21.856176 366.000000
126.557243 22.452568 366.000000
126.557243 23.048960 366.000000
126.211449 23.580748 365.000000
126.211449 24.175510 365.000000
126.211449 24.770273 365.000000
126.211449 25.365036 365.000000
126.211449 25.959799 365.000000
126.211449 26.554562 365.000000
126.211449 27.149324 365.000000
126.211449 27.744087 365.000000
126.211449 28.338850 365.000000
126.211449 28.933613 365.000000
126.211449 29.528376 365.000000
126.211449 30.123138 365.000000
126.211449 30.717901 365.000000
126.211449 31.312666 365.000000
126.211449 31.907429 365.000000
126.211449 32.502190 365.000000
126.211449 33.096954 365.000000
126.211449 33.691715 365.000000
126.211449 34.286480 365.000000
126.211449 34.881241 365.000000
126.211449 35.476006 365.000000
126.211449 36.070766 365.000000
126.211449 36.665531 365.000000
126.211449 37.260292 365.000000
126.211449 37.855057 365.000000
126.211449 38.449821 365.000000
126.211449 39.044582 365.000000
126.211449 39.639347 365.000000
126.211449 40.234108 365.000000
126.211449 40.828873 365.000000
126.211449 41.423634 365.000000
126.211449 42.018398 365.000000
126.211449 42.613159 365.000000
126.211449 43.207924 365.000000
126.211449 43.802685 365.000000
126.211449 44.397449 365.000000
126.211449 44.992210 365.000000
126.211449 45.586975 365.000000
126.211449 46.181736 365.000000
125.865662 46.648346 364.000000
125.865662 47.241482 364.000000
125.865662 47.834614 364.000000
125.865662 48.427746 364.000000
125.865662 49.020882 364.000000
125.865662 49.614014 364.000000
125.865662 50.207146 364.000000
125.865662 50.800282 364.000000
125.865662 51.393414 364.000000
125.865662 51.986546 364.000000
125.865662 52.579681 364.000000
125.865662 53.172813 364.000000
125.865662 53.765949 364.000000
125.865662 54.359081 364.000000
125.519882 54.801243 363.000000
125.519882 55.392750 363.000000
125.519882 55.984253 363.000000
125.519882 56.575756 363.000000
125.519882 57.167259 363.000000
125.519882 57.758762 363.000000
125.519882 58.350269 363.000000
125.519882 58.941772 363.000000
125.519882 59.533276 363.000000
125.519882 60.124779 363.000000
125.519882 60.716286 363.000000
125.519882 61.307789 363.000000
125.519882 61.899292 363.000000
125.519882 62.490795 363.000000
125.519882 63.082298 363.000000
125.519882 63.673805 363.000000
125.174095 64.088264 362.000000
125.174095 64.678139 362.000000
125.174095 65.268013 362.000000
125.174095 65.857887 362.000000
125.174095 66.447762 362.000000
125.174095 67.037636 362.000000
125.174095 67.627510 362.000000
125.174095 68.217384 362.000000
125.174095 68.807259 362.000000
125.174095 69.397133 362.000000
125.174095 69.987007 362.000000
125.174095 70.576881 362.000000
125.174095 71.166756 362.000000
125.174095 71.756630 362.000000
125.174095 72.346504 362.000000
125.174095 72.936386 362.000000
125.174095 73.526260 362.000000
125.174095 74.116135 362.000000
125.174095 74.706009 362.000000
125.174095 75.295883 362.000000
125.174095 75.885757 362.000000
125.174095 76.475632 362.000000
125.174095 77.065506 362.000000
125.174095 77.655380 362.000000
125.174095 78.245255 362.000000
125.174095 78.835129 362.000000
125.174095 79.425003 362.000000
125.174095 80.014877 362.000000
125.174095 80.604752 362.000000
125.174095 81.194626 362.000000
125.174095 81.784500 362.000000
125.174095 82.374374 362.000000
125.174095 82.964249 362.000000
125.174095 83.554123 362.000000
125.174095 84.143997 362.000000
125.174095 84.733871 362.000000
125.174095 85.323746 362.000000
125.018219 85.806633 361.549194
125.018219 86.395767 361.549194
123.556107 85.967606 357.320831
123.556107 86.549866 357.320831
123.556107 87.132111 357.320831
127.153313 8.139148 365.999878
127.153473 8.735551 366.000336
127.153473 9.331944 366.000336
127.153473 9.928337 366.000336
127.153358 10.524720 366.000000
127.153358 11.121113 366.000000
127.153358 11.717505 366.000000
127.153358 12.313897 366.000000
127.153358 12.910290 366.000000
127.153358 13.506682 366.000000
127.153358 14.103075 366.000000
127.153358 14.699467 366.000000
127.153358 15.295859 366.000000
127.153358 15.892252 366.000000
127.153358 16.488644 366.000000
127.153358 17.085037 366.000000
127.153358 17.681429 366.000000
127.153358 18.277821 366.000000
127.153358 18.874214 366.000000
127.153358 19.470606 366.000000
127.153358 20.066998 366.000000
127.153358 20.663391 366.000000
127.153358 21.259783 366.000000
127.153358 21.856176 366.000000
127.153358 22.452568 366.000000
127.153358 23.048960 366.000000
127.153358 23.645353 366.000000
127.153358 24.241745 366.000000
126.805939 24.770273 365.000000
126.805939 25.365036 365.000000
126.805939 25.959799 365.000000
126.805939 26.554562 365.000000
126.805939 27.149324 365.000000
126.805939 27.744087 365.000000
126.805939 28.338850 365.000000
126.805939 28.933613 365.000000
126.805939 29.528376 365.000000
126.805939 30.123138 365.000000
126.805939 30.717901 365.000000
126.805939 31.312666 365.000000
126.805939 31.907429 365.000000
126.805939 32.502190 365.000000
126.805939 33.096954 365.000000
126.805939 33.691715 365.000000
126.805939 34.286480 365.000000
126.805939 34.881241 365.000000
126.805939 35.476006 365.000000
126.805939 36.070766 365.000000
126.805939 36.665531 365.000000
126.805939 37.260292 365.000000
126.805939 37.855057 365.000000
126.805939 38.449821 365.000000
126.805939 39.044582 365.000000
126.805939 39.639347 365.000000
126.805939 40.234108 365.000000
126.805939 40.828873 365.000000
126.805939 41.423634 365.000000
126.805939 42.018398 365.000000
126.805939 42.613159 365.000000
126.805939 43.207924 365.000000
126.805939 43.802685 365.000000
126.805939 44.397449 365.000000
126.805939 44.992210 365.000000
126.805939 45.586975 365.000000
126.805939 46.181736 365.000000
126.458527 46.648346 364.000000
126.458527 47.241482 364.000000
126.458527 47.834614 364.000000
126.458527 48.427746 364.000000
126.458527 49.020882 364.000000
126.458527 49.614014 364.000000
126.458527 50.207146 364.000000
126.458527 50.800282 364.000000
126.458527 51.393414 364.000000
126.458527 51.986546 364.000000
126.458527 52.579681 364.000000
126.458527 53.172813 364.000000
126.458527 53.765949 364.000000
126.458527 54.359081 364.000000
126.111115 54.801243 363.000000
126.111115 55.392750 363.000000
126.111115 55.984253 363.000000
126.111115 56.575756 363.000000
126.111115 57.167259 363.000000
126.111115 57.758762 363.000000
126.111115 58.350269 363.000000
126.111115 58.941772 363.000000
126.111115 59.533276 363.000000
126.111115 60.124779 363.000000
126.111115 60.716286 363.000000
126.111115 61.307789 363.000000
126.111115 61.899292 363.000000
126.111115 62.490795 363.000000
126.111115 63.082298 363.000000
126.111115 63.673805 363.000000
125.763702 64.088264 362.000000
125.763702 64.678139 362.000000
125.763702 65.268013 362.000000
125.763702 65.857887 362.000000
125.763702 66.447762 362.000000
125.763702 67.037636 362.000000
125.763702 67.627510 362.000000
125.763702 68.217384 362.000000
125.763702 68.807259 362.000000
125.763702 69.397133 362.000000
125.763702 69.987007 362.000000
125.763702 70.576881 362.000000
125.763702 71.166756 362.000000
125.763702 71.756630 362.000000
125.763702 72.346504 362.000000
125.763702 72.936386 362.000000
125.763702 73.526260 362.000000
125.763702 74.116135 362.000000
125.763702 74.706009 362.000000
125.763702 75.295883 362.000000
125.763702 75.885757 362.000000
125.763702 76.475632 362.000000
125.763702 77.065506 362.000000
125.763702 77.655380 362.000000
125.763702 78.245255 362.000000
125.763702 78.835129 362.000000
125.763702 79.425003 362.000000
125.763702 80.014877 362.000000
125.763702 80.604752 362.000000
125.763702 81.194626 362.000000
125.763702 81.784500 362.000000
125.763702 82.374374 362.000000
125.763702 82.964249 362.000000
125.763702 83.554123 362.000000
125.763702 84.143997 362.000000
125.763702 84.733871 362.000000
125.763702 85.323746 362.000000
125.607086 85.806633 361.549194
125.607086 86.395767 361.549194
124.098427 85.940140 357.206665
124.098427 86.522209 357.206665
124.098427 87.104271 357.206665
127.693596 12.308511 365.839905
127.693596 12.904642 365.839905
127.749481 13.506682 366.000000
127.749481 14.103075 366.000000
127.749481 14.699467 366.000000
127.749481 15.295859 366.000000
127.749481 15.892252 366.000000
127.749481 16.488644 366.000000
127.749481 17.085037 366.000000
127.749481 17.681429 366.000000
127.749481 18.277821 366.000000
127.749481 18.874214 366.000000
127.400429 19.417408 365.000000
127.400429 20.012171 365.000000
127.400429 20.606934 365.000000
127.400429 21.201696 365.000000
127.400429 21.796459 365.000000
127.400429 22.391222 365.000000
127.749481 23.048960 366.000000
127.749481 23.645353 366.000000
127.749481 24.241745 366.000000
127.400429 24.770273 365.000000
127.400429 25.365036 365.000000
127.400429 25.959799 365.000000
127.400429 26.554562 365.000000
127.400429 27.149324 365.000000
127.400429 27.744087 365.000000
127.400429 28.338850 365.000000
127.400429 28.933613 365.000000
127.400429 29.528376 365.000000
127.400429 30.123138 365.000000
127.400429 30.717901 365.000000
127.400429 31.312666 365.000000
127.400429 31.907429 365.000000
127.400429 32.502190 365.000000
127.400429 33.096954 365.000000
127.400429 33.691715 365.000000
127.400429 34.286480 365.000000
127.400429 34.881241 365.000000
127.400429 35.476006 365.000000
127.400429 36.070766 365.000000
127.400429 36.665531 365.000000
127.400429 37.260292 365.000000
127.400429 37.855057 365.000000
127.400429 38.449821 365.000000
127.400429 39.044582 365.000000
127.400429 39.639347 365.000000
127.400429 40.234108 365.000000
127.400429 40.828873 365.000000
127.400429 41.423634 365.000000
127.400429 42.018398 365.000000
127.400429 42.613159 365.000000
127.400429 43.207924 365.000000
127.400429 43.802685 365.000000
127.400429 44.397449 365.000000
127.400429 44.992210 365.000000
127.400429 45.586975 365.000000
127.400429 46.181736 365.000000
127.051384 46.648346 364.000000
127.051384 47.241482 364.000000
127.051384 47.834614 364.000000
127.051384 48.427746 364.000000
127.051384 49.020882 364.000000
127.051384 49.614014 364.000000
127.051384 50.207146 364.000000
127.051384 50.800282 364.000000
127.051384 51.393414 364.000000
127.051384 51.986546 364.000000
127.051384 52.579681 364.000000
127.051384 53.172813 364.000000
127.051384 53.765949 364.000000
127.051384 54.359081 364.000000
126.702354 54.801243 363.000000
126.702354 55.392750 363.000000
126.702354 55.984253 363.000000
126.702354 56.575756 363.000000
126.702354 57.167259 363.000000
126.702354 57.758762 363.000000
126.702354 58.350269 363.000000
126.702354 58.941772 363.000000
126.702354 59.533276 363.000000
126.702354 60.124779 363.000000
126.702354 60.716286 363.000000
126.702354 61.307789 363.000000
126.702354 61.899292 363.000000
126.702354 62.490795 363.000000
126.702354 63.082298 363.000000
126.702354 63.673805 363.000000
126.702354 64.265305 363.000000
126.702354 64.856812 363.000000
126.353302 65.268013 362.000000
126.353302 65.857887 362.000000
126.353302 66.447762 362.000000
126.353302 67.037636 362.000000
126.353302 67.627510 362.000000
126.353302 68.217384 362.000000
126.353302 68.807259 362.000000
126.353302 69.397133 362.000000
126.353302 69.987007 362.000000
126.353302 70.576881 362.000000
126.353302 71.166756 362.000000
126.353302 71.756630 362.000000
126.353302 72.346504 362.000000
126.353302 72.936386 362.000000
126.353302 73.526260 362.000000
126.353302 74.116135 362.000000
126.353302 74.706009 362.000000
126.353302 75.295883 362.000000
126.353302 75.885757 362.000000
126.353302 76.475632 362.000000
126.353302 77.065506 362.000000
126.353302 77.655380 362.000000
126.353302 78.245255 362.000000
126.353302 78.835129 362.000000
126.353302 79.425003 362.000000
126.353302 80.014877 362.000000
126.353302 80.604752 362.000000
126.353302 81.194626 362.000000
126.353302 81.784500 362.000000
126.353302 82.374374 362.000000
126.353302 82.964249 362.000000
126.353302 83.554123 362.000000
126.353302 84.143997 362.000000
126.353302 84.733871 362.000000
126.353302 85.323746 362.000000
126.222816 85.824890 361.626129
126.222816 86.414162 361.626129
124.680229 85.940140 357.206665
124.680229 86.522209 357.206665
124.680229 87.104271 357.206665
128.289459 12.308511 365.839905
128.289459 12.904642 365.839905
128.345596 13.506682 366.000000
128.345596 14.103075 366.000000
128.345596 14.699467 366.000000
128.345596 15.295859 366.000000
128.345596 15.892252 366.000000
128.345596 16.488644 366.000000
128.345596 17.085037 366.000000
128.345596 17.681429 366.000000
128.345596 18.277821 366.000000
128.345596 18.874214 366.000000
127.994926 19.417408 365.000000
127.994926 20.012171 365.000000
127.994926 20.606934 365.000000
127.994926 21.201696 365.000000
127.994926 21.796459 365.000000
127.994926 22.391222 365.000000
128.345596 23.048960 366.000000
128.345596 23.645353 366.000000
128.345596 24.241745 366.000000
128.345596 24.838137 366.000000
127.994926 25.365036 365.000000
127.994926 25.959799 365.000000
127.994926 26.554562 365.000000
127.994926 27.149324 365.000000
127.994926 27.744087 365.000000
127.994926 28.338850 365.000000
127.994926 28.933613 365.000000
127.994926 29.528376 365.000000
127.994926 30.123138 365.000000
127.994926 30.717901 365.000000
127.994926 31.312666 365.000000
127.994926 31.907429 365.000000
127.994926 32.502190 365.000000
127.994926 33.096954 365.000000
127.994926 33.691715 365.000000
127.994926 34.286480 365.000000
127.994926 34.881241 365.000000
127.994926 35.476006 365.000000
127.994926 36.070766 365.000000
127.994926 36.665531 365.000000
127.994926 37.260292 365.000000
127.994926 37.855057 365.000000
127.994926 38.449821 365.000000
127.994926 39.044582 365.000000
127.994926 39.639347 365.000000
127.994926 40.234108 365.000000
127.994926 40.828873 365.000000
127.994926 41.423634 365.000000
127.994926 42.018398 365.000000
127.994926 42.613159 365.000000
127.994926 43.207924 365.000000
127.994926 43.802685 365.000000
127.994926 44.397449 365.000000
127.994926 44.992210 365.000000
127.994926 45.586975 365.000000
127.994926 46.181736 365.000000
127.644249 46.648346 364.000000
127.644249 47.241482 364.000000
127.644249 47.834614 364.000000
127.644249 48.427746 364.000000
127.644249 49.020882 364.000000
127.644249 49.614014 364.000000
127.644249 50.207146 364.000000
127.644249 50.800282 364.000000
127.644249 51.393414 364.000000
127.644249 51.986546 364.000000
127.644249 52.579681 364.000000
127.644249 53.172813 364.000000
127.644249 53.765949 364.000000
127.644249 54.359081 364.000000
127.644249 54.952213 364.000000
127.644249 55.545349 364.000000
127.293587 55.984253 363.000000
127.293587 56.575756 363.000000
127.293587 57.167259 363.000000
127.293587 57.758762 363.000000
127.293587 58.350269 363.000000
127.293587 58.941772 363.000000
127.293587 59.533276 363.000000
127.293587 60.124779 363.000000
127.293587 60.716286 363.000000
127.293587 61.307789 363.000000
127.293587 61.899292 363.000000
127.293587 62.490795 363.000000
127.293587 63.082298 363.000000
127.293587 63.673805 363.000000
127.293587 64.265305 363.000000
127.293587 64.856812 363.000000
127.293587 65.448318 363.000000
126.942909 65.857887 362.000000
126.942909 66.447762 362.000000
126.942909 67.037636 362.000000
126.942909 67.627510 362.000000
126.942909 68.217384 362.000000
126.942909 68.807259 362.000000
126.942909 69.397133 362.000000
126.942909 69.987007 362.000000
126.942909 70.576881 362.000000
126.942909 71.166756 362.000000
126.942909 71.756630 362.000000
126.942909 72.346504 362.000000
126.942909 72.936386 362.000000
126.942909 73.526260 362.000000
126.942909 74.116135 362.000000
126.942909 74.706009 362.000000
126.942909 75.295883 362.000000
126.942909 75.885757 362.000000
126.942909 76.475632 362.000000
126.942909 77.065506 362.000000
126.942909 77.655380 362.000000
126.942909 78.245255 362.000000
126.942909 78.835129 362.000000
126.942909 79.425003 362.000000
126.942909 80.014877 362.000000
126.942909 80.604752 362.000000
126.942909 81.194626 362.000000
126.942909 81.784500 362.000000
126.942909 82.374374 362.000000
126.942909 82.964249 362.000000
126.942909 83.554123 362.000000
126.942909 84.143997 362.000000
126.942909 84.733871 362.000000
126.942909 85.323746 362.000000
126.821442 85.831406 361.653595
126.821442 86.420723 361.653595
125.227554 85.916489 357.108337
125.227554 86.498390 357.108337
125.227554 87.080292 357.108337
129.646317 -34.991272 368.000000
129.646317 -34.391621 368.000000
129.646317 -33.791969 368.000000
128.941711 14.103075 366.000000
128.941711 14.699467 366.000000
128.941711 15.295859 366.000000
128.941711 15.892252 366.000000
128.773941 17.658424 365.523804
128.773941 18.254040 365.523804
128.773941 18.849657 365.523804
128.589417 19.417408 365.000000
128.589417 20.012171 365.000000
128.589417 20.606934 365.000000
128.589417 21.201696 365.000000
128.589417 21.796459 365.000000
128.589417 22.391222 365.000000
128.941711 23.048960 366.000000
128.941711 23.645353 366.000000
128.941711 24.241745 366.000000
128.941711 24.838137 366.000000
128.589417 25.365036 365.000000
128.589417 25.959799 365.000000
128.589417 26.554562 365.000000
128.589417 27.149324 365.000000
128.589417 27.744087 365.000000
128.589417 28.338850 365.000000
128.589417 28.933613 365.000000
128.589417 29.528376 365.000000
128.589417 30.123138 365.000000
128.589417 30.717901 365.000000
128.589417 31.312666 365.000000
128.589417 31.907429 365.000000
128.589417 32.502190 365.000000
128.589417 33.096954 365.000000
128.589417 33.691715 365.000000
128.589417 34.286480 365.000000
128.589417 34.881241 365.000000
128.589417 35.476006 365.000000
128.589417 36.070766 365.000000
128.589417 36.665531 365.000000
128.589417 37.260292 365.000000
128.589417 37.855057 365.000000
128.589417 38.449821 365.000000
128.589417 39.044582 365.000000
128.589417 39.639347 365.000000
128.589417 40.234108 365.000000
128.589417 40.828873 365.000000
128.589417 41.423634 365.000000
128.589417 42.018398 365.000000
128.589417 42.613159 365.000000
128.589417 43.207924 365.000000
128.589417 43.802685 365.000000
128.589417 44.397449 365.000000
128.589417 44.992210 365.000000
128.589417 45.586975 365.000000
128.589417 46.181736 365.000000
128.237106 46.648346 364.000000
128.237106 47.241482 364.000000
128.237106 47.834614 364.000000
128.237106 48.427746 364.000000
128.237106 49.020882 364.000000
128.237106 49.614014 364.000000
128.237106 50.207146 364.000000
128.237106 50.800282 364.000000
128.237106 51.393414 364.000000
128.237106 51.986546 364.000000
128.237106 52.579681 364.000000
128.237106 53.172813 364.000000
128.237106 53.765949 364.000000
128.237106 54.359081 364.000000
128.237106 54.952213 364.000000
128.237106 55.545349 364.000000
127.884819 55.984253 363.000000
127.884819 56.575756 363.000000
127.884819 57.167259 363.000000
127.884819 57.758762 363.000000
127.884819 58.350269 363.000000
127.884819 58.941772 363.000000
127.884819 59.533276 363.000000
127.884819 60.124779 363.000000
127.884819 60.716286 363.000000
127.884819 61.307789 363.000000
127.884819 61.899292 363.000000
127.884819 62.490795 363.000000
127.884819 63.082298 363.000000
127.884819 63.673805 363.000000
127.884819 64.265305 363.000000
127.884819 64.856812 363.000000
127.884819 65.448318 363.000000
127.532516 65.857887 362.000000
127.532516 66.447762 362.000000
127.532516 67.037636 362.000000
127.532516 67.627510 362.000000
127.532516 68.217384 362.000000
127.532516 68.807259 362.000000
127.532516 69.397133 362.000000
127.532516 69.987007 362.000000
127.532516 70.576881 362.000000
127.532516 71.166756 362.000000
127.532516 71.756630 362.000000
127.532516 72.346504 362.000000
127.532516 72.936386 362.000000
127.532516 73.526260 362.000000
127.532516 74.116135 362.000000
127.532516 74.706009 362.000000
127.532516 75.295883 362.000000
127.532516 75.885757 362.000000
127.532516 76.475632 362.000000
127.532516 77.065506 362.000000
127.532516 77.655380 362.000000
127.532516 78.245255 362.000000
127.532516 78.835129 362.000000
127.532516 79.425003 362.000000
127.532516 80.014877 362.000000
127.532516 80.604752 362.000000
127.532516 81.194626 362.000000
127.532516 81.784500 362.000000
127.532516 82.374374 362.000000
127.532516 82.964249 362.000000
127.532516 83.554123 362.000000
127.532516 84.143997 362.000000
127.532516 84.733871 362.000000
127.532516 85.323746 362.000000
127.410469 85.831406 361.653595
127.410469 86.420723 361.653595
125.772377 85.891357 357.003876
125.772377 86.473091 357.003876
125.772377 87.054817 357.003876
130.245697 -34.991272 368.000000
130.245697 -34.391621 368.000000
130.245697 -33.791969 368.000000
128.829971 18.177942 364.000000
128.829971 18.771076 364.000000
128.829971 19.364208 364.000000
129.183899 20.012171 365.000000
129.183899 20.606934 365.000000
129.183899 21.201696 365.000000
129.183899 21.796459 365.000000
129.183899 22.391222 365.000000
129.537842 23.048960 366.000000
129.537842 23.645353 366.000000
129.537842 24.241745 366.000000
129.537842 24.838137 366.000000
129.183899 25.365036 365.000000
129.183899 25.959799 365.000000
129.183899 26.554562 365.000000
129.183899 27.149324 365.000000
129.183899 27.744087 365.000000
129.183899 28.338850 365.000000
129.183899 28.933613 365.000000
129.183899 29.528376 365.000000
129.183899 30.123138 365.000000
129.183899 30.717901 365.000000
129.183899 31.312666 365.000000
129.183899 31.907429 365.000000
129.183899 32.502190 365.000000
129.183899 33.096954 365.000000
129.183899 33.691715 365.000000
129.183899 34.286480 365.000000
129.183899 34.881241 365.000000
129.183899 35.476006 365.000000
129.183899 36.070766 365.000000
129.183899 36.665531 365.000000
129.183899 37.260292 365.000000
128.829971 37.751347 364.000000
128.829971 38.344479 364.000000
128.829971 38.937611 364.000000
129.183899 39.639347 365.000000
129.183899 40.234108 365.000000
129.183899 40.828873 365.000000
129.183899 41.423634 365.000000
129.183899 42.018398 365.000000
129.183899 42.613159 365.000000
129.183899 43.207924 365.000000
129.183899 43.802685 365.000000
129.183899 44.397449 365.000000
129.183899 44.992210 365.000000
129.183899 45.586975 365.000000
129.183899 46.181736 365.000000
128.829971 46.648346 364.000000
128.829971 47.241482 364.000000
128.829971 47.834614 364.000000
128.829971 48.427746 364.000000
128.829971 49.020882 364.000000
128.829971 49.614014 364.000000
128.829971 50.207146 364.000000
128.829971 50.800282 364.000000
128.829971 51.393414 364.000000
128.829971 51.986546 364.000000
128.829971 52.579681 364.000000
128.829971 53.172813 364.000000
128.829971 53.765949 364.000000
128.829971 54.359081 364.000000
128.829971 54.952213 364.000000
128.829971 55.545349 364.000000
128.476044 55.984253 363.000000
128.476044 56.575756 363.000000
128.476044 57.167259 363.000000
128.476044 57.758762 363.000000
128.476044 58.350269 363.000000
128.476044 58.941772 363.000000
128.476044 59.533276 363.000000
128.476044 60.124779 363.000000
128.476044 60.716286 363.000000
128.476044 61.307789 363.000000
128.476044 61.899292 363.000000
128.476044 62.490795 363.000000
128.476044 63.082298 363.000000
128.476044 63.673805 363.000000
128.476044 64.265305 363.000000
128.476044 64.856812 363.000000
128.476044 65.448318 363.000000
128.476044 66.039818 363.000000
128.476044 66.631325 363.000000
128.122116 67.037636 362.000000
128.122116 67.627510 362.000000
128.122116 68.217384 362.000000
128.122116 68.807259 362.000000
128.122116 69.397133 362.000000
128.122116 69.987007 362.000000
128.122116 70.576881 362.000000
128.122116 71.166756 362.000000
128.122116 71.756630 362.000000
128.122116 72.346504 362.000000
128.122116 72.936386 362.000000
128.122116 73.526260 362.000000
128.122116 74.116135 362.000000
128.122116 74.706009 362.000000
128.122116 75.295883 362.000000
128.122116 75.885757 362.000000
128.122116 76.475632 362.000000
128.122116 77.065506 362.000000
128.122116 77.655380 362.000000
128.122116 78.245255 362.000000
128.122116 78.835129 362.000000
128.122116 79.425003 362.000000
128.122116 80.014877 362.000000
128.122116 80.604752 362.000000
128.122116 81.194626 362.000000
128.122116 81.784500 362.000000
128.122116 82.374374 362.000000
128.122116 82.964249 362.000000
128.122116 83.554123 362.000000
128.122116 84.143997 362.000000
128.122116 84.733871 362.000000
128.122116 85.323746 362.000000
127.999519 85.831406 361.653595
127.999519 86.420723 361.653595
126.353851 85.891357 357.003876
126.353851 86.473091 357.003876
126.353851 87.054817 357.003876
130.845062 -34.991272 368.000000
130.845062 -34.391621 368.000000
130.845062 -33.791969 368.000000
129.067291 19.311010 363.000000
129.422836 19.957342 364.000000
129.422836 20.550476 364.000000
129.778397 21.201696 365.000000
129.778397 21.796459 365.000000
129.778397 22.391222 365.000000
129.422836 27.074944 364.000000
129.422836 27.668077 364.000000
129.422836 28.261211 364.000000
129.778397 28.933613 365.000000
129.778397 29.528376 365.000000
129.778397 30.123138 365.000000
129.422836 30.633745 364.000000
129.521606 31.250706 364.277771
129.521606 31.844292 364.277771
129.521606 32.437878 364.277771
129.516663 33.030205 364.263885
129.516663 33.623768 364.263885
129.512405 34.216206 364.251892
129.508667 34.808746 364.241394
129.508667 35.402275 364.241394
129.422836 35.971947 364.000000
129.422836 36.565079 364.000000
129.422836 37.158211 364.000000
129.422836 37.751347 364.000000
129.422836 38.344479 364.000000
129.422836 38.937611 364.000000
129.422836 39.530746 364.000000
129.422836 40.123878 364.000000
129.422836 40.717014 364.000000
129.778397 41.423634 365.000000
129.778397 42.018398 365.000000
129.778397 42.613159 365.000000
129.778397 43.207924 365.000000
129.778397 43.802685 365.000000
129.778397 44.397449 365.000000
129.778397 44.992210 365.000000
129.422836 45.462078 364.000000
129.422836 46.055214 364.000000
129.422836 46.648346 364.000000
129.422836 47.241482 364.000000
129.422836 47.834614 364.000000
129.422836 48.427746 364.000000
129.422836 49.020882 364.000000
129.422836 49.614014 364.000000
129.422836 50.207146 364.000000
129.422836 50.800282 364.000000
129.422836 51.393414 364.000000
129.422836 51.986546 364.000000
129.422836 52.579681 364.000000
129.422836 53.172813 364.000000
129.422836 53.765949 364.000000
129.422836 54.359081 364.000000
129.422836 54.952213 364.000000
129.422836 55.545349 364.000000
129.067291 55.984253 363.000000
129.067291 56.575756 363.000000
129.067291 57.167259 363.000000
129.067291 57.758762 363.000000
129.067291 58.350269 363.000000
129.067291 58.941772 363.000000
129.067291 59.533276 363.000000
129.067291 60.124779 363.000000
129.067291 60.716286 363.000000
129.067291 61.307789 363.000000
129.067291 61.899292 363.000000
129.067291 62.490795 363.000000
129.067291 63.082298 363.000000
129.067291 63.673805 363.000000
129.067291 64.265305 363.000000
129.067291 64.856812 363.000000
129.067291 65.448318 363.000000
129.067291 66.039818 363.000000
129.067291 66.631325 363.000000
128.711716 67.037636 362.000000
128.711716 67.627510 362.000000
128.711716 68.217384 362.000000
128.711716 68.807259 362.000000
128.711716 69.397133 362.000000
128.711716 69.987007 362.000000
128.711716 70.576881 362.000000
128.711716 71.166756 362.000000
128.711716 71.756630 362.000000
128.711716 72.346504 362.000000
128.711716 72.936386 362.000000
128.711716 73.526260 362.000000
128.711716 74.116135 362.000000
128.711716 74.706009 362.000000
128.711716 75.295883 362.000000
128.711716 75.885757 362.000000
128.711716 76.475632 362.000000
128.711716 77.065506 362.000000
128.711716 77.655380 362.000000
128.711716 78.245255 362.000000
128.711716 78.835129 362.000000
128.711716 79.425003 362.000000
128.711716 80.014877 362.000000
128.711716 80.604752 362.000000
128.711716 81.194626 362.000000
128.711716 81.784500 362.000000
128.711716 82.374374 362.000000
128.711716 82.964249 362.000000
128.711716 83.554123 362.000000
128.711716 84.143997 362.000000
128.711716 84.733871 362.000000
128.711716 85.323746 362.000000
128.711716 85.913620 362.000000
128.711716 86.503494 362.000000
127.303497 86.140488 358.039368
126.935577 86.473267 357.004608
126.935577 87.055000 357.004608
129.658524 19.311010 363.000000
130.015701 19.957342 364.000000
130.015701 20.550476 364.000000
130.372879 21.201696 365.000000
130.372879 21.796459 365.000000
130.372879 22.391222 365.000000
130.015701 27.074944 364.000000
130.015701 27.668077 364.000000
130.015701 28.261211 364.000000
130.372879 28.933613 365.000000
130.372879 29.528376 365.000000
130.372879 30.123138 365.000000
130.015701 30.633745 364.000000
130.114914 31.250706 364.277771
130.114914 31.844292 364.277771
130.114914 32.437878 364.277771
130.109955 33.030205 364.263885
130.109955 33.623768 364.263885
130.105667 34.216206 364.251892
130.101913 34.808746 364.241394
130.101913 35.402275 364.241394
130.015701 35.971947 364.000000
130.015701 36.565079 364.000000
130.015701 37.158211 364.000000
130.015701 37.751347 364.000000
130.015701 38.344479 364.000000
130.015701 38.937611 364.000000
130.015701 39.530746 364.000000
130.015701 40.123878 364.000000
130.015701 40.717014 364.000000
130.372879 41.423634 365.000000
130.372879 42.018398 365.000000
130.372879 42.613159 365.000000
130.372879 43.207924 365.000000
130.372879 43.802685 365.000000
130.372879 44.397449 365.000000
130.372879 44.992210 365.000000
130.015701 45.462078 364.000000
130.015701 46.055214 364.000000
130.015701 46.648346 364.000000
130.015701 47.241482 364.000000
130.015701 47.834614 364.000000
130.015701 48.427746 364.000000
130.015701 49.020882 364.000000
130.015701 49.614014 364.000000
130.015701 50.207146 364.000000
130.015701 50.800282 364.000000
130.015701 51.393414 364.000000
130.015701 51.986546 364.000000
130.015701 52.579681 364.000000
130.015701 53.172813 364.000000
130.015701 53.765949 364.000000
130.015701 54.359081 364.000000
130.015701 54.952213 364.000000
130.015701 55.545349 364.000000
129.658524 55.984253 363.000000
129.658524 56.575756 363.000000
129.658524 57.167259 363.000000
129.658524 57.758762 363.000000
129.658524 58.350269 363.000000
129.658524 58.941772 363.000000
129.658524 59.533276 363.000000
129.658524 60.124779 363.000000
129.658524 60.716286 363.000000
129.658524 61.307789 363.000000
129.658524 61.899292 363.000000
129.658524 62.490795 363.000000
129.658524 63.082298 363.000000
129.658524 63.673805 363.000000
129.658524 64.265305 363.000000
129.658524 64.856812 363.000000
129.658524 65.448318 363.000000
129.658524 66.039818 363.000000
129.658524 66.631325 363.000000
129.301331 67.037636 362.000000
129.301331 67.627510 362.000000
129.301331 68.217384 362.000000
129.301331 68.807259 362.000000
129.301331 69.397133 362.000000
129.301331 69.987007 362.000000
129.301331 70.576881 362.000000
129.301331 71.166756 362.000000
129.301331 71.756630 362.000000
129.301331 72.346504 362.000000
129.301331 72.936386 362.000000
129.301331 73.526260 362.000000
129.301331 74.116135 362.000000
129.301331 74.706009 362.000000
129.301331 75.295883 362.000000
129.301331 75.885757 362.000000
129.301331 76.475632 362.000000
129.301331 77.065506 362.000000
129.301331 77.655380 362.000000
129.301331 78.245255 362.000000
129.301331 78.835129 362.000000
129.301331 79.425003 362.000000
129.301331 80.014877 362.000000
129.301331 80.604752 362.000000
129.301331 81.194626 362.000000
129.301331 81.784500 362.000000
129.301331 82.374374 362.000000
129.301331 82.964249 362.000000
129.301331 83.554123 362.000000
129.301331 84.143997 362.000000
129.301331 84.733871 362.000000
129.301331 85.323746 362.000000
129.301331 85.913620 362.000000
129.301331 86.503494 362.000000
127.886650 86.140488 358.039368
127.517036 86.473267 357.004608
127.517036 87.055000 357.004608
130.608551 29.447477 364.000000
130.608551 30.040611 364.000000
130.608551 30.633745 364.000000
130.708221 31.250706 364.277771
130.708221 31.844292 364.277771
130.708221 32.437878 364.277771
130.703247 33.030205 364.263885
130.703247 33.623768 364.263885
130.698944 34.216206 364.251892
130.695175 34.808746 364.241394
130.695175 35.402275 364.241394
130.249756 35.873119 363.000000
130.249756 36.464622 363.000000
130.249756 37.056126 363.000000
130.249756 37.647633 363.000000
130.608551 38.344479 364.000000
130.608551 38.937611 364.000000
130.608551 39.530746 364.000000
130.608551 40.123878 364.000000
130.608551 40.717014 364.000000
130.608551 41.310146 364.000000
130.608551 41.903278 364.000000
130.608551 42.496414 364.000000
130.967377 43.207924 365.000000
130.967377 43.802685 365.000000
130.967377 44.397449 365.000000
130.608551 44.868946 364.000000
130.608551 45.462078 364.000000
130.608551 46.055214 364.000000
130.608551 46.648346 364.000000
130.608551 47.241482 364.000000
130.608551 47.834614 364.000000
130.608551 48.427746 364.000000
130.608551 49.020882 364.000000
130.608551 49.614014 364.000000
130.608551 50.207146 364.000000
130.608551 50.800282 364.000000
130.608551 51.393414 364.000000
130.608551 51.986546 364.000000
130.608551 52.579681 364.000000
130.608551 53.172813 364.000000
130.608551 53.765949 364.000000
130.608551 54.359081 364.000000
130.608551 54.952213 364.000000
130.608551 55.545349 364.000000
130.249756 55.984253 363.000000
130.249756 56.575756 363.000000
130.249756 57.167259 363.000000
130.249756 57.758762 363.000000
130.249756 58.350269 363.000000
130.249756 58.941772 363.000000
130.249756 59.533276 363.000000
130.249756 60.124779 363.000000
130.249756 60.716286 363.000000
130.249756 61.307789 363.000000
130.249756 61.899292 363.000000
130.249756 62.490795 363.000000
130.249756 63.082298 363.000000
130.249756 63.673805 363.000000
130.249756 64.265305 363.000000
130.249756 64.856812 363.000000
130.249756 65.448318 363.000000
130.249756 66.039818 363.000000
130.249756 66.631325 363.000000
129.890930 67.037636 362.000000
129.890930 67.627510 362.000000
129.890930 68.217384 362.000000
129.890930 68.807259 362.000000
129.890930 69.397133 362.000000
129.890930 69.987007 362.000000
129.890930 70.576881 362.000000
129.890930 71.166756 362.000000
129.890930 71.756630 362.000000
129.890930 72.346504 362.000000
129.890930 72.936386 362.000000
129.890930 73.526260 362.000000
129.890930 74.116135 362.000000
129.890930 74.706009 362.000000
129.890930 75.295883 362.000000
129.890930 75.885757 362.000000
129.890930 76.475632 362.000000
129.890930 77.065506 362.000000
129.890930 77.655380 362.000000
129.890930 78.245255 362.000000
129.890930 78.835129 362.000000
129.890930 79.425003 362.000000
129.890930 80.014877 362.000000
129.890930 80.604752 362.000000
129.890930 81.194626 362.000000
129.890930 81.784500 362.000000
129.890930 82.374374 362.000000
129.890930 82.964249 362.000000
129.890930 83.554123 362.000000
129.890930 84.143997 362.000000
129.890930 84.733871 362.000000
129.890930 85.323746 362.000000
129.890930 85.913620 362.000000
129.890930 86.503494 362.000000
128.469803 86.140488 358.039368
128.098511 86.473267 357.004608
128.098511 87.055000 357.004608
130.480530 35.774296 362.000000
130.840988 36.464622 363.000000
130.840988 37.056126 363.000000
130.840988 37.647633 363.000000
130.840988 38.239136 363.000000
130.840988 38.830639 363.000000
131.201416 39.530746 364.000000
131.227173 40.131752 364.071442
131.227173 40.725002 364.071442
131.227173 41.318253 364.071442
131.203033 41.903793 364.004456
131.203033 42.496933 364.004456
131.256927 43.107773 364.153992
131.256927 43.701157 364.153992
131.256927 44.294544 364.153992
131.220322 44.875412 364.052460
131.204010 45.462978 364.007202
131.204010 46.056122 364.007202
131.161652 46.634205 363.889679
131.201416 47.241482 364.000000
131.201416 47.834614 364.000000
131.201416 48.427746 364.000000
131.201416 49.020882 364.000000
131.561874 49.750313 365.000000
131.561874 50.345078 365.000000
131.561874 50.939838 365.000000
131.561874 51.534603 365.000000
131.561874 52.129368 365.000000
131.201416 52.579681 364.000000
131.201416 53.172813 364.000000
131.201416 53.765949 364.000000
131.201416 54.359081 364.000000
131.201416 54.952213 364.000000
131.201416 55.545349 364.000000
130.840988 55.984253 363.000000
130.840988 56.575756 363.000000
130.840988 57.167259 363.000000
130.840988 57.758762 363.000000
130.840988 58.350269 363.000000
130.840988 58.941772 363.000000
130.840988 59.533276 363.000000
130.840988 60.124779 363.000000
130.840988 60.716286 363.000000
130.840988 61.307789 363.000000
130.840988 61.899292 363.000000
130.840988 62.490795 363.000000
130.840988 63.082298 363.000000
130.840988 63.673805 363.000000
130.840988 64.265305 363.000000
130.840988 64.856812 363.000000
130.840988 65.448318 363.000000
130.840988 66.039818 363.000000
130.840988 66.631325 363.000000
130.480530 67.037636 362.000000
130.480530 67.627510 362.000000
130.480530 68.217384 362.000000
130.480530 68.807259 362.000000
130.480530 69.397133 362.000000
130.480530 69.987007 362.000000
130.480530 70.576881 362.000000
130.480530 71.166756 362.000000
130.480530 71.756630 362.000000
130.480530 72.346504 362.000000
130.480530 72.936386 362.000000
130.480530 73.526260 362.000000
130.480530 74.116135 362.000000
130.480530 74.706009 362.000000
130.480530 75.295883 362.000000
130.480530 75.885757 362.000000
130.480530 76.475632 362.000000
130.480530 77.065506 362.000000
130.480530 77.655380 362.000000
130.480530 78.245255 362.000000
130.480530 78.835129 362.000000
130.480530 79.425003 362.000000
130.480530 80.014877 362.000000
130.480530 80.604752 362.000000
130.480530 81.194626 362.000000
130.480530 81.784500 362.000000
130.480530 82.374374 362.000000
130.480530 82.964249 362.000000
130.480530 83.554123 362.000000
130.480530 84.143997 362.000000
130.480530 84.733871 362.000000
130.480530 85.323746 362.000000
130.480530 85.913620 362.000000
130.480530 86.503494 362.000000
129.036560 86.129547 357.993896
128.847076 86.585548 357.468170
128.847076 87.168037 357.468170
131.070145 35.774296 362.000000
131.432220 36.464622 363.000000
131.432220 37.056126 363.000000
131.432220 37.647633 363.000000
131.432220 38.239136 363.000000
131.432220 38.830639 363.000000
131.794281 39.530746 364.000000
131.820145 40.131752 364.071442
131.820145 40.725002 364.071442
131.820145 41.318253 364.071442
131.795898 41.903793 364.004456
131.795898 42.496933 364.004456
131.850037 43.107773 364.153992
131.850037 43.701157 364.153992
131.850037 44.294544 364.153992
131.813278 44.875412 364.052460
131.796890 45.462978 364.007202
131.796890 46.056122 364.007202
131.754333 46.634205 363.889679
131.794281 47.241482 364.000000
131.794281 47.834614 364.000000
131.794281 48.427746 364.000000
131.794281 49.020882 364.000000
132.156357 49.750313 365.000000
132.156357 50.345078 365.000000
132.156357 50.939838 365.000000
132.156357 51.534603 365.000000
132.156357 52.129368 365.000000
131.794281 52.579681 364.000000
131.794281 53.172813 364.000000
131.794281 53.765949 364.000000
131.794281 54.359081 364.000000
131.794281 54.952213 364.000000
131.794281 55.545349 364.000000
131.432220 55.984253 363.000000
131.432220 56.575756 363.000000
131.432220 57.167259 363.000000
131.432220 57.758762 363.000000
131.432220 58.350269 363.000000
131.432220 58.941772 363.000000
131.432220 59.533276 363.000000
131.432220 60.124779 363.000000
131.432220 60.716286 363.000000
131.432220 61.307789 363.000000
131.432220 61.899292 363.000000
131.432220 62.490795 363.000000
131.432220 63.082298 363.000000
131.432220 63.673805 363.000000
131.432220 64.265305 363.000000
131.432220 64.856812 363.000000
131.432220 65.448318 363.000000
131.432220 66.039818 363.000000
131.432220 66.631325 363.000000
131.070145 67.037636 362.000000
131.070145 67.627510 362.000000
131.070145 68.217384 362.000000
131.070145 68.807259 362.000000
131.070145 69.397133 362.000000
131.070145 69.987007 362.000000
131.070145 70.576881 362.000000
131.070145 71.166756 362.000000
131.070145 71.756630 362.000000
131.070145 72.346504 362.000000
131.070145 72.936386 362.000000
131.070145 73.526260 362.000000
131.070145 74.116135 362.000000
131.070145 74.706009 362.000000
131.070145 75.295883 362.000000
131.070145 75.885757 362.000000
131.070145 76.475632 362.000000
131.070145 77.065506 362.000000
131.070145 77.655380 362.000000
131.070145 78.245255 362.000000
131.070145 78.835129 362.000000
131.070145 79.425003 362.000000
131.070145 80.014877 362.000000
131.070145 80.604752 362.000000
131.070145 81.194626 362.000000
131.070145 81.784500 362.000000
131.070145 82.374374 362.000000
131.070145 82.964249 362.000000
131.070145 83.554123 362.000000
131.070145 84.143997 362.000000
131.070145 84.733871 362.000000
131.070145 85.323746 362.000000
130.922089 85.816574 361.591095
130.922089 86.405785 361.591095
129.763107 86.224869 358.390106
129.763107 86.808861 358.390106
129.763107 87.392853 358.390106
131.659744 36.364170 362.000000
131.659744 36.954044 362.000000
132.023453 37.647633 363.000000
132.023453 38.239136 363.000000
132.023453 38.830639 363.000000
132.023453 39.422142 363.000000
132.413132 40.131752 364.071442
132.413132 40.725002 364.071442
132.413132 41.318253 364.071442
132.388779 41.903793 364.004456
132.388779 42.496933 364.004456
132.443161 43.107773 364.153992
132.443161 43.701157 364.153992
132.443161 44.294544 364.153992
132.406235 44.875412 364.052460
132.431854 45.477432 364.122925
132.431854 46.070763 364.122925
132.431854 46.664097 364.122925
132.407318 47.248680 364.055481
132.389450 47.835442 364.006317
132.389450 48.428589 364.006317
132.387146 49.020882 364.000000
132.750854 49.750313 365.000000
132.750854 50.345078 365.000000
132.750854 50.939838 365.000000
132.750854 51.534603 365.000000
