24.392052 43.639683 354.027588
24.386311 44.206161 353.944275
24.356533 44.728222 353.512054
24.356533 45.304264 353.512054
24.351231 45.870323 353.435120
24.351231 46.446243 353.435120
24.351231 47.022160 353.435120
24.337450 54.478249 353.235107
24.513697 55.452522 355.793152
24.513697 56.032284 355.793152
24.685450 57.008690 358.285980
24.874468 58.033504 361.029388
25.022903 58.971619 363.183807
25.022903 59.563423 363.183807
25.083570 60.301071 364.064331
25.189884 61.152401 365.607391
25.189884 61.748158 365.607391
25.224251 62.428959 366.106171
25.393881 63.449368 368.568207
25.393881 64.049950 368.568207
25.562691 65.080292 371.018311
27.169077 69.812569 394.333496
27.169077 70.455132 394.333496
27.320787 71.494698 396.535431
30.177645 79.684410 438.000000
30.177645 80.398125 438.000000
30.177645 81.111839 438.000000
30.108746 81.638741 437.000000
30.108746 82.350830 437.000000
28.866505 79.635864 418.970032
29.059713 80.856163 421.774323
29.059713 81.543434 421.774323
29.191181 82.602722 423.682404
29.309519 83.630768 425.399994
29.399937 84.584084 426.712311
29.399937 85.279411 426.712311
29.513687 86.307373 428.363281
29.513687 87.005386 428.363281
29.513687 87.703392 428.363281
29.488655 88.326439 428.000000
29.419758 88.815865 427.000000
29.419758 89.511658 427.000000
29.350859 89.996185 426.000000
29.350859 90.690346 426.000000
29.350859 91.384506 426.000000
29.281961 91.862518 425.000000
29.281961 92.555054 425.000000
29.281961 93.247589 425.000000
29.213060 93.719078 424.000000
29.302349 94.698540 425.295929
29.302349 95.391556 425.295929
29.302349 96.084572 425.295929
29.228085 96.532310 424.218048
29.228085 97.223564 424.218048
29.179697 97.752731 423.515747
25.780375 110.753624 374.177765
25.780375 111.363342 374.177765
25.780375 111.973061 374.177765
24.183455 108.468788 351.000000
24.183455 109.040733 351.000000
24.252354 109.924973 352.000000
24.658222 112.347778 357.890808
24.658222 112.930962 357.890808
24.658222 113.514137 357.890808
24.708014 114.327713 358.613495
24.708014 114.912056 358.613495
24.708014 115.496422 358.613495
24.614775 115.642731 357.260223
24.614775 116.224876 357.260223
24.045658 114.106339 349.000000
23.976759 114.346451 348.000000
23.976759 114.913513 348.000000
23.976759 115.480576 348.000000
23.907860 115.714165 347.000000
23.907860 116.279594 347.000000
23.907860 116.845024 347.000000
23.838961 117.072098 346.000000
23.838961 117.635902 346.000000
23.838961 118.199699 346.000000
23.838961 118.763504 346.000000
23.838961 119.327309 346.000000
23.701164 119.198097 344.000000
23.701164 119.758636 344.000000
23.701164 120.319183 344.000000
23.701164 120.879723 344.000000
23.632263 121.087242 343.000000
23.632263 121.646156 343.000000
23.632263 122.205070 343.000000
23.632263 122.763985 343.000000
23.563366 122.963371 342.000000
23.563366 123.520653 342.000000
23.563366 124.077942 342.000000
23.494467 124.270790 341.000000
23.494467 124.826447 341.000000
23.494467 125.382103 341.000000
23.494467 125.937759 341.000000
23.494467 126.493408 341.000000
23.425568 126.676491 340.000000
23.425568 127.230515 340.000000
23.425568 127.784538 340.000000
23.425568 128.338562 340.000000
23.425568 128.892593 340.000000
23.425568 129.446609 340.000000
23.425568 130.000641 340.000000
23.356668 130.170685 339.000000
23.356668 130.723083 339.000000
23.356668 131.275467 339.000000
23.356668 131.827866 339.000000
23.356668 132.380264 339.000000
23.356668 132.932663 339.000000
23.287771 133.091293 338.000000
23.287771 133.642059 338.000000
23.287771 134.192825 338.000000
23.287771 134.743591 338.000000
23.287771 135.294357 338.000000
23.218872 135.443222 337.000000
23.218872 135.992355 337.000000
23.218872 136.541489 337.000000
23.218872 137.090637 337.000000
23.218872 137.639771 337.000000
23.218872 138.188904 337.000000
23.218872 138.738037 337.000000
23.149973 138.873856 336.000000
23.149973 139.421371 336.000000
23.149973 139.968872 336.000000
23.149973 140.516388 336.000000
23.149973 141.063889 336.000000
23.149973 141.611404 336.000000
23.149973 142.158905 336.000000
23.081076 142.281708 335.000000
23.081076 142.827591 335.000000
23.081076 143.373459 335.000000
23.081076 143.919342 335.000000
23.081076 144.465225 335.000000
23.081076 145.011093 335.000000
23.012177 145.122482 334.000000
23.012177 145.666718 334.000000
23.012177 146.210968 334.000000
23.012177 146.755219 334.000000
23.012177 147.299469 334.000000
22.943277 147.401077 333.000000
22.943277 147.943695 333.000000
22.943277 148.486313 333.000000
22.943277 149.028931 333.000000
22.943277 149.571548 333.000000
22.943277 150.114166 333.000000
22.943277 150.656784 333.000000
22.943277 151.199402 333.000000
22.943277 151.742020 333.000000
22.943277 152.284637 333.000000
22.943277 152.827271 333.000000
22.943277 153.369888 333.000000
22.943277 153.912506 333.000000
22.943277 154.455124 333.000000
22.943277 154.997742 333.000000
22.943277 155.540359 333.000000
22.966961 156.244095 333.343750
22.966961 156.787277 333.343750
22.966961 157.330460 333.343750
22.964872 157.859283 333.313446
22.958796 158.360489 333.225220
22.958796 158.903473 333.225220
22.954857 159.419113 333.168060
22.949116 159.921997 333.084747
22.949116 160.464767 333.084747
22.943277 160.966553 333.000000
22.943277 161.509171 333.000000
22.943277 162.051788 333.000000
22.943277 162.594406 333.000000
22.943277 163.137024 333.000000
22.943277 163.679657 333.000000
22.943277 164.222275 333.000000
22.874378 164.270096 332.000000
22.874378 164.811081 332.000000
22.874378 165.352081 332.000000
22.874378 165.893066 332.000000
22.874378 166.434052 332.000000
22.874378 166.975052 332.000000
22.874378 167.516037 332.000000
22.874378 168.057022 332.000000
22.874378 168.598022 332.000000
22.805481 168.629547 331.000000
22.805481 169.168915 331.000000
22.805481 169.708267 331.000000
22.805481 170.247635 331.000000
22.736582 170.271011 330.000000
22.736582 170.808746 330.000000
22.736582 171.346481 330.000000
22.736582 171.884201 330.000000
22.736582 172.421936 330.000000
22.667683 172.435547 329.000000
22.667683 172.971649 329.000000
22.667683 173.507751 329.000000
22.667683 174.043854 329.000000
22.667683 174.579956 329.000000
22.667683 175.116058 329.000000
22.667683 175.652161 329.000000
22.598783 175.652740 328.000000
22.598783 176.187210 328.000000
22.598783 176.721680 328.000000
22.598783 177.256149 328.000000
22.598783 177.790634 328.000000
22.529884 177.781418 327.000000
22.529884 178.314270 327.000000
22.529884 178.847107 327.000000
22.529884 179.379944 327.000000
22.460985 179.362595 326.000000
22.460985 179.893814 326.000000
22.460985 180.425018 326.000000
22.460985 180.956238 326.000000
22.460985 181.487457 326.000000
22.460985 182.018661 326.000000
22.460985 182.549881 326.000000
22.460985 183.081085 326.000000
22.460985 183.612305 326.000000
22.460985 184.143509 326.000000
22.460985 184.674728 326.000000
22.460985 185.205948 326.000000
22.460985 185.737152 326.000000
22.392086 185.696991 325.000000
22.392086 186.226578 325.000000
22.392086 186.756165 325.000000
22.392086 187.285736 325.000000
22.392086 187.815323 325.000000
22.323189 187.765381 324.000000
22.323189 188.293335 324.000000
22.323189 188.821289 324.000000
22.254290 188.764832 323.000000
22.254290 189.291153 323.000000
22.254290 189.817474 323.000000
22.259506 190.388428 323.075714
22.259506 190.914871 323.075714
22.259506 191.441330 323.075714
22.254290 191.922775 323.000000
22.254290 192.449097 323.000000
22.254290 192.975433 323.000000
22.254290 193.501755 323.000000
22.254290 194.028076 323.000000
22.185390 193.952057 322.000000
22.185390 194.476761 322.000000
22.185390 195.001450 322.000000
22.185390 195.526154 322.000000
22.185390 196.050842 322.000000
22.185390 196.575531 322.000000
22.185390 197.100235 322.000000
22.185390 197.624924 322.000000
22.116493 197.534256 321.000000
22.116493 198.057327 321.000000
22.116493 198.580399 321.000000
22.047594 198.483200 320.000000
22.047594 199.004639 320.000000
22.047594 199.526062 320.000000
22.047594 200.047501 320.000000
22.047594 200.568939 320.000000
22.047594 201.090378 320.000000
21.703100 207.187515 315.000000
21.703100 207.700806 315.000000
21.771999 208.875092 316.000000
21.771999 209.390015 316.000000
21.771999 209.904938 316.000000
21.771999 210.419846 316.000000
21.771999 210.934769 316.000000
21.771999 211.449692 316.000000
21.771999 211.964600 316.000000
21.634201 211.134720 314.000000
21.634201 211.646393 314.000000
21.634201 212.158051 314.000000
25.084269 35.727966 355.666656
25.084269 36.307518 355.666656
25.084269 36.887070 355.666656
25.041954 37.403423 355.066650
25.041954 37.981998 355.066650
25.041954 38.560574 355.066650
25.008961 39.087585 354.598846
25.008961 39.665398 354.598846
25.017456 40.256882 354.719299
25.023252 40.844353 354.801483
25.037252 41.445675 355.000000
25.037252 42.024143 355.000000
25.037252 42.602612 355.000000
25.037252 43.181080 355.000000
25.037252 43.759548 355.000000
25.037252 44.338017 355.000000
24.994957 44.840607 354.400299
24.994957 45.418095 354.400299
24.988070 45.982914 354.302643
24.988377 46.560814 354.306976
24.988377 47.138153 354.306976
25.107780 47.943497 356.000000
25.178307 48.659897 357.000000
25.178307 49.241623 357.000000
25.178307 49.823353 357.000000
25.178307 50.405079 357.000000
25.178307 50.986805 357.000000
25.107780 51.424080 356.000000
25.269005 57.008690 358.285980
25.462490 58.033504 361.029388
25.614435 58.971619 363.183807
25.614435 59.563423 363.183807
25.676537 60.301071 364.064331
25.785364 61.152401 365.607391
25.785364 61.748158 365.607391
25.820543 62.428959 366.106171
25.994184 63.449368 368.568207
25.994184 64.049950 368.568207
26.166983 65.080292 371.018311
27.317472 68.572845 387.330963
27.317472 69.203995 387.330963
27.317472 69.835152 387.330963
30.891033 79.684410 438.000000
30.891033 80.398125 438.000000
30.891033 81.111839 438.000000
30.820505 81.638741 437.000000
30.820505 82.350830 437.000000
27.439600 73.951195 389.062592
27.351488 74.345665 387.813263
27.351488 74.977600 387.813263
28.969851 80.083282 410.759796
28.969851 80.752609 410.759796
29.030416 81.592163 411.618561
29.030416 82.262894 411.618561
29.030416 82.933617 411.618561
27.236866 78.439117 386.188019
27.236866 79.068405 386.188019
27.254419 79.749062 386.436951
27.254419 80.378761 386.436951
27.254419 81.008453 386.436951
27.241949 81.600792 386.260132
29.974176 90.477455 425.000000
29.974176 91.169991 425.000000
29.974176 91.862518 425.000000
29.903646 92.337273 424.000000
29.903646 93.028175 424.000000
29.903646 93.719078 424.000000
29.716978 93.820641 421.353210
29.716978 94.507233 421.353210
29.716978 95.193817 421.353210
29.705145 95.842232 421.185455
29.705145 96.528549 421.185455
29.695267 97.182533 421.045380
26.389812 110.753624 374.177765
26.389812 111.363342 374.177765
26.389812 111.973061 374.177765
25.145803 109.599564 356.539124
25.145803 110.180534 356.539124
25.145803 110.761513 356.539124
24.825670 109.924973 352.000000
25.241135 112.347778 357.890808
25.241135 112.930962 357.890808
25.241135 113.514137 357.890808
24.755142 111.900490 351.000000
24.755142 112.472435 351.000000
24.684616 112.722321 350.000000
24.684616 113.292641 350.000000
24.684616 113.862961 350.000000
24.614088 114.106339 349.000000
24.543560 114.346451 348.000000
24.543560 114.913513 348.000000
24.543560 115.480576 348.000000
24.473034 115.714165 347.000000
24.473034 116.279594 347.000000
24.402506 116.508293 346.000000
24.402506 117.072098 346.000000
24.402506 117.635902 346.000000
24.331978 117.858086 345.000000
24.331978 118.420258 345.000000
24.331978 118.982430 345.000000
24.261452 119.198097 344.000000
24.261452 119.758636 344.000000
24.261452 120.319183 344.000000
24.190922 120.528328 343.000000
24.190922 121.087242 343.000000
24.190922 121.646156 343.000000
24.190922 122.205070 343.000000
24.120396 122.406082 342.000000
24.120396 122.963371 342.000000
24.120396 123.520653 342.000000
24.049868 123.715134 341.000000
24.049868 124.270790 341.000000
24.049868 124.826447 341.000000
24.049868 125.382103 341.000000
23.979340 125.568436 340.000000
23.979340 126.122459 340.000000
23.979340 126.676491 340.000000
23.979340 127.230515 340.000000
23.979340 127.784538 340.000000
23.979340 128.338562 340.000000
23.979340 128.892593 340.000000
23.979340 129.446609 340.000000
23.908813 129.618286 339.000000
23.908813 130.170685 339.000000
23.908813 130.723083 339.000000
23.908813 131.275467 339.000000
23.838285 131.438995 338.000000
23.838285 131.989761 338.000000
23.838285 132.540527 338.000000
23.838285 133.091293 338.000000
23.838285 133.642059 338.000000
23.767757 133.795807 337.000000
23.767757 134.344940 337.000000
23.767757 134.894073 337.000000
23.767757 135.443222 337.000000
23.767757 135.992355 337.000000
23.767757 136.541489 337.000000
23.767757 137.090637 337.000000
23.767757 137.639771 337.000000
23.697231 137.778839 336.000000
23.697231 138.326355 336.000000
23.697231 138.873856 336.000000
23.697231 139.421371 336.000000
23.697231 139.968872 336.000000
23.697231 140.516388 336.000000
23.697231 141.063889 336.000000
23.697231 141.611404 336.000000
23.697231 142.158905 336.000000
23.626703 142.281708 335.000000
23.626703 142.827591 335.000000
23.626703 143.373459 335.000000
23.626703 143.919342 335.000000
23.626703 144.465225 335.000000
23.626703 145.011093 335.000000
23.556175 145.122482 334.000000
23.556175 145.666718 334.000000
23.556175 146.210968 334.000000
23.556175 146.755219 334.000000
23.556175 147.299469 334.000000
23.485649 147.401077 333.000000
23.485649 147.943695 333.000000
23.485649 148.486313 333.000000
23.485649 149.028931 333.000000
23.485649 149.571548 333.000000
23.485649 150.114166 333.000000
23.485649 150.656784 333.000000
23.485649 151.199402 333.000000
23.485649 151.742020 333.000000
23.485649 152.284637 333.000000
23.485649 152.827271 333.000000
23.485649 153.369888 333.000000
23.485649 153.912506 333.000000
23.485649 154.455124 333.000000
23.485649 154.997742 333.000000
23.485649 155.540359 333.000000
23.509892 156.244095 333.343750
23.509892 156.787277 333.343750
23.509892 157.330460 333.343750
23.507753 157.859283 333.313446
23.501532 158.360489 333.225220
23.501532 158.903473 333.225220
23.497501 159.419113 333.168060
23.491627 159.921997 333.084747
23.491627 160.464767 333.084747
23.485649 160.966553 333.000000
23.485649 161.509171 333.000000
23.485649 162.051788 333.000000
23.485649 162.594406 333.000000
23.485649 163.137024 333.000000
23.485649 163.679657 333.000000
23.485649 164.222275 333.000000
23.415121 164.270096 332.000000
23.415121 164.811081 332.000000
23.415121 165.352081 332.000000
23.415121 165.893066 332.000000
23.415121 166.434052 332.000000
23.415121 166.975052 332.000000
23.415121 167.516037 332.000000
23.415121 168.057022 332.000000
23.415121 168.598022 332.000000
23.344593 168.629547 331.000000
23.344593 169.168915 331.000000
23.344593 169.708267 331.000000
23.344593 170.247635 331.000000
23.274067 170.271011 330.000000
23.274067 170.808746 330.000000
23.274067 171.346481 330.000000
23.274067 171.884201 330.000000
23.274067 172.421936 330.000000
23.203539 172.435547 329.000000
23.203539 172.971649 329.000000
23.203539 173.507751 329.000000
23.203539 174.043854 329.000000
23.203539 174.579956 329.000000
23.203539 175.116058 329.000000
23.203539 175.652161 329.000000
23.133011 175.652740 328.000000
23.133011 176.187210 328.000000
23.133011 176.721680 328.000000
23.133011 177.256149 328.000000
23.133011 177.790634 328.000000
23.062483 177.781418 327.000000
22.991955 177.768967 326.000000
22.991955 178.300171 326.000000
22.991955 178.831390 326.000000
22.991955 179.362595 326.000000
22.991955 179.893814 326.000000
22.991955 180.425018 326.000000
22.991955 180.956238 326.000000
22.991955 181.487457 326.000000
22.991955 182.018661 326.000000
22.991955 182.549881 326.000000
22.991955 183.081085 326.000000
22.991955 183.612305 326.000000
22.921429 183.578659 325.000000
22.921429 184.108246 325.000000
22.921429 184.637817 325.000000
22.921429 185.167404 325.000000
22.850901 185.125610 324.000000
22.850901 185.653564 324.000000
22.850901 186.181519 324.000000
22.850901 186.709473 324.000000
22.850901 187.237427 324.000000
22.780373 187.185852 323.000000
22.780373 187.712189 323.000000
22.780373 188.238510 323.000000
22.780373 188.764832 323.000000
22.780373 189.291153 323.000000
22.780373 189.817474 323.000000
22.785713 190.388428 323.075714
22.785713 190.914871 323.075714
22.785713 191.441330 323.075714
22.709846 191.328583 322.000000
22.709846 191.853287 322.000000
22.709846 192.377975 322.000000
22.709846 192.902679 322.000000
22.709846 193.427368 322.000000
22.709846 193.952057 322.000000
22.709846 194.476761 322.000000
22.709846 195.001450 322.000000
22.709846 195.526154 322.000000
22.709846 196.050842 322.000000
22.639318 195.965057 321.000000
22.639318 196.488129 321.000000
22.639318 197.011200 321.000000
22.568790 196.918884 320.000000
22.568790 197.440323 320.000000
22.568790 197.961761 320.000000
22.568790 198.483200 320.000000
22.568790 199.004639 320.000000
22.568790 199.526062 320.000000
22.498264 199.422348 319.000000
22.498264 199.942154 319.000000
22.498264 200.461960 319.000000
22.216154 207.187515 315.000000
22.216154 207.700806 315.000000
22.286682 208.875092 316.000000
22.286682 209.390015 316.000000
22.286682 209.904938 316.000000
22.286682 210.419846 316.000000
22.216154 210.267258 315.000000
22.216154 210.780548 315.000000
22.216154 211.293823 315.000000
22.145626 211.134720 314.000000
22.145626 211.646393 314.000000
22.145626 212.158051 314.000000
25.663559 35.727966 355.666656
25.663559 36.307518 355.666656
25.663559 36.887070 355.666656
25.640842 37.433460 355.351837
25.640842 38.012505 355.351837
25.620266 38.560574 355.066650
25.597525 39.104412 354.751495
25.597525 39.682472 354.751495
25.615456 40.288742 355.000000
25.615456 40.867210 355.000000
25.615456 41.445675 355.000000
25.615456 42.024143 355.000000
25.615456 42.602612 355.000000
25.615456 43.181080 355.000000
25.615456 43.759548 355.000000
25.615456 44.338017 355.000000
25.615456 44.916485 355.000000
25.615456 45.494953 355.000000
25.615456 46.073421 355.000000
25.615456 46.651890 355.000000
25.615456 47.230358 355.000000
25.687613 47.943497 356.000000
25.759768 48.659897 357.000000
25.759768 49.241623 357.000000
25.759768 49.823353 357.000000
25.759768 50.405079 357.000000
25.759768 50.986805 357.000000
25.687613 51.424080 356.000000
25.543299 51.712021 354.000000
25.543299 52.288860 354.000000
26.205969 58.971619 363.183807
26.205969 59.563423 363.183807
26.269503 60.301071 364.064331
26.380844 61.152401 365.607391
26.380844 61.748158 365.607391
26.416834 62.428959 366.106171
26.594486 63.449368 368.568207
26.594486 64.049950 368.568207
27.044249 65.743881 374.801392
27.948338 68.572845 387.330963
27.948338 69.203995 387.330963
27.948338 69.835152 387.330963
31.604424 79.684410 438.000000
31.604424 80.398125 438.000000
31.604424 81.111839 438.000000
31.532265 81.638741 437.000000
31.532265 82.350830 437.000000
28.073282 73.951195 389.062592
27.367516 72.710075 379.281464
27.367516 73.328117 379.281464
27.466181 74.212746 380.648865
27.571114 75.118896 382.103119
27.571114 75.741531 382.103119
27.668776 76.634666 383.456604
27.758528 77.510109 384.700439
27.758528 78.136971 384.700439
27.758528 78.763840 384.700439
27.739550 79.336426 384.437408
27.722849 79.914711 384.205963
27.722849 80.540771 384.205963
27.685719 81.058128 383.691406
30.666391 90.477455 425.000000
30.666391 91.169991 425.000000
30.666391 91.862518 425.000000
30.594234 92.337273 424.000000
30.594234 93.028175 424.000000
30.594234 93.719078 424.000000
29.234913 90.215279 405.161377
29.234913 90.875488 405.161377
29.274893 91.660881 405.715485
29.274893 92.321983 405.715485
29.274893 92.983093 405.715485
25.726513 109.599564 356.539124
25.726513 110.180534 356.539124
25.726513 110.761513 356.539124
25.326832 109.612686 351.000000
25.326832 110.184639 351.000000
25.326832 110.756584 351.000000
25.326832 111.328537 351.000000
25.254675 111.581680 350.000000
25.254675 112.152000 350.000000
25.254675 112.722321 350.000000
25.182518 112.968956 349.000000
25.182518 113.537651 349.000000
25.110363 113.779388 348.000000
25.038206 114.017868 347.000000
25.038206 114.583298 347.000000
25.038206 115.148727 347.000000
25.038206 115.714165 347.000000
25.038206 116.279594 347.000000
24.966051 116.508293 346.000000
24.966051 117.072098 346.000000
24.966051 117.635902 346.000000
24.893894 117.858086 345.000000
24.893894 118.420258 345.000000
24.893894 118.982430 345.000000
24.821739 119.198097 344.000000
24.821739 119.758636 344.000000
24.821739 120.319183 344.000000
24.749580 120.528328 343.000000
24.749580 121.087242 343.000000
24.749580 121.646156 343.000000
24.749580 122.205070 343.000000
24.677425 122.406082 342.000000
24.677425 122.963371 342.000000
24.677425 123.520653 342.000000
24.605268 123.715134 341.000000
24.605268 124.270790 341.000000
24.605268 124.826447 341.000000
24.605268 125.382103 341.000000
24.533112 125.568436 340.000000
24.533112 126.122459 340.000000
24.533112 126.676491 340.000000
24.533112 127.230515 340.000000
24.533112 127.784538 340.000000
24.460957 127.961098 339.000000
24.460957 128.513489 339.000000
24.460957 129.065887 339.000000
24.460957 129.618286 339.000000
24.460957 130.170685 339.000000
24.460957 130.723083 339.000000
24.388800 130.888229 338.000000
24.388800 131.438995 338.000000
24.388800 131.989761 338.000000
24.388800 132.540527 338.000000
24.316645 132.697525 337.000000
24.316645 133.246674 337.000000
24.316645 133.795807 337.000000
24.316645 134.344940 337.000000
24.316645 134.894073 337.000000
24.316645 135.443222 337.000000
24.316645 135.992355 337.000000
24.316645 136.541489 337.000000
24.316645 137.090637 337.000000
24.316645 137.639771 337.000000
24.244488 137.778839 336.000000
24.244488 138.326355 336.000000
24.244488 138.873856 336.000000
24.244488 139.421371 336.000000
24.244488 139.968872 336.000000
24.244488 140.516388 336.000000
24.244488 141.063889 336.000000
24.244488 141.611404 336.000000
24.172331 141.735825 335.000000
24.172331 142.281708 335.000000
24.172331 142.827591 335.000000
24.172331 143.373459 335.000000
24.172331 143.919342 335.000000
24.172331 144.465225 335.000000
24.172331 145.011093 335.000000
24.100176 145.122482 334.000000
24.100176 145.666718 334.000000
24.100176 146.210968 334.000000
24.100176 146.755219 334.000000
24.100176 147.299469 334.000000
24.028019 147.401077 333.000000
24.028019 147.943695 333.000000
24.028019 148.486313 333.000000
24.028019 149.028931 333.000000
24.028019 149.571548 333.000000
24.028019 150.114166 333.000000
24.028019 150.656784 333.000000
24.028019 151.199402 333.000000
24.028019 151.742020 333.000000
24.028019 152.284637 333.000000
24.028019 152.827271 333.000000
24.028019 153.369888 333.000000
24.028019 153.912506 333.000000
24.028019 154.455124 333.000000
24.038954 155.068268 333.151520
24.038954 155.611130 333.151520
24.052822 156.244095 333.343750
24.052822 156.787277 333.343750
24.052822 157.330460 333.343750
24.050636 157.859283 333.313446
24.044270 158.360489 333.225220
24.044270 158.903473 333.225220
24.040146 159.419113 333.168060
24.034134 159.921997 333.084747
24.034134 160.464767 333.084747
24.028019 160.966553 333.000000
24.028019 161.509171 333.000000
24.028019 162.051788 333.000000
24.028019 162.594406 333.000000
24.028019 163.137024 333.000000
24.028019 163.679657 333.000000
23.955864 163.729111 332.000000
23.955864 164.270096 332.000000
23.955864 164.811081 332.000000
23.955864 165.352081 332.000000
23.955864 165.893066 332.000000
23.883707 165.932755 331.000000
23.883707 166.472107 331.000000
23.883707 167.011475 331.000000
23.883707 167.550827 331.000000
23.883707 168.090195 331.000000
23.883707 168.629547 331.000000
23.811552 168.657822 330.000000
23.811552 169.195557 330.000000
23.811552 169.733292 330.000000
23.811552 170.271011 330.000000
23.811552 170.808746 330.000000
23.811552 171.346481 330.000000
23.739395 171.363342 329.000000
23.739395 171.899445 329.000000
23.739395 172.435547 329.000000
23.739395 172.971649 329.000000
23.739395 173.507751 329.000000
23.739395 174.043854 329.000000
23.739395 174.579956 329.000000
23.739395 175.116058 329.000000
23.667238 175.118271 328.000000
23.667238 175.652740 328.000000
23.667238 176.187210 328.000000
23.667238 176.721680 328.000000
23.595081 176.715744 327.000000
23.595081 177.248581 327.000000
23.595081 177.781418 327.000000
23.522924 177.768967 326.000000
23.522924 178.300171 326.000000
23.522924 178.831390 326.000000
23.522924 179.362595 326.000000
23.522924 179.893814 326.000000
23.522924 180.425018 326.000000
23.522924 180.956238 326.000000
23.522924 181.487457 326.000000
23.522924 182.018661 326.000000
23.522924 182.549881 326.000000
23.522924 183.081085 326.000000
23.522924 183.612305 326.000000
23.450769 183.578659 325.000000
23.450769 184.108246 325.000000
23.450769 184.637817 325.000000
23.450769 185.167404 325.000000
23.378613 185.125610 324.000000
23.378613 185.653564 324.000000
23.378613 186.181519 324.000000
23.378613 186.709473 324.000000
23.378613 187.237427 324.000000
23.306458 187.185852 323.000000
23.306458 187.712189 323.000000
23.306458 188.238510 323.000000
23.306458 188.764832 323.000000
23.306458 189.291153 323.000000
23.306458 189.817474 323.000000
23.311920 190.388428 323.075714
23.311920 190.914871 323.075714
23.311920 191.441330 323.075714
23.234301 191.328583 322.000000
23.234301 191.853287 322.000000
23.234301 192.377975 322.000000
23.234301 192.902679 322.000000
23.234301 193.427368 322.000000
23.234301 193.952057 322.000000
23.234301 194.476761 322.000000
23.234301 195.001450 322.000000
23.234301 195.526154 322.000000
23.234301 196.050842 322.000000
23.089989 195.354584 320.000000
23.089989 195.876022 320.000000
23.089989 196.397446 320.000000
23.089989 196.918884 320.000000
23.089989 197.440323 320.000000
23.089989 197.961761 320.000000
23.017832 197.862930 319.000000
23.017832 198.382736 319.000000
23.017832 198.902542 319.000000
23.017832 199.422348 319.000000
22.945677 199.315384 318.000000
22.945677 199.833557 318.000000
22.801363 199.091660 316.000000
22.801363 199.606567 316.000000
22.801363 200.121490 316.000000
22.801363 200.636414 316.000000
22.801363 201.151321 316.000000
22.801363 201.666245 316.000000
22.729208 201.541351 315.000000
22.729208 202.054642 315.000000
22.729208 202.567932 315.000000
22.729208 207.187515 315.000000
22.729208 207.700806 315.000000
22.729208 208.214096 315.000000
22.657051 208.064774 314.000000
22.657051 208.576431 314.000000
22.657051 209.088089 314.000000
22.657051 209.599747 314.000000
22.657051 210.111404 314.000000
22.657051 210.623062 314.000000
22.657051 211.134720 314.000000
22.657051 211.646393 314.000000
22.657051 212.158051 314.000000
22.657051 212.669708 314.000000
22.657051 213.181366 314.000000
26.242849 35.727966 355.666656
26.242849 36.307518 355.666656
26.242849 36.887070 355.666656
26.219620 37.433460 355.351837
26.219620 38.012505 355.351837
26.198576 38.560574 355.066650
26.175323 39.104412 354.751495
26.175323 39.682472 354.751495
26.193659 40.288742 355.000000
26.193659 40.867210 355.000000
26.193659 41.445675 355.000000
26.193659 42.024143 355.000000
26.193659 42.602612 355.000000
26.193659 43.181080 355.000000
26.193659 43.759548 355.000000
26.193659 44.338017 355.000000
26.193659 44.916485 355.000000
26.193659 45.494953 355.000000
26.193659 46.073421 355.000000
26.193659 46.651890 355.000000
26.193659 47.230358 355.000000
26.267445 47.943497 356.000000
26.341228 48.659897 357.000000
26.341228 49.241623 357.000000
26.341228 49.823353 357.000000
26.341228 50.405079 357.000000
26.341228 50.986805 357.000000
26.267445 51.424080 356.000000
26.119873 51.712021 354.000000
26.119873 52.288860 354.000000
26.119873 52.865696 354.000000
26.080709 53.362404 353.469208
26.080709 53.938381 353.469208
27.654705 65.743881 374.801392
29.457394 70.679993 399.233093
29.457394 71.330544 399.233093
29.471191 72.014793 399.420044
29.758924 73.375092 403.319672
29.758924 74.032295 403.319672
29.763216 74.700272 403.377838
29.763216 75.357574 403.377838
29.763216 76.014870 403.377838
29.409510 75.760994 398.584076
29.252491 76.002525 396.456024
29.252491 76.648544 396.456024
29.459911 77.842636 399.267181
29.459911 78.493240 399.267181
29.459911 79.143837 399.267181
29.275536 79.295052 396.768372
29.437618 80.384171 398.965057
29.437618 81.034279 398.965057
29.437618 81.684387 398.965057
29.435642 82.328964 398.938263
29.432085 82.969009 398.890076
29.432085 83.618988 398.890076
29.399406 84.175407 398.447144
29.363024 84.719704 397.954071
29.363024 85.368164 397.954071
29.368961 86.034019 398.034546
29.706474 87.678780 402.608826
29.706474 88.334831 402.608826
29.746311 89.110214 403.148743
29.802719 89.937363 403.913239
29.802719 90.595535 403.913239
29.802719 91.253708 403.913239
26.230347 105.224327 355.497223
26.230347 105.803604 355.497223
26.230347 106.382889 355.497223
26.101971 106.438675 353.757355
26.103373 107.597328 353.776337
26.103373 108.173813 353.776337
26.307224 109.599564 356.539124
26.307224 110.180534 356.539124
26.307224 110.761513 356.539124
25.898520 109.612686 351.000000
25.898520 110.184639 351.000000
25.898520 110.756584 351.000000
25.824734 111.011360 350.000000
25.824734 111.581680 350.000000
25.824734 112.152000 350.000000
25.750950 112.400269 349.000000
25.677164 112.645264 348.000000
25.677164 113.212326 348.000000
25.603380 113.452431 347.000000
25.603380 114.017868 347.000000
25.603380 114.583298 347.000000
25.529594 114.816887 346.000000
25.529594 115.380692 346.000000
25.529594 115.944496 346.000000
25.529594 116.508293 346.000000
25.455811 116.733734 345.000000
25.455811 117.295914 345.000000
25.455811 117.858086 345.000000
25.382025 118.077011 344.000000
25.382025 118.637550 344.000000
25.308239 118.851585 343.000000
25.308239 119.410500 343.000000
25.308239 119.969414 343.000000
25.308239 120.528328 343.000000
25.308239 121.087242 343.000000
25.308239 121.646156 343.000000
25.234453 121.848801 342.000000
25.234453 122.406082 342.000000
25.160669 122.603828 341.000000
25.160669 123.159477 341.000000
25.160669 123.715134 341.000000
25.160669 124.270790 341.000000
25.160669 124.826447 341.000000
25.086884 125.014412 340.000000
25.086884 125.568436 340.000000
25.086884 126.122459 340.000000
25.086884 126.676491 340.000000
25.086884 127.230515 340.000000
25.086884 127.784538 340.000000
25.013100 127.961098 339.000000
25.013100 128.513489 339.000000
25.013100 129.065887 339.000000
25.013100 129.618286 339.000000
25.013100 130.170685 339.000000
25.013100 130.723083 339.000000
24.939314 130.888229 338.000000
24.939314 131.438995 338.000000
24.939314 131.989761 338.000000
24.939314 132.540527 338.000000
24.865530 132.697525 337.000000
24.865530 133.246674 337.000000
24.865530 133.795807 337.000000
24.865530 134.344940 337.000000
24.865530 134.894073 337.000000
24.865530 135.443222 337.000000
24.865530 135.992355 337.000000
24.865530 136.541489 337.000000
24.865530 137.090637 337.000000
24.865530 137.639771 337.000000
24.791744 137.778839 336.000000
24.791744 138.326355 336.000000
24.791744 138.873856 336.000000
24.791744 139.421371 336.000000
24.791744 139.968872 336.000000
24.791744 140.516388 336.000000
24.791744 141.063889 336.000000
24.791744 141.611404 336.000000
24.717960 141.735825 335.000000
24.717960 142.281708 335.000000
24.717960 142.827591 335.000000
24.717960 143.373459 335.000000
24.717960 143.919342 335.000000
24.717960 144.465225 335.000000
24.717960 145.011093 335.000000
24.644175 145.122482 334.000000
24.644175 145.666718 334.000000
24.644175 146.210968 334.000000
24.644175 146.755219 334.000000
24.644175 147.299469 334.000000
24.570391 147.401077 333.000000
24.570391 147.943695 333.000000
24.570391 148.486313 333.000000
24.570391 149.028931 333.000000
24.570391 149.571548 333.000000
24.570391 150.114166 333.000000
24.570391 150.656784 333.000000
24.570391 151.199402 333.000000
24.570391 151.742020 333.000000
24.570391 152.284637 333.000000
24.570391 152.827271 333.000000
24.570391 153.369888 333.000000
24.570391 153.912506 333.000000
24.570391 154.455124 333.000000
24.581570 155.068268 333.151520
24.581570 155.611130 333.151520
24.584913 156.175232 333.196838
24.584913 156.718170 333.196838
24.584913 157.261124 333.196838
24.582678 157.789703 333.166534
24.574059 158.277084 333.049713
24.574059 158.819778 333.049713
24.565742 159.308548 332.937012
24.570391 159.881317 333.000000
24.570391 160.423935 333.000000
24.570391 160.966553 333.000000
24.570391 161.509171 333.000000
24.570391 162.051788 333.000000
24.496605 162.106140 332.000000
24.496605 162.647125 332.000000
24.496605 163.188110 332.000000
24.496605 163.729111 332.000000
24.496605 164.270096 332.000000
24.496605 164.811081 332.000000
24.496605 165.352081 332.000000
24.422821 165.393387 331.000000
24.422821 165.932755 331.000000
24.422821 166.472107 331.000000
24.349035 166.506897 330.000000
24.349035 167.044632 330.000000
24.349035 167.582367 330.000000
24.349035 168.120087 330.000000
24.349035 168.657822 330.000000
24.349035 169.195557 330.000000
24.349035 169.733292 330.000000
24.349035 170.271011 330.000000
24.349035 170.808746 330.000000
24.275251 170.827240 329.000000
24.275251 171.363342 329.000000
24.275251 171.899445 329.000000
24.275251 172.435547 329.000000
24.275251 172.971649 329.000000
24.275251 173.507751 329.000000
24.275251 174.043854 329.000000
24.201464 174.049332 328.000000
24.201464 174.583801 328.000000
24.201464 175.118271 328.000000
24.201464 175.652740 328.000000
24.201464 176.187210 328.000000
24.164331 176.450531 327.496735
24.127680 176.715744 327.000000
24.127680 177.248581 327.000000
24.053894 177.237747 326.000000
24.053894 177.768967 326.000000
24.053894 178.300171 326.000000
24.053894 178.831390 326.000000
24.053894 179.362595 326.000000
24.053894 179.893814 326.000000
24.053894 180.425018 326.000000
24.053894 180.956238 326.000000
23.980110 180.930740 325.000000
23.980110 181.460327 325.000000
23.980110 181.989914 325.000000
23.980110 182.519485 325.000000
23.980110 183.049072 325.000000
23.906324 183.013794 324.000000
23.906324 183.541748 324.000000
23.906324 184.069702 324.000000
23.906324 184.597656 324.000000
23.832541 184.554230 323.000000
23.832541 185.080566 323.000000
23.832541 185.606888 323.000000
23.832541 186.133209 323.000000
23.832541 186.659531 323.000000
23.832541 187.185852 323.000000
23.832541 187.712189 323.000000
23.832541 188.238510 323.000000
23.832541 188.764832 323.000000
23.832541 189.291153 323.000000
23.832541 189.817474 323.000000
23.786087 189.972809 322.370422
23.786087 190.498093 322.370422
23.786087 191.023392 322.370422
23.684971 190.734406 321.000000
23.684971 191.257477 321.000000
23.684971 191.780548 321.000000
23.684971 192.303604 321.000000
23.684971 192.826675 321.000000
23.684971 193.349731 321.000000
23.684971 193.872803 321.000000
23.684971 194.395874 321.000000
23.684971 194.918930 321.000000
23.684971 195.442001 321.000000
23.611185 195.354584 320.000000
23.611185 195.876022 320.000000
23.611185 196.397446 320.000000
23.611185 196.918884 320.000000
23.611185 197.440323 320.000000
23.611185 197.961761 320.000000
23.537401 197.862930 319.000000
23.537401 198.382736 319.000000
23.537401 198.902542 319.000000
23.537401 199.422348 319.000000
23.463615 199.315384 318.000000
23.463615 199.833557 318.000000
23.316046 199.091660 316.000000
23.316046 199.606567 316.000000
23.316046 200.121490 316.000000
23.316046 200.636414 316.000000
23.316046 201.151321 316.000000
23.316046 201.666245 316.000000
23.242262 201.541351 315.000000
23.242262 202.054642 315.000000
23.242262 202.567932 315.000000
23.168476 206.529800 314.000000
23.168476 207.041458 314.000000
23.168476 207.553116 314.000000
23.168476 208.064774 314.000000
23.168476 208.576431 314.000000
23.168476 209.088089 314.000000
23.168476 209.599747 314.000000
23.168476 210.111404 314.000000
23.168476 210.623062 314.000000
23.168476 211.134720 314.000000
23.168476 211.646393 314.000000
23.168476 212.158051 314.000000
23.168476 212.669708 314.000000
23.168476 213.181366 314.000000
23.020906 212.331909 312.000000
22.947121 212.158127 311.000000
22.947121 212.664902 311.000000
29.081406 22.399736 385.625000
29.081406 23.028109 385.625000
29.081406 23.656479 385.625000
29.055601 24.263300 385.282806
29.055601 24.891113 385.282806
29.055601 25.518927 385.282806
29.048746 26.140572 385.191895
29.043144 26.763077 385.117615
29.048946 27.396090 385.194550
29.048946 28.023762 385.194550
29.048946 28.651428 385.194550
29.044270 29.274389 385.132568
29.044270 29.901955 385.132568
27.876040 36.529469 369.641602
27.876040 37.131798 369.641602
27.876040 37.734123 369.641602
27.239065 37.460449 361.195190
27.146532 37.919758 359.968201
27.146532 38.506325 359.968201
26.981764 38.855606 357.783325
26.851542 39.248268 356.056549
26.851542 39.828457 356.056549
26.771864 40.288742 355.000000
26.771864 40.867210 355.000000
26.771864 41.445675 355.000000
26.771864 42.024143 355.000000
26.771864 42.602612 355.000000
26.771864 43.181080 355.000000
26.771864 43.759548 355.000000
26.771864 44.338017 355.000000
26.771864 44.916485 355.000000
26.771864 45.494953 355.000000
26.771864 46.073421 355.000000
26.771864 46.651890 355.000000
26.771864 47.230358 355.000000
26.771864 47.808826 355.000000
26.847275 48.523594 356.000000
26.847275 49.103691 356.000000
26.847275 49.683788 356.000000
26.847275 50.263885 356.000000
26.847275 50.843983 356.000000
26.771864 51.279633 355.000000
26.696449 51.712021 354.000000
26.696449 52.288860 354.000000
26.696449 52.865696 354.000000
26.656420 53.362404 353.469208
26.656420 53.938381 353.469208
28.265160 65.743881 374.801392
30.107643 70.679993 399.233093
30.107643 71.330544 399.233093
30.121742 72.014793 399.420044
30.415827 73.375092 403.319672
30.415827 74.032295 403.319672
30.420214 74.700272 403.377838
30.420214 75.357574 403.377838
30.420214 76.014870 403.377838
30.058699 75.760994 398.584076
29.898214 76.002525 396.456024
29.898214 76.648544 396.456024
30.110214 77.842636 399.267181
30.110214 78.493240 399.267181
30.110214 79.143837 399.267181
30.027845 79.576157 398.174957
30.118874 80.468178 399.382019
30.118874 81.118965 399.382019
30.118874 81.769760 399.382019
30.115973 82.412605 399.343536
30.106562 83.037369 399.218750
30.106562 83.687889 399.218750
30.081518 84.268257 398.886658
30.087130 84.934074 398.961060
30.087130 85.584175 398.961060
30.105665 86.287407 399.206848
30.362221 87.678780 402.608826
30.362221 88.334831 402.608826
30.402937 89.110214 403.148743
30.460590 89.937363 403.913239
30.460590 90.595535 403.913239
30.460590 91.253708 403.913239
26.809361 105.224327 355.497223
26.809361 105.803604 355.497223
26.809361 106.382889 355.497223
26.678150 106.438675 353.757355
26.679583 107.597328 353.776337
26.679583 108.173813 353.776337
26.679583 108.750282 353.776337
26.470207 108.468788 351.000000
26.470207 109.040733 351.000000
26.470207 109.612686 351.000000
26.470207 110.184639 351.000000
26.470207 110.756584 351.000000
26.394794 111.011360 350.000000
26.394794 111.581680 350.000000
26.394794 112.152000 350.000000
26.319380 112.400269 349.000000
26.168552 112.321571 347.000000
26.168552 112.887001 347.000000
26.168552 113.452431 347.000000
26.093140 113.689285 346.000000
26.093140 114.253082 346.000000
26.093140 114.816887 346.000000
26.093140 115.380692 346.000000
26.093140 115.944496 346.000000
26.017727 116.171562 345.000000
25.942312 116.395378 344.000000
25.942312 116.955917 344.000000
25.942312 117.516464 344.000000
25.866898 117.733757 343.000000
25.866898 118.292671 343.000000
25.866898 118.851585 343.000000
25.866898 119.410500 343.000000
25.866898 119.969414 343.000000
25.866898 120.528328 343.000000
25.791483 120.734230 342.000000
25.791483 121.291512 342.000000
25.791483 121.848801 342.000000
25.716070 122.048172 341.000000
25.716070 122.603828 341.000000
25.716070 123.159477 341.000000
25.640657 123.352333 340.000000
25.640657 123.906357 340.000000
25.640657 124.460381 340.000000
25.640657 125.014412 340.000000
25.640657 125.568436 340.000000
25.640657 126.122459 340.000000
25.565243 126.303909 339.000000
25.565243 126.856300 339.000000
25.565243 127.408699 339.000000
25.565243 127.961098 339.000000
25.565243 128.513489 339.000000
25.565243 129.065887 339.000000
25.565243 129.618286 339.000000
25.565243 130.170685 339.000000
25.565243 130.723083 339.000000
25.489830 130.888229 338.000000
25.489830 131.438995 338.000000
25.489830 131.989761 338.000000
25.489830 132.540527 338.000000
25.414415 132.697525 337.000000
25.414415 133.246674 337.000000
25.414415 133.795807 337.000000
25.414415 134.344940 337.000000
25.414415 134.894073 337.000000
25.414415 135.443222 337.000000
25.414415 135.992355 337.000000
25.414415 136.541489 337.000000
25.414415 137.090637 337.000000
25.339003 137.231339 336.000000
25.339003 137.778839 336.000000
25.339003 138.326355 336.000000
25.339003 138.873856 336.000000
25.339003 139.421371 336.000000
25.339003 139.968872 336.000000
25.339003 140.516388 336.000000
25.339003 141.063889 336.000000
25.339003 141.611404 336.000000
25.263588 141.735825 335.000000
25.263588 142.281708 335.000000
25.263588 142.827591 335.000000
25.263588 143.373459 335.000000
25.263588 143.919342 335.000000
25.263588 144.465225 335.000000
25.263588 145.011093 335.000000
25.263588 145.556976 335.000000
25.263588 146.102859 335.000000
25.188175 146.210968 334.000000
25.188175 146.755219 334.000000
25.188175 147.299469 334.000000
25.112761 147.401077 333.000000
25.112761 147.943695 333.000000
25.112761 148.486313 333.000000
25.112761 149.028931 333.000000
25.112761 149.571548 333.000000
25.112761 150.114166 333.000000
25.112761 150.656784 333.000000
25.112761 151.199402 333.000000
25.112761 151.742020 333.000000
25.112761 152.284637 333.000000
25.112761 152.827271 333.000000
25.112761 153.369888 333.000000
25.112761 153.912506 333.000000
25.112761 154.455124 333.000000
25.124187 155.068268 333.151520
25.124187 155.611130 333.151520
25.127605 156.175232 333.196838
25.127605 156.718170 333.196838
25.127605 157.261124 333.196838
25.125320 157.789703 333.166534
25.116510 158.277084 333.049713
25.116510 158.819778 333.049713
25.108011 159.308548 332.937012
25.112761 159.881317 333.000000
25.112761 160.423935 333.000000
25.112761 160.966553 333.000000
25.112761 161.509171 333.000000
25.112761 162.051788 333.000000
25.037348 162.106140 332.000000
25.037348 162.647125 332.000000
25.037348 163.188110 332.000000
25.037348 163.729111 332.000000
25.037348 164.270096 332.000000
25.037348 164.811081 332.000000
25.037348 165.352081 332.000000
24.961935 165.393387 331.000000
24.961935 165.932755 331.000000
24.961935 166.472107 331.000000
24.886520 166.506897 330.000000
24.886520 167.044632 330.000000
24.886520 167.582367 330.000000
24.886520 168.120087 330.000000
24.886520 168.657822 330.000000
24.886520 169.195557 330.000000
24.886520 169.733292 330.000000
24.886520 170.271011 330.000000
24.886520 170.808746 330.000000
24.811108 170.827240 329.000000
24.811108 171.363342 329.000000
24.811108 171.899445 329.000000
24.811108 172.435547 329.000000
24.811108 172.971649 329.000000
24.811108 173.507751 329.000000
24.811108 174.043854 329.000000
24.735691 174.049332 328.000000
24.735691 174.583801 328.000000
24.735691 175.118271 328.000000
24.726822 175.589737 327.882355
24.726822 176.124023 327.882355
24.697739 176.450531 327.496735
24.634838 176.533432 326.662659
24.634838 177.065720 326.662659
24.584864 177.237747 326.000000
24.584864 177.768967 326.000000
24.584864 178.300171 326.000000
24.584864 178.831390 326.000000
24.509451 178.812408 325.000000
24.509451 179.341995 325.000000
24.509451 179.871567 325.000000
24.509451 180.401154 325.000000
24.509451 180.930740 325.000000
24.509451 181.460327 325.000000
24.434038 181.429932 324.000000
24.434038 181.957886 324.000000
24.434038 182.485840 324.000000
24.434038 183.013794 324.000000
24.358624 182.975266 323.000000
24.358624 183.501587 323.000000
24.358624 184.027908 323.000000
24.358624 184.554230 323.000000
24.358624 185.080566 323.000000
24.358624 185.606888 323.000000
24.283211 185.556946 322.000000
24.283211 186.081635 322.000000
24.283211 186.606339 322.000000
24.283211 187.131027 322.000000
24.283211 187.655716 322.000000
24.283211 188.180420 322.000000
24.207796 188.119080 321.000000
24.207796 188.642151 321.000000
24.207796 189.165207 321.000000
24.132383 189.097351 320.000000
24.132383 189.618790 320.000000
24.132383 190.140213 320.000000
24.132383 190.661652 320.000000
24.132383 191.183090 320.000000
24.132383 191.704529 320.000000
24.132383 192.225967 320.000000
24.132383 192.747406 320.000000
24.132383 193.268829 320.000000
24.132383 193.790268 320.000000
24.132383 194.311707 320.000000
24.132383 194.833145 320.000000
24.132383 195.354584 320.000000
24.056969 195.263901 319.000000
24.056969 195.783707 319.000000
24.056969 196.303513 319.000000
24.056969 196.823318 319.000000
24.056969 197.343124 319.000000
23.981556 197.242676 318.000000
23.981556 197.760849 318.000000
23.981556 198.279022 318.000000
23.906141 198.172058 317.000000
23.906141 198.688599 317.000000
23.906141 199.205154 317.000000
23.830729 199.091660 316.000000
23.830729 199.606567 316.000000
23.830729 200.121490 316.000000
23.830729 200.636414 316.000000
23.830729 201.151321 316.000000
23.830729 201.666245 316.000000
23.755316 201.541351 315.000000
23.755316 202.054642 315.000000
23.755316 202.567932 315.000000
23.679901 206.529800 314.000000
23.679901 207.041458 314.000000
23.679901 207.553116 314.000000
23.679901 208.064774 314.000000
23.679901 208.576431 314.000000
23.679901 209.088089 314.000000
23.679901 209.599747 314.000000
23.679901 210.111404 314.000000
23.679901 210.623062 314.000000
23.679901 211.134720 314.000000
23.679901 211.646393 314.000000
23.679901 212.158051 314.000000
23.679901 212.669708 314.000000
23.679901 213.181366 314.000000
23.529074 212.331909 312.000000
23.453659 212.158127 311.000000
23.453659 212.664902 311.000000
29.738380 19.276609 386.000000
29.738380 19.905592 386.000000
29.738380 20.534575 386.000000
29.729820 21.157463 385.888885
29.729820 21.786263 385.888885
29.722116 22.409256 385.788879
29.709490 23.028109 385.625000
29.709490 23.656479 385.625000
29.683128 24.263300 385.282806
29.683128 24.891113 385.282806
29.683128 25.518927 385.282806
29.676123 26.140572 385.191895
29.670797 26.763432 385.122772
29.676327 27.396090 385.194550
29.676327 28.023762 385.194550
29.676327 28.651428 385.194550
29.671551 29.274389 385.132568
29.671551 29.901955 385.132568
29.664827 30.522606 385.045258
29.651352 31.135881 384.870361
29.651352 31.763023 384.870361
29.640829 32.378670 384.733795
28.478092 36.529469 369.641602
28.478092 37.131798 369.641602
28.478092 37.734123 369.641602
27.938061 37.609478 362.632111
27.871983 38.110031 361.774414
27.871983 38.699535 361.774414
27.564501 38.855606 357.783325
27.431465 39.248268 356.056549
27.431465 39.828457 356.056549
27.350067 40.288742 355.000000
27.350067 40.867210 355.000000
27.350067 41.445675 355.000000
27.350067 42.024143 355.000000
27.350067 42.602612 355.000000
27.350067 43.181080 355.000000
27.350067 43.759548 355.000000
27.350067 44.338017 355.000000
27.350067 44.916485 355.000000
27.350067 45.494953 355.000000
27.350067 46.073421 355.000000
27.350067 46.651890 355.000000
27.350067 47.230358 355.000000
27.350067 47.808826 355.000000
27.273024 48.250988 354.000000
27.273024 48.827827 354.000000
27.273024 49.404667 354.000000
27.273024 49.981503 354.000000
27.273024 50.558342 354.000000
27.273024 51.135181 354.000000
27.273024 51.712021 354.000000
27.273024 52.288860 354.000000
27.273024 52.865696 354.000000
27.273024 53.442539 354.000000
27.273024 54.019379 354.000000
27.203926 54.457893 353.103119
27.192579 55.010315 352.955841
27.192579 55.585449 352.955841
30.757891 70.679993 399.233093
30.757891 71.330544 399.233093
30.772295 72.014793 399.420044
