62.758575 209.116837 298.000000
77.887665 -26.523878 367.000000
77.887665 -25.925858 367.000000
77.887665 -25.327835 367.000000
77.887665 -24.729813 367.000000
77.887665 -24.131792 367.000000
77.887665 -23.533770 367.000000
77.887665 -22.935747 367.000000
77.887665 -22.337725 367.000000
77.887665 -21.739704 367.000000
77.887665 -21.141682 367.000000
77.887665 -20.543659 367.000000
77.887665 -19.945639 367.000000
77.887665 -19.347616 367.000000
77.887665 -18.749594 367.000000
77.887665 -18.151573 367.000000
77.887665 -17.553551 367.000000
77.887665 -16.955528 367.000000
77.887665 -16.357508 367.000000
77.887665 -15.759485 367.000000
77.887665 -15.161463 367.000000
77.887665 -14.563441 367.000000
77.887665 -13.965420 367.000000
77.887665 -13.367397 367.000000
77.887665 -12.769377 367.000000
77.887665 -12.171354 367.000000
77.887665 -11.573333 367.000000
77.887665 -10.975311 367.000000
77.887665 -10.377289 367.000000
77.887665 -9.779267 367.000000
77.887665 -9.181246 367.000000
77.887665 -8.583223 367.000000
77.887665 -7.985202 367.000000
77.887665 -7.387180 367.000000
77.887665 -6.789158 367.000000
77.887665 -6.191136 367.000000
77.887665 -5.593114 367.000000
77.887665 -4.995092 367.000000
77.887665 -4.397070 367.000000
77.887665 -3.799048 367.000000
77.887665 -3.201027 367.000000
77.887665 -2.603005 367.000000
77.887665 -2.004983 367.000000
77.887665 -1.406961 367.000000
77.887665 -0.808939 367.000000
77.887665 -0.210917 367.000000
77.887665 0.387105 367.000000
77.887665 0.985126 367.000000
77.887665 1.583148 367.000000
77.887665 2.181170 367.000000
77.887665 2.779192 367.000000
77.887665 3.377214 367.000000
77.887665 3.975236 367.000000
77.887665 4.573258 367.000000
77.887665 5.171279 367.000000
77.887665 5.769301 367.000000
77.887665 6.367323 367.000000
77.887665 6.965345 367.000000
77.887665 7.563366 367.000000
77.887665 8.161388 367.000000
77.887665 8.759410 367.000000
77.887665 9.357432 367.000000
77.887665 9.955454 367.000000
77.887665 10.553476 367.000000
77.887665 11.151498 367.000000
77.887665 11.749519 367.000000
77.887665 12.347542 367.000000
77.887665 12.945563 367.000000
77.887665 13.543586 367.000000
77.887665 14.141608 367.000000
77.887665 14.739630 367.000000
77.887665 15.337651 367.000000
77.887665 15.935674 367.000000
77.887665 16.533695 367.000000
77.887665 17.131718 367.000000
77.887665 17.729738 367.000000
77.887665 18.327761 367.000000
77.887665 18.925783 367.000000
77.887665 19.523804 367.000000
77.887665 21.915892 367.000000
77.887665 22.513914 367.000000
77.887665 23.111937 367.000000
77.887665 23.709957 367.000000
77.887665 24.307980 367.000000
72.369743 27.031130 341.000000
72.369743 27.586784 341.000000
72.369743 28.142441 341.000000
72.369743 28.698095 341.000000
72.369743 29.253750 341.000000
72.369743 29.809406 341.000000
72.369743 30.365061 341.000000
72.369743 30.920715 341.000000
72.369743 31.476372 341.000000
72.369743 32.032028 341.000000
72.369743 32.587681 341.000000
72.369743 33.143337 341.000000
72.369743 33.698994 341.000000
72.369743 34.254646 341.000000
72.369743 34.810303 341.000000
72.369743 35.365959 341.000000
72.369743 35.921612 341.000000
72.369743 36.477268 341.000000
72.369743 37.032925 341.000000
72.369743 37.588577 341.000000
72.369743 38.144234 341.000000
72.369743 38.699890 341.000000
72.369743 39.255543 341.000000
72.369743 39.811199 341.000000
72.369743 40.366856 341.000000
72.369743 40.922508 341.000000
72.369743 41.478165 341.000000
72.369743 42.033821 341.000000
72.369743 42.589474 341.000000
72.369743 43.145130 341.000000
72.369743 43.700787 341.000000
72.369743 44.256439 341.000000
72.369743 44.812096 341.000000
72.369743 45.367752 341.000000
72.369743 45.923405 341.000000
72.369743 46.479061 341.000000
72.369743 47.034718 341.000000
72.369743 47.590370 341.000000
72.369743 48.146027 341.000000
72.369743 48.701683 341.000000
72.369743 49.257336 341.000000
72.369743 49.812992 341.000000
72.369743 50.368649 341.000000
73.180061 51.494503 344.818176
73.234436 52.095055 345.074371
73.234436 52.657349 345.074371
73.234436 53.219646 345.074371
72.553993 53.282230 341.868164
72.553993 53.839298 341.868164
72.572418 54.410187 341.954987
72.572418 54.967396 341.954987
72.572418 55.524609 341.954987
65.011986 197.991394 306.330902
65.011986 198.490555 306.330902
65.011986 198.989731 306.330902
64.930511 199.238861 305.946960
64.862762 199.528992 305.627747
64.862762 200.027008 305.627747
64.827988 200.417526 305.463898
64.790619 200.799454 305.287811
64.790619 201.296906 305.287811
64.790619 201.794373 305.287811
64.729538 202.101135 305.000000
64.729538 202.598129 305.000000
64.729538 203.095123 305.000000
64.729538 203.592102 305.000000
64.729538 204.089096 305.000000
64.517311 203.915314 304.000000
64.382179 203.982544 303.363281
64.382179 204.476883 303.363281
64.271675 204.619400 302.842590
64.172462 204.796265 302.375122
64.092850 205.034302 302.000000
64.092850 205.526398 302.000000
64.092850 206.018509 302.000000
63.880623 205.826797 301.000000
63.880623 206.317276 301.000000
63.668400 206.120697 300.000000
63.668400 206.609543 300.000000
63.668400 207.098389 300.000000
63.456165 206.895264 299.000000
63.456165 207.382492 299.000000
63.456165 207.869705 299.000000
63.456165 208.356918 299.000000
63.243938 208.145660 298.000000
63.243938 208.631241 298.000000
63.243938 209.116837 298.000000
78.485420 -26.523878 367.000000
78.485420 -25.925858 367.000000
78.485420 -25.327835 367.000000
78.485420 -24.729813 367.000000
78.485420 -24.131792 367.000000
78.485420 -23.533770 367.000000
78.485420 -22.935747 367.000000
78.485420 -22.337725 367.000000
78.485420 -21.739704 367.000000
78.485420 -21.141682 367.000000
78.485420 -20.543659 367.000000
78.485420 -19.945639 367.000000
78.485420 -19.347616 367.000000
78.485420 -18.749594 367.000000
78.485420 -18.151573 367.000000
78.485420 -17.553551 367.000000
78.485420 -16.955528 367.000000
78.485420 -16.357508 367.000000
78.485420 -15.759485 367.000000
78.485420 -15.161463 367.000000
78.485420 -14.563441 367.000000
78.485420 -13.965420 367.000000
78.485420 -13.367397 367.000000
78.485420 -12.769377 367.000000
78.485420 -12.171354 367.000000
78.485420 -11.573333 367.000000
78.485420 -10.975311 367.000000
78.485420 -10.377289 367.000000
78.485420 -9.779267 367.000000
78.485420 -9.181246 367.000000
78.485420 -8.583223 367.000000
78.485420 -7.985202 367.000000
78.485420 -7.387180 367.000000
78.485420 -6.789158 367.000000
78.485420 -6.191136 367.000000
78.485420 -5.593114 367.000000
78.485420 -4.995092 367.000000
78.485420 -4.397070 367.000000
78.485420 -3.799048 367.000000
78.485420 -3.201027 367.000000
78.485420 -2.603005 367.000000
78.485420 -2.004983 367.000000
78.485420 -1.406961 367.000000
78.485420 -0.808939 367.000000
78.485420 -0.210917 367.000000
78.485420 0.387105 367.000000
78.485420 0.985126 367.000000
78.485420 1.583148 367.000000
78.485420 2.181170 367.000000
78.485420 2.779192 367.000000
78.485420 3.377214 367.000000
78.485420 3.975236 367.000000
78.485420 4.573258 367.000000
78.485420 5.171279 367.000000
78.485420 5.769301 367.000000
78.485420 6.367323 367.000000
78.485420 6.965345 367.000000
78.485420 7.563366 367.000000
78.485420 8.161388 367.000000
78.485420 8.759410 367.000000
78.485420 9.357432 367.000000
78.485420 9.955454 367.000000
78.485420 10.553476 367.000000
78.485420 11.151498 367.000000
78.485420 11.749519 367.000000
78.485420 12.347542 367.000000
78.485420 12.945563 367.000000
78.485420 13.543586 367.000000
78.485420 14.141608 367.000000
78.485420 14.739630 367.000000
78.485420 15.337651 367.000000
78.485420 15.935674 367.000000
78.485420 16.533695 367.000000
78.485420 17.131718 367.000000
78.485420 17.729738 367.000000
78.485420 18.327761 367.000000
78.485420 18.925783 367.000000
78.485420 19.523804 367.000000
78.485420 21.915892 367.000000
78.485420 22.513914 367.000000
78.485420 23.111937 367.000000
78.485420 23.709957 367.000000
78.485420 24.307980 367.000000
72.925148 27.031130 341.000000
72.925148 27.586784 341.000000
72.925148 28.142441 341.000000
72.925148 28.698095 341.000000
72.925148 29.253750 341.000000
72.925148 29.809406 341.000000
72.925148 30.365061 341.000000
72.925148 30.920715 341.000000
72.925148 31.476372 341.000000
72.925148 32.032028 341.000000
72.925148 32.587681 341.000000
72.925148 33.143337 341.000000
72.925148 33.698994 341.000000
72.925148 34.254646 341.000000
72.925148 34.810303 341.000000
72.925148 35.365959 341.000000
72.925148 35.921612 341.000000
72.925148 36.477268 341.000000
72.925148 37.032925 341.000000
72.925148 37.588577 341.000000
72.925148 38.144234 341.000000
72.925148 38.699890 341.000000
72.925148 39.255543 341.000000
72.925148 39.811199 341.000000
72.925148 40.366856 341.000000
72.925148 40.922508 341.000000
72.925148 41.478165 341.000000
72.925148 42.033821 341.000000
72.925148 42.589474 341.000000
72.925148 43.145130 341.000000
72.925148 43.700787 341.000000
72.925148 44.256439 341.000000
72.925148 44.812096 341.000000
72.925148 45.367752 341.000000
72.925148 45.923405 341.000000
72.925148 46.479061 341.000000
72.925148 47.034718 341.000000
72.925148 47.590370 341.000000
72.925148 48.146027 341.000000
72.925148 48.701683 341.000000
72.925148 49.257336 341.000000
72.925148 49.812992 341.000000
72.925148 50.368649 341.000000
73.741692 51.494503 344.818176
73.796478 52.095055 345.074371
73.796478 52.657349 345.074371
73.796478 53.219646 345.074371
73.110802 53.282230 341.868164
73.110802 53.839298 341.868164
73.129379 54.410187 341.954987
73.129379 54.967396 341.954987
73.129379 55.524609 341.954987
65.510925 197.991394 306.330902
65.510925 198.490555 306.330902
65.510925 198.989731 306.330902
65.428810 199.238861 305.946960
65.360550 199.528992 305.627747
65.360550 200.027008 305.627747
65.325508 200.417526 305.463898
65.287849 200.799454 305.287811
65.287849 201.296906 305.287811
65.287849 201.794373 305.287811
65.226303 202.101135 305.000000
65.226303 202.598129 305.000000
65.226303 203.095123 305.000000
65.226303 203.592102 305.000000
65.226303 204.089096 305.000000
64.791985 203.223831 302.969116
64.731354 203.526886 302.685608
64.731354 204.020111 302.685608
64.682091 204.357681 302.455261
64.629158 204.682892 302.207733
64.584732 205.034302 302.000000
64.584732 205.526398 302.000000
64.584732 206.018509 302.000000
64.370872 205.826797 301.000000
64.370872 206.317276 301.000000
64.370872 206.807755 301.000000
64.157021 206.609543 300.000000
64.157021 207.098389 300.000000
64.157021 207.587234 300.000000
63.943161 207.382492 299.000000
63.943161 207.869705 299.000000
63.943161 208.356918 299.000000
63.943161 208.844131 299.000000
63.943161 209.331360 299.000000
63.729305 209.116837 298.000000
79.083168 -26.523878 367.000000
79.083168 -25.925858 367.000000
79.083168 -25.327835 367.000000
79.083168 -24.729813 367.000000
79.083168 -24.131792 367.000000
82.207710 67.540535 381.500000
82.207710 68.162186 381.500000
82.423195 68.964134 382.500000
82.423195 69.587410 382.500000
82.423195 70.210686 382.500000
82.315445 70.741379 382.000000
82.315445 71.363846 382.000000
82.315445 71.986305 382.000000
82.315445 72.608772 382.000000
82.315445 73.231239 382.000000
82.315445 73.853699 382.000000
82.315445 74.476166 382.000000
82.315445 75.098633 382.000000
82.315445 75.721092 382.000000
82.315445 76.343559 382.000000
82.315445 76.966019 382.000000
82.326225 77.598640 382.049988
82.326225 78.221176 382.049988
82.326225 78.843727 382.049988
82.316635 79.457016 382.005493
82.316635 80.079491 382.005493
82.316750 80.702080 382.006042
82.316887 81.324684 382.006653
82.316887 81.947159 382.006653
82.317032 82.569778 382.007324
82.317032 83.192253 382.007324
82.317032 83.814735 382.007324
65.858337 199.030975 305.627747
65.858337 199.528992 305.627747
65.858337 200.027008 305.627747
65.823036 200.417526 305.463898
65.776756 200.774017 305.249146
65.776756 201.271408 305.249146
65.664040 201.423065 304.726074
65.533623 201.518555 304.120819
65.533623 202.014114 304.120819
65.723068 203.095123 305.000000
65.723068 203.592102 305.000000
65.723068 204.089096 305.000000
65.285439 203.223831 302.969116
65.224350 203.526886 302.685608
65.224350 204.020111 302.685608
65.174721 204.357681 302.455261
65.121376 204.682892 302.207733
65.076614 205.034302 302.000000
65.076614 205.526398 302.000000
65.076614 206.018509 302.000000
64.861130 205.826797 301.000000
64.861130 206.317276 301.000000
64.861130 206.807755 301.000000
64.645645 206.609543 300.000000
64.645645 207.098389 300.000000
64.645645 207.587234 300.000000
64.430153 207.382492 299.000000
64.430153 207.869705 299.000000
64.430153 208.356918 299.000000
64.430153 208.844131 299.000000
64.430153 209.331360 299.000000
64.214668 209.116837 298.000000
79.680916 -26.523878 367.000000
79.680916 -25.925858 367.000000
79.680916 -25.327835 367.000000
82.829071 67.540535 381.500000
82.829071 68.162186 381.500000
83.046188 68.964134 382.500000
83.046188 69.587410 382.500000
83.046188 70.210686 382.500000
82.937630 70.741379 382.000000
82.937630 71.363846 382.000000
82.937630 71.986305 382.000000
82.937630 72.608772 382.000000
82.937630 73.231239 382.000000
82.937630 73.853699 382.000000
82.937630 74.476166 382.000000
82.937630 75.098633 382.000000
82.937630 75.721092 382.000000
82.937630 76.343559 382.000000
82.937630 76.966019 382.000000
82.948479 77.598640 382.049988
82.948479 78.221176 382.049988
82.948479 78.843727 382.049988
82.938820 79.457016 382.005493
82.938820 80.079491 382.005493
82.938942 80.702080 382.006042
82.939072 81.324684 382.006653
82.939072 81.947159 382.006653
82.939217 82.569778 382.007324
82.939217 83.192253 382.007324
82.939217 83.814735 382.007324
66.273926 200.276627 305.249146
66.273926 200.774017 305.249146
66.273926 201.271408 305.249146
66.184113 201.495361 304.835449
66.036003 201.540070 304.153290
66.036003 202.035690 304.153290
65.908958 202.141647 303.568115
65.740845 202.119446 302.793823
65.740845 202.612854 302.793823
65.673447 202.898026 302.483398
65.624428 203.239105 302.257629
65.624428 203.731628 302.257629
65.570023 204.054855 302.007050
65.526497 204.411194 301.806580
65.568489 205.034302 302.000000
65.568489 205.526398 302.000000
65.568489 206.018509 302.000000
65.568489 206.510605 302.000000
65.568489 207.002716 302.000000
65.568489 207.494827 302.000000
65.351379 207.298233 301.000000
65.351379 207.788696 301.000000
65.134262 207.587234 300.000000
65.134262 208.076080 300.000000
65.134262 208.564926 300.000000
64.917145 208.356918 299.000000
64.917145 208.844131 299.000000
64.917145 209.331360 299.000000
64.700035 209.116837 298.000000
80.278664 -26.523878 367.000000
80.278664 -25.925858 367.000000
80.278664 -25.327835 367.000000
83.450439 67.540535 381.500000
83.450439 68.162186 381.500000
83.669182 68.964134 382.500000
83.669182 69.587410 382.500000
83.669182 70.210686 382.500000
83.559807 70.741379 382.000000
83.559807 71.363846 382.000000
83.559807 71.986305 382.000000
83.559807 72.608772 382.000000
83.559807 73.231239 382.000000
83.559807 73.853699 382.000000
83.559807 74.476166 382.000000
83.559807 75.098633 382.000000
83.559807 75.721092 382.000000
83.559807 76.343559 382.000000
83.559807 76.966019 382.000000
83.570740 77.598640 382.049988
83.570740 78.221176 382.049988
83.570740 78.843727 382.049988
83.561005 79.457016 382.005493
83.561005 80.079491 382.005493
83.561127 80.702080 382.006042
83.561264 81.324684 382.006653
83.561264 81.947159 382.006653
83.561409 82.569778 382.007324
83.561409 83.192253 382.007324
83.561409 83.814735 382.007324
83.561409 84.437210 382.007324
83.561409 85.059685 382.007324
83.561409 85.682159 382.007324
66.771103 200.276627 305.249146
66.771103 200.774017 305.249146
66.771103 201.271408 305.249146
66.680611 201.495361 304.835449
66.531387 201.540070 304.153290
66.531387 202.035690 304.153290
66.403389 202.141647 303.568115
66.357582 202.496536 303.358734
66.357582 202.990860 303.358734
66.217728 203.056305 302.719360
66.116730 203.239105 302.257629
66.116730 203.731628 302.257629
66.061920 204.054855 302.007050
66.018059 204.411194 301.806580
66.060371 205.034302 302.000000
66.060371 205.526398 302.000000
66.060371 206.018509 302.000000
66.060371 206.510605 302.000000
66.060371 207.002716 302.000000
66.060371 207.494827 302.000000
66.060371 207.986923 302.000000
66.060371 208.479034 302.000000
65.841629 208.279175 301.000000
65.622887 208.076080 300.000000
65.622887 208.564926 300.000000
65.622887 209.053772 300.000000
65.414429 208.876984 299.047028
65.414429 209.364273 299.047028
65.381386 209.745544 298.895935
84.183601 82.569778 382.007324
84.183601 83.192253 382.007324
84.183601 83.814735 382.007324
84.183601 84.437210 382.007324
84.183601 85.059685 382.007324
84.183601 85.682159 382.007324
67.177101 200.501907 304.835449
67.177101 200.998642 304.835449
67.177101 201.495361 304.835449
67.026772 201.540070 304.153290
67.026772 202.035690 304.153290
66.897820 202.141647 303.568115
66.851677 202.496536 303.358734
66.851677 202.990860 303.358734
66.710777 203.056305 302.719360
66.609024 203.239105 302.257629
66.609024 203.731628 302.257629
66.553802 204.054855 302.007050
66.509628 204.411194 301.806580
66.552254 205.034302 302.000000
66.552254 205.526398 302.000000
66.552254 206.018509 302.000000
66.552254 206.510605 302.000000
66.552254 207.002716 302.000000
66.552254 207.494827 302.000000
66.552254 207.986923 302.000000
66.552254 208.479034 302.000000
66.331879 208.279175 301.000000
66.111511 208.076080 300.000000
66.111511 208.564926 300.000000
66.111511 209.053772 300.000000
66.062584 209.387527 299.777985
66.062584 209.876022 299.777985
65.969521 210.068192 299.355713
84.805794 82.569778 382.007324
84.805794 83.192253 382.007324
84.805794 83.814735 382.007324
84.805794 84.437210 382.007324
84.805794 85.059685 382.007324
84.805794 85.682159 382.007324
67.345772 202.002213 303.358734
67.345772 202.496536 303.358734
67.345772 202.990860 303.358734
67.237122 203.156891 302.869324
67.156891 203.407394 302.507904
67.156891 203.900330 302.507904
67.113220 204.260345 302.311188
67.113220 204.752960 302.311188
67.113220 205.245575 302.311188
67.113220 205.738190 302.311188
67.113220 206.230804 302.311188
67.113220 206.723404 302.311188
67.113220 207.216019 302.311188
67.044128 207.494827 302.000000
67.044128 207.986923 302.000000
67.044128 208.479034 302.000000
67.044128 208.971130 302.000000
66.785355 208.654755 300.834351
66.785355 209.144974 300.834351
66.668892 209.269592 300.309723
66.550842 209.387527 299.777985
66.550842 209.876022 299.777985
66.457100 210.068192 299.355713
85.427986 83.192253 382.007324
85.427986 83.814735 382.007324
85.427986 84.437210 382.007324
85.427986 85.059685 382.007324
85.427986 85.682159 382.007324
85.427986 86.304642 382.007324
67.730415 202.169846 302.869324
67.730415 202.663361 302.869324
67.730415 203.156891 302.869324
67.649597 203.407394 302.507904
67.649597 203.900330 302.507904
67.605598 204.260345 302.311188
67.605598 204.752960 302.311188
67.605598 205.245575 302.311188
67.605598 205.738190 302.311188
67.605598 206.230804 302.311188
67.605598 206.723404 302.311188
67.605598 207.216019 302.311188
67.536011 207.494827 302.000000
67.536011 207.986923 302.000000
67.536011 208.479034 302.000000
67.536011 208.971130 302.000000
67.275337 208.654755 300.834351
67.275337 209.144974 300.834351
67.158012 209.269592 300.309723
67.065125 209.468811 299.894348
67.065125 209.957489 299.894348
66.970016 210.147720 299.469055
82.669655 -28.915966 367.000000
82.669655 -28.317944 367.000000
82.669655 -27.719923 367.000000
82.669655 -26.523878 367.000000
82.669655 -25.925858 367.000000
82.669655 -25.327835 367.000000
82.669655 -24.729813 367.000000
82.669655 -24.131792 367.000000
82.669655 -23.533770 367.000000
76.812950 27.586784 341.000000
76.812950 28.142441 341.000000
76.812950 28.698095 341.000000
86.050179 84.437210 382.007324
86.050179 85.059685 382.007324
86.050179 85.682159 382.007324
86.050179 86.304642 382.007324
68.223717 202.169846 302.869324
68.223717 202.663361 302.869324
68.223717 203.156891 302.869324
68.142303 203.407394 302.507904
68.142303 203.900330 302.507904
68.097992 204.260345 302.311188
68.097992 204.752960 302.311188
68.097992 205.245575 302.311188
68.097992 205.738190 302.311188
68.097992 206.230804 302.311188
68.097992 206.723404 302.311188
68.097992 207.216019 302.311188
68.027893 207.494827 302.000000
68.027893 207.986923 302.000000
68.027893 208.479034 302.000000
68.027893 208.971130 302.000000
67.765320 208.654755 300.834351
67.765320 209.144974 300.834351
67.647148 209.269592 300.309723
67.553574 209.468811 299.894348
67.553574 209.957489 299.894348
67.480156 210.217453 299.568420
83.267403 -30.112009 367.000000
83.267403 -29.513988 367.000000
83.267403 -28.915966 367.000000
83.267403 -28.317944 367.000000
83.267403 -27.719923 367.000000
83.267403 -26.523878 367.000000
83.267403 -25.925858 367.000000
83.267403 -25.327835 367.000000
83.267403 -24.729813 367.000000
83.267403 -24.131792 367.000000
83.267403 -23.533770 367.000000
77.368355 27.031130 341.000000
77.368355 27.586784 341.000000
77.368355 28.142441 341.000000
77.368355 28.698095 341.000000
86.672371 84.437210 382.007324
86.672371 85.059685 382.007324
86.672371 85.682159 382.007324
86.672371 86.304642 382.007324
68.572014 203.220703 302.230255
68.572014 203.713181 302.230255
68.572014 204.205658 302.230255
68.522064 204.549042 302.010101
68.519379 205.033127 301.998260
68.519379 205.525223 301.998260
68.519379 206.017319 301.998260
68.519379 206.509430 301.998260
68.519379 207.001526 301.998260
68.405991 207.150284 301.498535
68.335136 207.426483 301.186218
68.335136 207.917267 301.186218
68.262848 208.187576 300.867615
68.189720 208.454300 300.545319
68.189720 208.944031 300.545319
68.116058 209.207520 300.220642
68.042030 209.468811 299.894348
68.042030 209.957489 299.894348
67.968079 210.217453 299.568420
83.865150 -30.112009 367.000000
83.865150 -29.513988 367.000000
83.865150 -28.915966 367.000000
83.865150 -28.317944 367.000000
83.865150 -27.719923 367.000000
83.865150 -26.523878 367.000000
83.865150 -25.925858 367.000000
83.865150 -25.327835 367.000000
83.865150 -24.729813 367.000000
83.865150 -24.131792 367.000000
83.865150 -23.533770 367.000000
77.923752 27.031130 341.000000
77.923752 27.586784 341.000000
77.923752 28.142441 341.000000
77.923752 28.698095 341.000000
87.294563 85.059685 382.007324
87.294563 85.682159 382.007324
87.294563 86.304642 382.007324
87.294563 86.927109 382.007324
87.294563 87.549583 382.007324
68.978912 204.445145 301.856720
68.978912 204.937027 301.856720
68.978912 205.428894 301.856720
68.962708 205.872391 301.785797
68.843948 206.008774 301.266113
68.843948 206.499695 301.266113
68.731468 206.652405 300.773895
68.731468 207.142502 300.773895
68.731468 207.632629 300.773895
68.680801 207.969299 300.552155
68.622475 208.282028 300.296936
68.622475 208.771362 300.296936
68.559700 209.069244 300.022217
68.510368 209.407349 299.806335
68.510368 209.895874 299.806335
68.456001 210.217453 299.568420
84.462898 -30.112009 367.000000
84.462898 -29.513988 367.000000
84.462898 -28.915966 367.000000
84.462898 -28.317944 367.000000
84.462898 -27.719923 367.000000
84.462898 -25.327835 367.000000
84.462898 -24.729813 367.000000
84.462898 -24.131792 367.000000
78.479156 27.031130 341.000000
78.479156 27.586784 341.000000
78.479156 28.142441 341.000000
78.479156 28.698095 341.000000
87.916748 85.059685 382.007324
87.916748 85.682159 382.007324
87.916748 86.304642 382.007324
87.916748 86.927109 382.007324
87.916748 87.549583 382.007324
69.470558 204.445145 301.856720
69.470558 204.937027 301.856720
69.470558 205.428894 301.856720
69.454239 205.872391 301.785797
69.334633 206.008774 301.266113
69.334633 206.499695 301.266113
69.221352 206.652405 300.773895
69.221352 207.142502 300.773895
69.221352 207.632629 300.773895
69.170319 207.969299 300.552155
69.026115 208.024475 299.925598
69.026115 208.513184 299.925598
68.970726 208.834198 299.684906
68.908928 209.134995 299.416412
68.908928 209.622879 299.416412
68.862595 209.969482 299.215057
85.060646 -30.112009 367.000000
85.060646 -29.513988 367.000000
85.060646 -28.915966 367.000000
79.034554 27.586784 341.000000
79.034554 28.142441 341.000000
79.034554 28.698095 341.000000
88.538940 85.059685 382.007324
88.538940 85.682159 382.007324
88.538940 86.304642 382.007324
88.538940 86.927109 382.007324
88.538940 87.549583 382.007324
69.681747 205.585190 300.646667
69.681747 206.075089 300.646667
69.681747 206.564987 300.646667
69.633026 206.910126 300.436462
69.633026 207.399689 300.436462
69.559036 207.668335 300.117218
69.514618 208.024475 299.925598
69.514618 208.513184 299.925598
69.458832 208.834198 299.684906
69.396606 209.134995 299.416412
69.396606 209.622879 299.416412
69.349937 209.969482 299.215057
85.658394 -30.112009 367.000000
85.658394 -29.513988 367.000000
85.658394 -28.915966 367.000000
89.161133 86.304642 382.007324
89.161133 86.927109 382.007324
89.161133 87.549583 382.007324
84.491386 83.554123 362.000000
84.491386 84.143997 362.000000
84.491386 84.733871 362.000000
70.122360 206.420563 300.436462
70.122360 206.910126 300.436462
70.122360 207.399689 300.436462
70.047852 207.668335 300.117218
70.003120 208.024475 299.925598
70.003120 208.513184 299.925598
69.946945 208.834198 299.684906
69.884277 209.134995 299.416412
69.884277 209.622879 299.416412
69.837280 209.969482 299.215057
86.256142 -30.112009 367.000000
86.256142 -29.513988 367.000000
86.256142 -28.915966 367.000000
90.016632 57.196503 383.000000
90.016632 57.820595 383.000000
90.016632 58.444691 383.000000
89.781601 58.914562 382.000000
89.781601 67.629059 382.000000
89.781601 68.251526 382.000000
90.251663 69.234581 384.000000
90.251663 69.860306 384.000000
90.251663 70.486031 384.000000
85.080994 82.374374 362.000000
85.080994 82.964249 362.000000
85.080994 83.554123 362.000000
85.080994 84.143997 362.000000
85.080994 84.733871 362.000000
70.457260 207.434570 299.779388
70.457260 207.923065 299.779388
70.457260 208.411545 299.779388
70.389671 208.699615 299.491791
70.358009 209.093552 299.357086
70.358009 209.581360 299.357086
70.290237 209.866821 299.068756
89.457138 55.217922 378.000000
89.457138 55.833870 378.000000
90.640442 57.196503 383.000000
90.640442 57.820595 383.000000
90.640442 58.444691 383.000000
90.403778 58.914562 382.000000
90.403778 67.629059 382.000000
90.403778 68.251526 382.000000
90.877098 69.234581 384.000000
90.877098 69.860306 384.000000
90.877098 70.486031 384.000000
85.670601 82.374374 362.000000
85.670601 82.964249 362.000000
85.670601 83.554123 362.000000
85.670601 84.143997 362.000000
85.670601 84.733871 362.000000
70.945526 207.434570 299.779388
70.945526 207.923065 299.779388
70.945526 208.411545 299.779388
70.877464 208.699615 299.491791
70.845581 209.093552 299.357086
70.845581 209.581360 299.357086
70.777344 209.866821 299.068756
90.787674 2.885210 381.000000
91.025955 3.515247 382.000000
91.025955 4.137711 382.000000
91.025955 4.760175 382.000000
91.025955 5.382639 382.000000
91.025955 6.005104 382.000000
91.025955 6.627568 382.000000
90.072807 55.217922 378.000000
90.072807 55.833870 378.000000
91.264252 57.196503 383.000000
91.264252 57.820595 383.000000
91.264252 58.444691 383.000000
91.025955 58.914562 382.000000
91.025955 59.537025 382.000000
91.025955 60.159489 382.000000
91.025955 67.629059 382.000000
91.025955 68.251526 382.000000
91.502533 69.234581 384.000000
91.502533 69.860306 384.000000
91.502533 70.486031 384.000000
86.260201 83.554123 362.000000
86.260201 84.143997 362.000000
86.260201 84.733871 362.000000
71.333153 208.605743 299.357086
71.333153 209.093552 299.357086
71.333153 209.581360 299.357086
71.264458 209.866821 299.068756
90.928391 1.634913 379.000000
90.928391 2.252489 379.000000
91.408218 2.885210 381.000000
91.648140 3.515247 382.000000
91.648140 4.137711 382.000000
91.648140 4.760175 382.000000
91.648140 5.382639 382.000000
91.648140 6.005104 382.000000
91.648140 6.627568 382.000000
91.168304 22.692204 380.000000
91.168304 23.311409 380.000000
91.168304 23.930614 380.000000
90.688469 47.210617 378.000000
90.688469 47.826565 378.000000
90.688469 48.442513 378.000000
90.688469 55.217922 378.000000
90.688469 55.833870 378.000000
90.928391 56.599148 379.000000
91.408218 57.518661 381.000000
91.408218 58.139500 381.000000
91.648140 58.914562 382.000000
91.648140 59.537025 382.000000
91.648140 60.159489 382.000000
90.928391 60.304604 379.000000
90.688469 66.304955 378.000000
91.408218 67.452019 381.000000
91.408218 68.072853 381.000000
91.648140 68.873985 382.000000
91.648140 69.496452 382.000000
91.648140 70.118919 382.000000
90.688469 70.000633 378.000000
86.849808 83.554123 362.000000
86.849808 84.143997 362.000000
86.849808 84.733871 362.000000
86.849808 85.323746 362.000000
91.545685 1.634913 379.000000
91.545685 2.252489 379.000000
92.028770 2.885210 381.000000
92.270317 3.515247 382.000000
92.270317 4.137711 382.000000
92.270317 4.760175 382.000000
92.270317 5.382639 382.000000
92.270317 6.005104 382.000000
92.270317 6.627568 382.000000
91.787231 22.692204 380.000000
91.787231 23.311409 380.000000
91.787231 23.930614 380.000000
91.304138 45.978725 378.000000
91.304138 46.594673 378.000000
91.304138 47.210617 378.000000
91.304138 47.826565 378.000000
91.304138 48.442513 378.000000
90.821045 48.798893 376.000000
90.579506 49.280163 375.000000
90.579506 49.891220 375.000000
90.579506 50.502277 375.000000
91.062592 55.071842 377.000000
91.062592 55.686157 377.000000
91.304138 56.449814 378.000000
92.028770 57.518661 381.000000
92.028770 58.139500 381.000000
92.270317 58.914562 382.000000
92.270317 59.537025 382.000000
92.270317 60.159489 382.000000
91.545685 60.304604 379.000000
90.337952 60.118458 374.000000
90.337952 60.727886 374.000000
91.304138 66.304955 378.000000
92.028770 67.452019 381.000000
92.028770 68.072853 381.000000
92.270317 68.873985 382.000000
92.270317 69.496452 382.000000
92.270317 70.118919 382.000000
91.304138 70.000633 378.000000
87.439407 83.554123 362.000000
87.439407 84.143997 362.000000
87.439407 84.733871 362.000000
87.439407 85.323746 362.000000
91.919800 -26.086981 378.000000
91.919800 -25.471033 378.000000
91.919800 -24.855087 378.000000
91.919800 -24.239141 378.000000
92.162979 1.634913 379.000000
92.162979 2.252489 379.000000
92.406151 2.877637 380.000000
92.649323 3.506045 381.000000
92.649323 4.126880 381.000000
92.649323 4.747715 381.000000
92.649323 5.368549 381.000000
92.649323 5.989384 381.000000
92.649323 6.610219 381.000000
92.162979 22.014912 379.000000
92.406151 22.692204 380.000000
92.406151 23.311409 380.000000
92.406151 23.930614 380.000000
91.919800 45.978725 378.000000
91.919800 46.594673 378.000000
91.919800 47.210617 378.000000
91.919800 47.826565 378.000000
91.919800 48.442513 378.000000
91.433456 48.798893 376.000000
91.190285 49.280163 375.000000
91.190285 49.891220 375.000000
91.190285 50.502277 375.000000
91.676628 55.071842 377.000000
91.676628 55.686157 377.000000
91.919800 56.449814 378.000000
91.919800 57.065762 378.000000
91.919800 57.681705 378.000000
92.162979 58.451874 379.000000
92.162979 59.069450 379.000000
92.162979 59.687027 379.000000
92.162979 60.304604 379.000000
90.947105 60.118458 374.000000
90.947105 60.727886 374.000000
91.919800 66.304955 378.000000
91.919800 66.920898 378.000000
91.919800 67.536850 378.000000
91.919800 68.152794 378.000000
91.919800 68.768738 378.000000
91.919800 69.384689 378.000000
91.919800 70.000633 378.000000
88.029015 84.143997 362.000000
88.029015 84.733871 362.000000
88.029015 85.323746 362.000000
88.029015 85.913620 362.000000
88.029015 86.503494 362.000000
91.882660 -32.630558 375.333344
91.882660 -32.018955 375.333344
91.882660 -31.407354 375.333344
92.290665 -27.860918 377.000000
92.290665 -27.246601 377.000000
92.290665 -26.632284 377.000000
92.535461 -26.086981 378.000000
92.535461 -25.471033 378.000000
92.535461 -24.855087 378.000000
92.535461 -24.239141 378.000000
92.045860 -23.498205 376.000000
92.045860 -22.885519 376.000000
90.821846 0.995863 371.000000
92.535461 1.630600 378.000000
92.535461 2.246546 378.000000
92.535461 2.862492 378.000000
92.780273 3.487640 379.000000
92.780273 4.105216 379.000000
93.025070 4.735253 380.000000
93.269875 5.368549 381.000000
93.269875 5.989384 381.000000
93.269875 6.610219 381.000000
92.780273 22.014912 379.000000
92.780273 22.632488 379.000000
92.780273 23.250063 379.000000
92.780273 23.867640 379.000000
92.535461 24.420610 378.000000
92.535461 25.036556 378.000000
92.535461 45.978725 378.000000
92.535461 46.594673 378.000000
92.535461 47.210617 378.000000
92.290665 47.700039 377.000000
92.290665 48.314358 377.000000
92.045860 48.798893 376.000000
91.801056 49.280163 375.000000
91.801056 49.891220 375.000000
91.801056 50.502277 375.000000
91.556252 50.977036 374.000000
91.556252 51.586464 374.000000
92.290665 55.071842 377.000000
92.290665 55.686157 377.000000
92.290665 56.300476 377.000000
92.290665 56.914791 377.000000
92.290665 57.529110 377.000000
92.290665 58.143425 377.000000
92.290665 58.757740 377.000000
92.290665 59.372059 377.000000
91.556252 59.509029 374.000000
91.556252 60.118458 374.000000
91.556252 60.727886 374.000000
91.311455 61.173309 373.000000
91.311455 61.781109 373.000000
92.290665 66.129539 377.000000
92.290665 66.743858 377.000000
92.290665 67.358177 377.000000
92.290665 67.972496 377.000000
92.290665 68.586807 377.000000
92.290665 69.201126 377.000000
92.045860 69.630257 376.000000
88.618622 84.143997 362.000000
88.618622 84.733871 362.000000
88.618622 85.323746 362.000000
88.618622 85.913620 362.000000
88.618622 86.503494 362.000000
92.165405 -34.342922 374.000000
92.165405 -33.733494 374.000000
92.165405 -33.124065 374.000000
92.493980 -32.630558 375.333344
92.493980 -32.018955 375.333344
92.493980 -31.407354 375.333344
91.742363 -30.545502 372.283325
91.742363 -29.938869 372.283325
91.476662 -29.247290 371.205139
91.564796 -28.670012 371.562775
91.564796 -28.064556 371.562775
92.904701 -27.860918 377.000000
92.904701 -27.246601 377.000000
92.904701 -26.632284 377.000000
93.151131 -26.086981 378.000000
93.151131 -25.471033 378.000000
93.151131 -24.855087 378.000000
93.151131 -24.239141 378.000000
92.658264 -23.498205 376.000000
92.658264 -22.885519 376.000000
91.462357 -21.985363 371.147095
91.417732 -21.370152 370.966003
91.417732 -20.765667 370.966003
91.413399 -20.160227 370.948425
91.411682 -19.555405 370.941467
91.408440 -18.950287 370.928284
91.408440 -18.345863 370.928284
91.390099 -17.737883 370.853882
91.345291 -17.125179 370.672058
91.345291 -16.521175 370.672058
91.426109 -15.931252 371.000000
91.426109 -15.326712 371.000000
91.426109 -14.722172 371.000000
91.426109 -14.117632 371.000000
91.179672 -10.462117 370.000000
91.179672 -9.859207 370.000000
91.179672 -9.256296 370.000000
91.179672 -8.653386 370.000000
91.179672 -8.050476 370.000000
91.179672 -7.447566 370.000000
90.933243 -6.826156 369.000000
91.426109 0.995863 371.000000
93.151131 1.630600 378.000000
93.151131 2.246546 378.000000
93.151131 2.862492 378.000000
93.397560 3.487640 379.000000
93.397560 4.105216 379.000000
93.643997 4.735253 380.000000
93.890427 5.368549 381.000000
93.890427 5.989384 381.000000
93.890427 6.610219 381.000000
90.933243 7.003304 369.000000
90.933243 7.604584 369.000000
90.933243 12.414831 369.000000
90.933243 13.016112 369.000000
90.933243 13.617392 369.000000
90.933243 14.218673 369.000000
90.686813 14.779791 368.000000
90.686813 15.379442 368.000000
93.397560 22.014912 379.000000
93.397560 22.632488 379.000000
93.397560 23.250063 379.000000
93.397560 23.867640 379.000000
93.151131 24.420610 378.000000
93.151131 25.036556 378.000000
90.440376 24.906002 367.000000
90.440376 25.504023 367.000000
90.440376 26.102045 367.000000
92.904701 47.085724 377.000000
92.904701 47.700039 377.000000
92.904701 48.314358 377.000000
92.411835 48.669106 375.000000
92.165405 49.148750 374.000000
92.165405 49.758179 374.000000
92.165405 50.367607 374.000000
92.165405 50.977036 374.000000
92.165405 51.586464 374.000000
91.918968 52.056328 373.000000
92.411835 56.612858 375.000000
92.411835 57.223915 375.000000
92.411835 57.834976 375.000000
92.165405 58.290173 374.000000
92.165405 58.899601 374.000000
92.165405 59.509029 374.000000
92.165405 60.118458 374.000000
92.165405 60.727886 374.000000
91.918968 61.173309 373.000000
91.918968 61.781109 373.000000
92.658264 66.566818 376.000000
92.658264 67.179504 376.000000
92.658264 67.792191 376.000000
92.411835 68.222954 375.000000
92.411835 68.834015 375.000000
89.208221 84.143997 362.000000
89.208221 84.733871 362.000000
89.208221 85.323746 362.000000
89.208221 85.913620 362.000000
89.208221 86.503494 362.000000
92.774551 -34.342922 374.000000
92.774551 -33.733494 374.000000
92.774551 -33.124065 374.000000
93.105301 -32.630558 375.333344
93.105301 -32.018955 375.333344
93.105301 -31.407354 375.333344
92.348709 -30.545502 372.283325
92.348709 -29.938869 372.283325
92.081261 -29.247290 371.205139
92.169975 -28.670012 371.562775
92.169975 -28.064556 371.562775
93.518730 -27.860918 377.000000
93.518730 -27.246601 377.000000
93.518730 -26.632284 377.000000
93.518730 -26.017967 377.000000
93.518730 -25.403650 377.000000
93.518730 -24.789333 377.000000
93.270676 -24.110893 376.000000
93.270676 -23.498205 376.000000
93.270676 -22.885519 376.000000
92.066864 -21.985363 371.147095
92.021942 -21.370152 370.966003
92.021942 -20.765667 370.966003
92.017578 -20.160227 370.948425
92.015846 -19.555405 370.941467
92.012581 -18.950287 370.928284
92.012581 -18.345863 370.928284
91.994133 -17.737883 370.853882
91.949020 -17.125179 370.672058
91.949020 -16.521175 370.672058
92.030373 -15.931252 371.000000
92.030373 -15.326712 371.000000
92.030373 -14.722172 371.000000
92.030373 -14.117632 371.000000
91.782310 -10.462117 370.000000
91.782310 -9.859207 370.000000
91.782310 -9.256296 370.000000
91.782310 -8.653386 370.000000
91.782310 -8.050476 370.000000
91.782310 -7.447566 370.000000
91.534248 -6.826156 369.000000
91.534248 -3.819752 369.000000
91.534248 -3.218471 369.000000
91.534248 -2.617190 369.000000
91.534248 -2.015909 369.000000
91.534248 -1.414628 369.000000
91.534248 -0.813348 369.000000
91.534248 -0.212067 369.000000
91.534248 0.389214 369.000000
92.030373 0.995863 371.000000
92.278435 1.604717 372.000000
92.278435 2.210886 372.000000
92.774551 2.832201 374.000000
93.766792 3.478438 378.000000
93.766792 4.094385 378.000000
93.766792 4.710331 378.000000
93.766792 5.326277 378.000000
93.766792 5.942223 378.000000
93.766792 6.558169 378.000000
91.534248 7.003304 369.000000
91.534248 7.604584 369.000000
91.286194 8.183627 368.000000
91.286194 8.783278 368.000000
91.286194 9.382930 368.000000
91.166756 9.969521 367.518524
91.286194 10.582232 368.000000
91.286194 11.181884 368.000000
91.286194 11.781535 368.000000
91.534248 12.414831 369.000000
91.534248 13.016112 369.000000
91.534248 13.617392 369.000000
91.534248 14.218673 369.000000
91.286194 14.779791 368.000000
91.286194 15.379442 368.000000
91.038132 15.935674 367.000000
91.038132 16.533695 367.000000
91.038132 17.131718 367.000000
91.038132 17.729738 367.000000
91.038132 18.327761 367.000000
91.038132 18.925783 367.000000
91.038132 19.523804 367.000000
90.933182 20.098631 366.576935
90.933182 20.695963 366.576935
91.004593 21.310017 366.864807
93.766792 22.572771 378.000000
93.766792 23.188717 378.000000
93.766792 23.804663 378.000000
93.766792 24.420610 378.000000
93.766792 25.036556 378.000000
91.038132 24.906002 367.000000
91.038132 25.504023 367.000000
91.038132 26.102045 367.000000
90.790070 26.627314 366.000000
90.790070 27.223705 366.000000
90.790070 27.820097 366.000000
90.790070 28.416491 366.000000
91.038132 29.092154 367.000000
91.286194 29.771074 368.000000
91.286194 30.370726 368.000000
91.286194 30.970377 368.000000
91.286194 31.570028 368.000000
91.286194 32.169682 368.000000
91.286194 32.769333 368.000000
91.038132 33.278309 367.000000
91.038132 33.876328 367.000000
91.038132 34.474350 367.000000
91.038132 35.072372 367.000000
91.038132 35.670395 367.000000
91.038132 36.268417 367.000000
91.038132 36.866440 367.000000
91.038132 37.464462 367.000000
90.790070 37.958767 366.000000
90.790070 38.555161 366.000000
90.790070 39.151554 366.000000
90.790070 39.747944 366.000000
91.038132 40.454571 367.000000
91.038132 41.052593 367.000000
91.038132 41.650612 367.000000
91.038132 42.248634 367.000000
91.038132 42.846657 367.000000
90.790070 43.326298 366.000000
93.518730 47.085724 377.000000
93.518730 47.700039 377.000000
93.518730 48.314358 377.000000
93.022614 48.669106 375.000000
92.774551 49.148750 374.000000
92.774551 49.758179 374.000000
92.774551 50.367607 374.000000
92.774551 50.977036 374.000000
92.774551 51.586464 374.000000
92.526489 52.056328 373.000000
91.534248 52.099365 369.000000
91.534248 52.700649 369.000000
93.022614 56.612858 375.000000
93.022614 57.223915 375.000000
93.022614 57.834976 375.000000
92.774551 58.290173 374.000000
92.774551 58.899601 374.000000
92.774551 59.509029 374.000000
92.774551 60.118458 374.000000
92.774551 60.727886 374.000000
92.526489 61.173309 373.000000
92.526489 61.781109 373.000000
93.270676 66.566818 376.000000
93.270676 67.179504 376.000000
93.270676 67.792191 376.000000
93.022614 68.222954 375.000000
93.022614 68.834015 375.000000
90.542007 75.919876 365.000000
90.542007 76.514641 365.000000
90.542007 77.109406 365.000000
90.542007 77.704170 365.000000
90.542007 78.298927 365.000000
90.542007 78.893692 365.000000
89.797829 85.323746 362.000000
89.797829 85.913620 362.000000
89.797829 86.503494 362.000000
93.383698 -34.342922 374.000000
93.383698 -33.733494 374.000000
93.383698 -33.124065 374.000000
93.175629 -32.442188 373.166656
93.175629 -31.834120 373.166656
93.121529 -31.207920 372.950012
92.955070 -30.545502 372.283325
92.955070 -29.938869 372.283325
92.871956 -29.306015 371.950470
92.871956 -28.699924 371.950470
92.871956 -28.093840 371.950470
93.383698 -27.639212 374.000000
93.383698 -27.029783 374.000000
93.383698 -26.420355 374.000000
93.383698 -25.810926 374.000000
93.383698 -25.201498 374.000000
93.383698 -24.592070 374.000000
93.134010 -23.918518 373.000000
93.134010 -23.310719 373.000000
93.134010 -22.702921 373.000000
92.671364 -21.985363 371.147095
92.626144 -21.370152 370.966003
92.626144 -20.765667 370.966003
92.621758 -20.160227 370.948425
92.620018 -19.555405 370.941467
92.616730 -18.950287 370.928284
92.616730 -18.345863 370.928284
92.598152 -17.737883 370.853882
92.552750 -17.125179 370.672058
92.552750 -16.521175 370.672058
92.634636 -15.931252 371.000000
92.634636 -15.326712 371.000000
92.634636 -14.722172 371.000000
92.634636 -14.117632 371.000000
92.634636 -13.513092 371.000000
92.634636 -12.908552 371.000000
92.384941 -12.270848 370.000000
92.384941 -11.667938 370.000000
92.384941 -11.065027 370.000000
92.384941 -10.462117 370.000000
92.384941 -9.859207 370.000000
92.384941 -9.256296 370.000000
92.384941 -8.653386 370.000000
92.384941 -8.050476 370.000000
92.384941 -7.447566 370.000000
92.135254 -6.826156 369.000000
92.135254 -6.224875 369.000000
92.135254 -5.623594 369.000000
92.135254 -5.022314 369.000000
92.135254 -4.421033 369.000000
92.135254 -3.819752 369.000000
92.135254 -3.218471 369.000000
92.135254 -2.617190 369.000000
92.135254 -2.015909 369.000000
92.135254 -1.414628 369.000000
92.135254 -0.813348 369.000000
92.135254 -0.212067 369.000000
92.135254 0.389214 369.000000
92.135254 0.990495 369.000000
92.135254 1.591776 369.000000
92.135254 2.193057 369.000000
92.135254 2.794338 369.000000
92.384941 3.404821 370.000000
92.384941 4.007731 370.000000
92.384941 4.610641 370.000000
92.135254 5.199461 369.000000
92.135254 5.800742 369.000000
92.135254 6.402022 369.000000
92.135254 7.003304 369.000000
92.135254 7.604584 369.000000
91.885567 8.183627 368.000000
91.885567 8.783278 368.000000
91.885567 9.382930 368.000000
91.765350 9.969521 367.518524
91.885567 10.582232 368.000000
91.885567 11.181884 368.000000
91.885567 11.781535 368.000000
92.135254 12.414831 369.000000
92.135254 13.016112 369.000000
92.135254 13.617392 369.000000
92.135254 14.218673 369.000000
91.885567 14.779791 368.000000
91.885567 15.379442 368.000000
91.635880 15.935674 367.000000
91.635880 16.533695 367.000000
91.635880 17.131718 367.000000
91.635880 17.729738 367.000000
91.635880 18.327761 367.000000
91.635880 18.925783 367.000000
91.635880 19.523804 367.000000
91.530243 20.098631 366.576935
91.530243 20.695963 366.576935
91.602127 21.310017 366.864807
92.076508 22.021275 368.764709
92.076508 22.622171 368.764709
92.076508 23.223068 368.764709
91.635880 23.709957 367.000000
91.635880 24.307980 367.000000
91.635880 24.906002 367.000000
91.635880 25.504023 367.000000
91.635880 26.102045 367.000000
91.386192 26.627314 366.000000
91.386192 27.223705 366.000000
91.386192 27.820097 366.000000
91.386192 28.416491 366.000000
91.635880 29.092154 367.000000
91.885567 29.771074 368.000000
91.885567 30.370726 368.000000
91.885567 30.970377 368.000000
91.885567 31.570028 368.000000
91.885567 32.169682 368.000000
91.885567 32.769333 368.000000
91.635880 33.278309 367.000000
91.635880 33.876328 367.000000
91.635880 34.474350 367.000000
91.635880 35.072372 367.000000
91.635880 35.670395 367.000000
91.635880 36.268417 367.000000
91.635880 36.866440 367.000000
91.635880 37.464462 367.000000
91.386192 37.958767 366.000000
91.386192 38.555161 366.000000
91.386192 39.151554 366.000000
91.386192 39.747944 366.000000
91.635880 40.454571 367.000000
91.635880 41.052593 367.000000
91.635880 41.650612 367.000000
91.635880 42.248634 367.000000
91.635880 42.846657 367.000000
91.386192 43.326298 366.000000
93.383698 46.711037 374.000000
93.383698 47.320465 374.000000
93.383698 47.929893 374.000000
93.134010 48.409534 373.000000
93.134010 49.017334 373.000000
93.134010 49.625134 373.000000
93.134010 50.232933 373.000000
93.134010 50.840733 373.000000
93.134010 51.448528 373.000000
93.134010 52.056328 373.000000
92.135254 52.099365 369.000000
92.135254 52.700649 369.000000
93.134010 57.526516 373.000000
93.134010 58.134315 373.000000
93.134010 58.742115 373.000000
93.134010 59.349915 373.000000
93.134010 59.957714 373.000000
93.134010 60.565510 373.000000
93.134010 61.173309 373.000000
93.134010 61.781109 373.000000
90.886810 75.118752 364.000000
91.136505 75.919876 365.000000
91.136505 76.514641 365.000000
91.136505 77.109406 365.000000
91.136505 77.704170 365.000000
91.136505 78.298927 365.000000
91.136505 78.893692 365.000000
90.886810 79.270683 364.000000
90.886810 79.863815 364.000000
90.886810 80.456947 364.000000
90.886810 81.050087 364.000000
90.886810 81.643219 364.000000
90.637123 82.010422 363.000000
90.583611 85.508942 362.785706
90.583611 86.100098 362.785706
90.583611 86.691246 362.785706
93.741531 -34.251099 373.000000
93.741531 -33.643299 373.000000
93.741531 -33.035500 373.000000
93.562775 -32.365860 372.288696
93.562775 -31.759220 372.288696
93.562775 -31.152584 372.288696
93.526787 -30.534193 372.145508
93.526787 -29.927788 372.145508
93.477768 -29.306015 371.950470
93.477768 -28.699924 371.950470
93.477768 -28.093840 371.950470
93.741531 -27.565311 373.000000
93.741531 -26.957514 373.000000
93.741531 -26.349712 373.000000
93.741531 -25.741915 373.000000
93.490219 -25.066732 372.000000
93.490219 -24.460562 372.000000
93.490219 -23.854393 372.000000
93.238899 -23.185728 371.000000
93.238899 -22.581188 371.000000
93.238899 -21.976650 371.000000
93.127945 -21.346676 370.558502
93.127945 -20.742855 370.558502
93.127945 -20.139034 370.558502
93.107452 -19.530916 370.476959
93.087708 -18.923216 370.398407
93.087708 -18.319656 370.398407
93.077347 -17.714125 370.357208
93.047737 -17.105190 370.239380
93.047737 -16.501890 370.239380
93.238899 -15.931252 371.000000
93.238899 -15.326712 371.000000
93.238899 -14.722172 371.000000
93.238899 -14.117632 371.000000
93.238899 -13.513092 371.000000
93.238899 -12.908552 371.000000
92.987579 -12.270848 370.000000
92.987579 -11.667938 370.000000
92.987579 -11.065027 370.000000
92.987579 -10.462117 370.000000
92.987579 -9.859207 370.000000
92.987579 -9.256296 370.000000
