38.264542 154.476120 339.000000
38.264542 155.028503 339.000000
38.264542 155.580902 339.000000
38.151669 155.672729 338.000000
38.151669 156.223495 338.000000
38.151669 156.774261 338.000000
38.151669 157.325027 338.000000
38.151669 157.875793 338.000000
38.038792 157.957840 337.000000
38.038792 158.506989 337.000000
38.038792 159.056122 337.000000
37.925915 159.131653 336.000000
37.925915 159.679153 336.000000
37.925915 160.226669 336.000000
37.813042 160.295685 335.000000
37.813042 160.841568 335.000000
37.813042 161.387451 335.000000
37.700165 161.449936 334.000000
37.700165 161.994186 334.000000
37.700165 162.538437 334.000000
37.587292 162.594406 333.000000
37.587292 163.137024 333.000000
37.587292 163.679657 333.000000
37.474415 163.729111 332.000000
37.474415 164.270096 332.000000
37.361542 164.314667 331.000000
37.361542 164.854019 331.000000
37.248669 164.893707 330.000000
37.248669 165.431442 330.000000
37.248669 165.969162 330.000000
37.248669 166.506897 330.000000
37.135796 166.538437 329.000000
37.135796 167.074539 329.000000
37.135796 167.610641 329.000000
37.022919 167.635666 328.000000
37.022919 168.170135 328.000000
36.910046 168.190262 327.000000
36.910046 168.723099 327.000000
36.910046 169.255951 327.000000
36.797169 169.269562 326.000000
36.797169 169.800766 326.000000
36.797169 170.331985 326.000000
36.797169 170.863190 326.000000
36.684296 170.868652 325.000000
36.684296 171.398239 325.000000
36.571419 171.398819 324.000000
36.571419 171.926758 324.000000
36.571419 172.454712 324.000000
36.458546 172.448776 323.000000
36.458546 172.975098 323.000000
36.458546 173.501419 323.000000
36.458546 174.027740 323.000000
36.458546 174.554077 323.000000
36.458546 175.080399 323.000000
36.345669 175.063049 322.000000
36.232796 175.042450 321.000000
36.232796 175.565506 321.000000
36.232796 176.088577 321.000000
36.119923 176.061447 320.000000
36.119923 176.582886 320.000000
36.119923 177.104324 320.000000
36.119923 177.625763 320.000000
36.119923 178.147186 320.000000
36.119923 178.668625 320.000000
36.007046 178.630096 319.000000
36.007046 179.149902 319.000000
36.007046 179.669708 319.000000
35.894173 179.624649 318.000000
35.894173 180.142838 318.000000
35.894173 180.661011 318.000000
35.781296 180.609436 317.000000
35.781296 181.125992 317.000000
35.781296 181.642532 317.000000
35.781296 182.159073 317.000000
35.781296 182.675629 317.000000
35.781296 183.192169 317.000000
35.668423 183.129196 316.000000
35.668423 183.644119 316.000000
35.668423 184.159027 316.000000
35.668423 184.673950 316.000000
35.555546 184.602829 315.000000
35.555546 185.116119 315.000000
35.442673 185.040115 314.000000
35.442673 185.551773 314.000000
35.442673 186.063431 314.000000
35.442673 186.575089 314.000000
35.329796 186.490936 313.000000
35.329796 187.000961 313.000000
35.329796 187.510986 313.000000
35.329796 188.021027 313.000000
35.216923 187.928711 312.000000
35.216923 188.437119 312.000000
35.104046 188.339920 311.000000
35.104046 188.846695 311.000000
35.104046 189.353455 311.000000
35.104046 189.860229 311.000000
35.104046 190.367004 311.000000
35.104046 190.873764 311.000000
34.991173 190.765167 310.000000
34.991173 191.270309 310.000000
34.991173 191.775452 310.000000
34.878300 191.660324 309.000000
34.878300 192.163834 309.000000
34.878300 192.667358 309.000000
34.878300 193.170868 309.000000
34.878300 193.674377 309.000000
34.878300 194.177887 309.000000
34.878300 194.681396 309.000000
34.765427 194.553238 308.000000
34.765427 195.055130 308.000000
34.765427 195.557007 308.000000
34.765427 196.058884 308.000000
34.765427 196.560776 308.000000
34.765427 197.062653 308.000000
34.652550 196.923096 307.000000
34.652550 197.423355 307.000000
34.652550 197.923599 307.000000
34.539677 197.777527 306.000000
34.539677 198.276154 306.000000
34.539677 198.774765 306.000000
34.539677 199.273392 306.000000
34.426800 199.119171 305.000000
34.426800 199.616165 305.000000
34.426800 200.113159 305.000000
34.426800 200.610153 305.000000
34.426800 201.107147 305.000000
34.426800 201.604141 305.000000
34.313927 201.438507 304.000000
34.313927 201.933868 304.000000
34.313927 202.429230 304.000000
34.201050 202.257080 303.000000
34.201050 202.750809 303.000000
34.201050 203.244537 303.000000
34.201050 203.738281 303.000000
34.201050 204.232010 303.000000
34.088173 204.050079 302.000000
34.088173 204.542191 302.000000
34.088173 205.034302 302.000000
34.088173 205.526398 302.000000
34.088173 206.018509 302.000000
34.088173 206.510605 302.000000
34.005272 206.499298 301.265533
34.005272 206.990204 301.265533
34.005272 207.481110 301.265533
33.973354 207.776794 300.982758
33.941200 208.070129 300.697876
33.941200 208.560104 300.697876
33.908894 208.851120 300.411682
33.867855 209.087280 300.048096
33.749550 208.844131 299.000000
33.749550 209.331360 299.000000
33.749550 209.818573 299.000000
44.178501 15.495755 385.826660
44.178501 16.124454 385.826660
44.185966 16.755985 385.891876
44.185966 17.384792 385.891876
44.185966 18.013597 385.891876
44.182232 18.640827 385.859253
44.182232 19.269581 385.859253
44.182232 19.898335 385.859253
44.182232 20.527084 385.859253
44.182232 21.155838 385.859253
44.182232 21.784592 385.859253
44.182232 22.413343 385.859253
44.182232 23.042097 385.859253
44.182232 23.670851 385.859253
44.182232 24.299603 385.859253
44.182232 24.928356 385.859253
44.182606 25.557323 385.862518
44.182606 26.186083 385.862518
44.182606 26.814840 385.862518
44.182270 27.443390 385.859589
44.182270 28.072144 385.859589
44.167572 28.691349 385.731201
44.166580 29.319235 385.722565
44.166580 29.947765 385.722565
44.165493 30.575542 385.713074
44.316898 31.311029 387.035339
44.316898 31.941698 387.035339
44.565102 32.754791 389.202972
44.565102 33.388992 389.202972
44.565102 34.023193 389.202972
44.533867 34.633106 388.930206
44.533867 35.266865 388.930206
44.533867 35.900620 388.930206
44.374928 36.403984 387.542114
44.206593 36.894989 386.072021
44.206593 37.524090 386.072021
43.854836 37.849602 383.000000
43.854836 38.473694 383.000000
43.854836 39.097790 383.000000
43.854836 39.721882 383.000000
43.854836 40.345978 383.000000
43.854836 40.970070 383.000000
43.854836 41.594162 383.000000
43.854836 42.218258 383.000000
43.854836 42.842350 383.000000
43.740334 43.352955 382.000000
43.740334 43.975418 382.000000
43.740334 44.597881 382.000000
43.740334 45.220345 382.000000
43.740334 45.842812 382.000000
43.740334 46.465275 382.000000
43.740334 47.087738 382.000000
43.740334 47.710201 382.000000
43.740334 48.332668 382.000000
43.740334 48.955132 382.000000
43.740334 49.577595 382.000000
43.740334 50.200058 382.000000
43.740334 50.822525 382.000000
43.740334 51.444988 382.000000
43.740334 52.067451 382.000000
43.740334 52.689915 382.000000
43.740334 53.312382 382.000000
43.740334 53.934849 382.000000
43.740334 54.557312 382.000000
43.740334 55.179775 382.000000
43.625832 55.656158 381.000000
43.625832 56.276993 381.000000
43.625832 56.897827 381.000000
43.511330 57.367695 380.000000
43.511330 57.986900 380.000000
43.396824 58.451874 379.000000
43.396824 59.069450 379.000000
43.396824 59.687027 379.000000
43.282322 60.145493 378.000000
43.282322 60.761440 378.000000
43.396824 61.539753 379.000000
43.396824 62.157330 379.000000
43.396824 62.774906 379.000000
43.396824 63.392483 379.000000
43.396824 64.010056 379.000000
43.396824 64.627632 379.000000
43.396824 65.245209 379.000000
43.396824 65.862785 379.000000
43.396824 66.480362 379.000000
41.949219 64.859726 366.357544
41.949219 65.456696 366.357544
41.759647 65.755173 364.701965
41.617271 66.123238 363.458527
41.617271 66.715492 363.458527
41.445274 67.029564 361.956421
40.190723 65.572540 351.000000
40.190723 66.144485 351.000000
40.190723 66.716438 351.000000
40.190723 67.288391 351.000000
40.190723 67.860336 351.000000
40.305229 68.627251 352.000000
40.419735 69.397423 353.000000
40.419735 69.972633 353.000000
40.534237 70.747696 354.000000
40.534237 71.324532 354.000000
40.534237 71.901375 354.000000
40.534237 72.478210 354.000000
40.534237 73.055046 354.000000
40.534237 73.631889 354.000000
40.534237 74.208725 354.000000
40.534237 74.785561 354.000000
40.534237 75.362404 354.000000
40.419735 75.724724 353.000000
40.419735 76.299934 353.000000
40.419735 76.875137 353.000000
40.419735 77.450348 353.000000
40.305229 77.804520 352.000000
40.305229 78.378098 352.000000
40.305229 78.951683 352.000000
40.305229 79.525261 352.000000
40.305229 80.098839 352.000000
40.305229 80.672417 352.000000
40.190723 81.015190 351.000000
40.190723 81.587143 351.000000
40.190723 82.159088 351.000000
40.190723 82.731041 351.000000
40.190723 83.302994 351.000000
40.190723 83.874939 351.000000
40.076221 84.206299 350.000000
40.076221 84.776619 350.000000
40.076221 85.346939 350.000000
40.190723 86.162743 351.000000
40.190723 86.734688 351.000000
40.190723 87.306641 351.000000
40.190723 87.878593 351.000000
40.190723 88.450539 351.000000
40.190723 89.022491 351.000000
40.190723 89.594444 351.000000
40.190723 90.166389 351.000000
40.190723 90.738342 351.000000
40.190723 91.310287 351.000000
40.076221 91.620468 350.000000
40.076221 92.190788 350.000000
40.076221 92.761108 350.000000
40.076221 93.331429 350.000000
40.076221 93.901749 350.000000
40.076221 94.472069 350.000000
39.961720 94.770836 349.000000
39.961720 95.339531 349.000000
39.961720 95.908218 349.000000
39.961720 96.476913 349.000000
39.847218 96.767532 348.000000
39.847218 97.334595 348.000000
39.847218 97.901657 348.000000
39.847218 98.468719 348.000000
39.847218 99.035782 348.000000
39.847218 99.602844 348.000000
39.732712 99.882065 347.000000
39.732712 100.447495 347.000000
39.732712 101.012924 347.000000
39.732712 101.578362 347.000000
39.732712 102.143791 347.000000
39.732712 102.709221 347.000000
39.732712 103.274658 347.000000
39.732712 103.840088 347.000000
39.732712 104.405518 347.000000
39.732712 104.970955 347.000000
39.732712 105.536385 347.000000
39.732712 106.101814 347.000000
39.618210 106.359848 346.000000
39.618210 106.923653 346.000000
39.618210 107.487450 346.000000
39.618210 108.051254 346.000000
39.503704 108.301140 345.000000
39.503704 108.863312 345.000000
39.503704 109.425484 345.000000
39.503704 109.987663 345.000000
39.503704 110.549835 345.000000
39.503704 111.112007 345.000000
39.389202 111.350487 344.000000
39.389202 111.911026 344.000000
39.389202 112.471573 344.000000
39.389202 113.032112 344.000000
39.389202 113.592659 344.000000
39.389202 114.153198 344.000000
39.274696 114.380272 343.000000
39.274696 114.939186 343.000000
39.274696 115.498100 343.000000
39.274696 116.057014 343.000000
39.274696 116.615929 343.000000
39.389202 117.516464 344.000000
39.389202 118.077011 344.000000
39.389202 118.637550 344.000000
39.389202 119.198097 344.000000
39.389202 119.758636 344.000000
39.389202 120.319183 344.000000
39.389202 120.879723 344.000000
39.389202 121.440269 344.000000
39.274696 121.646156 343.000000
39.274696 122.205070 343.000000
39.274696 122.763985 343.000000
39.274696 123.322899 343.000000
39.274696 123.881813 343.000000
39.274696 124.440727 343.000000
39.274696 124.999641 343.000000
39.274696 125.558556 343.000000
39.274696 126.117470 343.000000
39.160194 126.307076 342.000000
39.160194 126.864365 342.000000
39.160194 127.421646 342.000000
39.160194 127.978928 342.000000
39.160194 128.536209 342.000000
39.160194 129.093506 342.000000
39.160194 129.650787 342.000000
39.160194 130.208069 342.000000
39.160194 130.765350 342.000000
39.160194 131.322632 342.000000
39.160194 131.879929 342.000000
39.160194 132.437210 342.000000
39.160194 132.994492 342.000000
39.160194 133.551773 342.000000
39.160194 134.109070 342.000000
39.160194 134.666351 342.000000
39.160194 135.223633 342.000000
39.160194 135.780914 342.000000
39.160194 136.338196 342.000000
39.160194 136.895493 342.000000
39.160194 137.452774 342.000000
39.160194 138.010056 342.000000
39.160194 138.567337 342.000000
39.160194 139.124619 342.000000
39.160194 139.681915 342.000000
39.160194 140.239197 342.000000
39.160194 140.796478 342.000000
39.160194 141.353760 342.000000
39.160194 141.911041 342.000000
39.160194 142.468338 342.000000
39.160194 143.025620 342.000000
39.160194 143.582901 342.000000
39.160194 144.140182 342.000000
39.160194 144.697464 342.000000
39.160194 145.254761 342.000000
39.160194 145.812042 342.000000
39.160194 146.369324 342.000000
39.160194 146.926605 342.000000
39.160194 147.483902 342.000000
39.160194 148.041183 342.000000
39.160194 148.598465 342.000000
39.160194 149.155746 342.000000
39.045692 149.275269 341.000000
39.045692 149.830933 341.000000
39.045692 150.386581 341.000000
39.045692 150.942245 341.000000
38.931190 151.053619 340.000000
38.931190 151.607651 340.000000
38.931190 152.161667 340.000000
38.931190 152.715698 340.000000
38.816685 152.818924 339.000000
38.816685 153.371323 339.000000
38.816685 153.923721 339.000000
38.816685 154.476120 339.000000
38.816685 155.028503 339.000000
38.816685 155.580902 339.000000
38.702183 155.672729 338.000000
38.702183 156.223495 338.000000
38.702183 156.774261 338.000000
38.702183 157.325027 338.000000
38.702183 157.875793 338.000000
38.587677 157.957840 337.000000
38.587677 158.506989 337.000000
38.587677 159.056122 337.000000
38.473171 159.131653 336.000000
38.473171 159.679153 336.000000
38.473171 160.226669 336.000000
38.358669 160.295685 335.000000
38.358669 160.841568 335.000000
38.358669 161.387451 335.000000
38.244167 161.449936 334.000000
38.244167 161.994186 334.000000
38.244167 162.538437 334.000000
38.244167 163.082687 334.000000
38.129665 163.137024 333.000000
38.129665 163.679657 333.000000
38.129665 164.222275 333.000000
38.015160 164.270096 332.000000
38.015160 164.811081 332.000000
38.015160 165.352081 332.000000
37.900658 165.393387 331.000000
37.900658 165.932755 331.000000
37.900658 166.472107 331.000000
37.786152 166.506897 330.000000
37.671650 166.538437 329.000000
37.671650 167.074539 329.000000
37.671650 167.610641 329.000000
37.557144 167.635666 328.000000
37.557144 168.170135 328.000000
37.442642 168.190262 327.000000
37.442642 168.723099 327.000000
37.442642 169.255951 327.000000
37.328140 169.269562 326.000000
37.328140 169.800766 326.000000
37.328140 170.331985 326.000000
37.328140 170.863190 326.000000
37.213638 170.868652 325.000000
37.213638 171.398239 325.000000
37.099133 171.398819 324.000000
37.099133 171.926758 324.000000
37.099133 172.454712 324.000000
36.984631 172.448776 323.000000
36.984631 172.975098 323.000000
36.984631 173.501419 323.000000
36.984631 174.027740 323.000000
36.870125 174.013657 322.000000
36.870125 174.538345 322.000000
36.870125 175.063049 322.000000
36.755623 175.042450 321.000000
36.641117 175.018585 320.000000
36.641117 175.540009 320.000000
36.641117 176.061447 320.000000
36.641117 176.582886 320.000000
36.641117 177.104324 320.000000
36.641117 177.625763 320.000000
36.641117 178.147186 320.000000
36.641117 178.668625 320.000000
36.526611 178.630096 319.000000
36.526611 179.149902 319.000000
36.526611 179.669708 319.000000
36.412113 179.624649 318.000000
36.412113 180.142838 318.000000
36.412113 180.661011 318.000000
36.297607 180.609436 317.000000
36.297607 181.125992 317.000000
36.297607 181.642532 317.000000
36.297607 182.159073 317.000000
36.297607 182.675629 317.000000
36.297607 183.192169 317.000000
36.183105 183.129196 316.000000
36.183105 183.644119 316.000000
36.183105 184.159027 316.000000
36.183105 184.673950 316.000000
36.068600 184.602829 315.000000
36.068600 185.116119 315.000000
35.954098 185.040115 314.000000
35.954098 185.551773 314.000000
35.954098 186.063431 314.000000
35.839592 185.980896 313.000000
35.839592 186.490936 313.000000
35.839592 187.000961 313.000000
35.839592 187.510986 313.000000
35.839592 188.021027 313.000000
35.610584 187.326370 311.000000
35.610584 187.833145 311.000000
35.610584 188.339920 311.000000
35.610584 188.846695 311.000000
35.610584 189.353455 311.000000
35.610584 189.860229 311.000000
35.610584 190.367004 311.000000
35.610584 190.873764 311.000000
35.496086 190.765167 310.000000
35.496086 191.270309 310.000000
35.496086 191.775452 310.000000
35.496086 192.280594 310.000000
35.381580 192.163834 309.000000
35.381580 192.667358 309.000000
35.381580 193.170868 309.000000
35.381580 193.674377 309.000000
35.381580 194.177887 309.000000
35.267078 194.051361 308.000000
35.267078 194.553238 308.000000
35.267078 195.055130 308.000000
35.267078 195.557007 308.000000
35.267078 196.058884 308.000000
35.267078 196.560776 308.000000
35.152573 196.422852 307.000000
35.038071 196.281662 306.000000
35.038071 196.780273 306.000000
35.038071 197.278900 306.000000
35.038071 197.777527 306.000000
35.038071 198.276154 306.000000
35.038071 198.774765 306.000000
35.038071 199.273392 306.000000
34.923565 199.119171 305.000000
34.923565 199.616165 305.000000
34.923565 200.113159 305.000000
34.923565 200.610153 305.000000
34.923565 201.107147 305.000000
34.809063 200.943130 304.000000
34.809063 201.438507 304.000000
34.809063 201.933868 304.000000
34.809063 202.429230 304.000000
34.694557 202.257080 303.000000
34.694557 202.750809 303.000000
34.694557 203.244537 303.000000
34.580055 203.065872 302.000000
34.580055 203.557983 302.000000
34.580055 204.050079 302.000000
34.580055 204.542191 302.000000
34.580055 205.034302 302.000000
34.580055 205.526398 302.000000
34.580055 206.018509 302.000000
34.580055 206.510605 302.000000
34.495956 206.499298 301.265533
34.495956 206.990204 301.265533
34.495956 207.481110 301.265533
34.463577 207.776794 300.982758
34.430958 208.070129 300.697876
34.430958 208.560104 300.697876
34.398190 208.851120 300.411682
34.356556 209.087280 300.048096
34.236546 208.844131 299.000000
34.236546 209.331360 299.000000
34.236546 209.818573 299.000000
44.724277 14.839636 385.115082
44.801373 15.493837 385.778931
44.801373 16.122459 385.778931
44.810318 16.754425 385.855957
44.810318 17.383173 385.855957
44.810318 18.011921 385.855957
44.805843 18.638807 385.817444
44.805843 19.267492 385.817444
44.805843 19.896177 385.817444
44.805843 20.524862 385.817444
44.805843 21.153547 385.817444
44.805843 21.782230 385.817444
44.798279 22.407133 385.752319
44.798279 23.035711 385.752319
44.798279 23.664289 385.752319
45.036522 24.422060 387.803772
45.296703 25.198721 390.044189
45.531609 25.968267 392.066925
45.531609 26.607138 392.066925
45.591080 27.281590 392.579010
45.655121 27.960514 393.130463
45.655121 28.601116 393.130463
45.724091 29.285891 393.724365
45.798367 29.976078 394.363953
45.798367 30.618689 394.363953
45.878815 31.316210 395.056671
45.878815 31.959949 395.056671
45.878815 32.603691 395.056671
45.557415 33.014523 392.289154
45.199009 33.388992 389.202972
45.199009 34.023193 389.202972
45.167336 34.633106 388.930206
45.692184 35.676666 393.449615
45.692184 36.317787 393.449615
45.692184 36.958908 393.449615
45.548687 37.481949 392.213989
45.548687 38.121056 392.213989
45.245827 38.502441 389.606079
45.144936 39.050030 388.737305
45.144936 39.683468 388.737305
45.028805 40.213203 387.737335
44.947071 40.770874 387.033539
44.947071 41.401543 387.033539
44.834763 41.927185 386.066467
44.834763 42.556274 386.066467
44.834763 43.185364 386.066467
44.704151 43.686817 384.941803
44.588348 44.199284 383.944641
44.588348 44.824917 383.944641
44.434772 45.294003 382.622223
44.367424 45.847881 382.042267
44.362514 46.465275 382.000000
44.362514 47.087738 382.000000
44.362514 47.710201 382.000000
44.362514 48.332668 382.000000
44.362514 48.955132 382.000000
44.362514 49.577595 382.000000
44.362514 50.200058 382.000000
44.362514 50.822525 382.000000
44.362514 51.444988 382.000000
44.362514 52.067451 382.000000
44.362514 52.689915 382.000000
44.362514 53.312382 382.000000
44.362514 53.934849 382.000000
44.362514 54.557312 382.000000
44.246380 55.035324 381.000000
44.246380 55.656158 381.000000
44.246380 56.276993 381.000000
44.246380 56.897827 381.000000
44.130249 57.367695 380.000000
44.130249 57.986900 380.000000
44.014118 58.451874 379.000000
44.014118 59.069450 379.000000
44.014118 59.687027 379.000000
43.897987 60.145493 378.000000
43.897987 60.761440 378.000000
44.014118 61.539753 379.000000
44.014118 62.157330 379.000000
44.014118 62.774906 379.000000
44.014118 63.392483 379.000000
44.014118 64.010056 379.000000
44.014118 64.627632 379.000000
44.014118 65.245209 379.000000
44.014118 65.862785 379.000000
44.014118 66.480362 379.000000
42.581230 64.913551 366.661591
42.581230 65.511024 366.661591
42.581230 66.108490 366.661591
42.430546 66.469910 365.364075
42.430546 67.065269 365.364075
42.250294 67.373192 363.811951
42.123756 67.762459 362.722351
42.123756 68.353516 362.722351
41.918507 68.608627 360.954987
40.762413 67.288391 351.000000
40.762413 67.860336 351.000000
40.878548 68.627251 352.000000
40.994682 69.397423 353.000000
40.994682 69.972633 353.000000
41.110813 70.747696 354.000000
41.110813 71.324532 354.000000
41.110813 71.901375 354.000000
41.110813 72.478210 354.000000
41.110813 73.055046 354.000000
41.110813 73.631889 354.000000
41.110813 74.208725 354.000000
41.110813 74.785561 354.000000
41.110813 75.362404 354.000000
40.994682 75.724724 353.000000
40.994682 76.299934 353.000000
40.994682 76.875137 353.000000
40.994682 77.450348 353.000000
40.878548 77.804520 352.000000
40.878548 78.378098 352.000000
40.878548 78.951683 352.000000
40.878548 79.525261 352.000000
40.878548 80.098839 352.000000
40.878548 80.672417 352.000000
40.762413 81.015190 351.000000
40.762413 81.587143 351.000000
40.762413 82.159088 351.000000
40.762413 82.731041 351.000000
40.762413 83.302994 351.000000
40.762413 83.874939 351.000000
40.646282 84.206299 350.000000
40.646282 84.776619 350.000000
40.646282 85.346939 350.000000
40.762413 86.162743 351.000000
40.762413 86.734688 351.000000
40.762413 87.306641 351.000000
40.762413 87.878593 351.000000
40.762413 88.450539 351.000000
40.762413 89.022491 351.000000
40.762413 89.594444 351.000000
40.762413 90.166389 351.000000
40.762413 90.738342 351.000000
40.762413 91.310287 351.000000
40.646282 91.620468 350.000000
40.646282 92.190788 350.000000
40.646282 92.761108 350.000000
40.646282 93.331429 350.000000
40.646282 93.901749 350.000000
40.646282 94.472069 350.000000
40.530148 94.770836 349.000000
40.530148 95.339531 349.000000
40.530148 95.908218 349.000000
40.530148 96.476913 349.000000
40.414017 96.767532 348.000000
40.414017 97.334595 348.000000
40.414017 97.901657 348.000000
40.414017 98.468719 348.000000
40.414017 99.035782 348.000000
40.414017 99.602844 348.000000
40.297886 99.882065 347.000000
40.297886 100.447495 347.000000
40.297886 101.012924 347.000000
40.297886 101.578362 347.000000
40.297886 102.143791 347.000000
40.297886 102.709221 347.000000
40.297886 103.274658 347.000000
40.297886 103.840088 347.000000
40.297886 104.405518 347.000000
40.297886 104.970955 347.000000
40.297886 105.536385 347.000000
40.297886 106.101814 347.000000
40.297886 106.667252 347.000000
40.297886 107.232681 347.000000
40.297886 107.798111 347.000000
40.297886 108.363541 347.000000
40.181755 108.615059 346.000000
40.181755 109.178864 346.000000
40.181755 109.742661 346.000000
40.181755 110.306465 346.000000
40.181755 110.870270 346.000000
40.181755 111.434074 346.000000
40.181755 111.997871 346.000000
40.181755 112.561676 346.000000
40.181755 113.125481 346.000000
40.181755 113.689285 346.000000
40.181755 114.253082 346.000000
40.181755 114.816887 346.000000
40.065620 115.047218 345.000000
40.065620 115.609390 345.000000
40.065620 116.171562 345.000000
40.065620 116.733734 345.000000
40.065620 117.295914 345.000000
39.949490 117.516464 344.000000
39.949490 118.077011 344.000000
39.949490 118.637550 344.000000
39.949490 119.198097 344.000000
39.949490 119.758636 344.000000
39.949490 120.319183 344.000000
39.949490 120.879723 344.000000
39.949490 121.440269 344.000000
39.949490 122.000816 344.000000
39.949490 122.561356 344.000000
39.949490 123.121902 344.000000
39.949490 123.682442 344.000000
39.949490 124.242989 344.000000
39.833355 124.440727 343.000000
39.833355 124.999641 343.000000
39.833355 125.558556 343.000000
39.833355 126.117470 343.000000
39.833355 126.676384 343.000000
39.833355 127.235298 343.000000
39.833355 127.794212 343.000000
39.833355 128.353134 343.000000
39.833355 128.912048 343.000000
39.833355 129.470963 343.000000
39.833355 130.029877 343.000000
39.833355 130.588791 343.000000
39.833355 131.147705 343.000000
39.833355 131.706619 343.000000
39.833355 132.265533 343.000000
39.717224 132.437210 342.000000
39.717224 132.994492 342.000000
39.717224 133.551773 342.000000
39.833355 134.501190 343.000000
39.833355 135.060104 343.000000
39.833355 135.619019 343.000000
39.833355 136.177933 343.000000
39.833355 136.736847 343.000000
39.833355 137.295761 343.000000
39.833355 137.854675 343.000000
39.833355 138.413589 343.000000
39.833355 138.972504 343.000000
39.833355 139.531418 343.000000
39.833355 140.090332 343.000000
39.833355 140.649246 343.000000
39.833355 141.208160 343.000000
39.833355 141.767075 343.000000
39.833355 142.325989 343.000000
39.833355 142.884903 343.000000
39.833355 143.443817 343.000000
39.833355 144.002731 343.000000
39.833355 144.561646 343.000000
39.833355 145.120560 343.000000
39.833355 145.679474 343.000000
39.833355 146.238388 343.000000
39.833355 146.797302 343.000000
39.833355 147.356216 343.000000
39.833355 147.915131 343.000000
39.833355 148.474045 343.000000
39.833355 149.032959 343.000000
39.833355 149.591873 343.000000
39.717224 149.713028 342.000000
39.717224 150.270325 342.000000
39.717224 150.827606 342.000000
39.717224 151.384888 342.000000
39.717224 151.942169 342.000000
39.601093 152.053543 341.000000
39.601093 152.609207 341.000000
39.601093 153.164856 341.000000
39.484962 153.269714 340.000000
39.484962 153.823746 340.000000
39.484962 154.377777 340.000000
39.484962 154.931793 340.000000
39.484962 155.485825 340.000000
39.484962 156.039856 340.000000
39.368828 156.133301 339.000000
39.368828 156.685699 339.000000
39.368828 157.238098 339.000000
39.368828 157.790497 339.000000
39.368828 158.342880 339.000000
39.252697 158.426559 338.000000
39.136562 158.506989 337.000000
39.136562 159.056122 337.000000
39.136562 159.605255 337.000000
39.020432 159.679153 336.000000
39.020432 160.226669 336.000000
39.020432 160.774170 336.000000
38.904301 160.841568 335.000000
38.904301 161.387451 335.000000
38.904301 161.933319 335.000000
38.788166 161.994186 334.000000
38.788166 162.538437 334.000000
38.788166 163.082687 334.000000
38.672035 163.137024 333.000000
38.672035 163.679657 333.000000
38.672035 164.222275 333.000000
38.555901 164.270096 332.000000
38.555901 164.811081 332.000000
38.555901 165.352081 332.000000
38.439770 165.393387 331.000000
38.439770 165.932755 331.000000
38.439770 166.472107 331.000000
38.323635 166.506897 330.000000
38.207508 166.538437 329.000000
38.207508 167.074539 329.000000
38.207508 167.610641 329.000000
38.091373 167.635666 328.000000
38.091373 168.170135 328.000000
37.975243 168.190262 327.000000
37.975243 168.723099 327.000000
37.975243 169.255951 327.000000
37.859108 169.269562 326.000000
37.859108 169.800766 326.000000
37.859108 170.331985 326.000000
37.859108 170.863190 326.000000
37.742977 170.868652 325.000000
37.742977 171.398239 325.000000
37.626842 171.398819 324.000000
37.626842 171.926758 324.000000
37.626842 172.454712 324.000000
37.510712 172.448776 323.000000
37.510712 172.975098 323.000000
37.510712 173.501419 323.000000
37.510712 174.027740 323.000000
37.394581 174.013657 322.000000
37.394581 174.538345 322.000000
37.394581 175.063049 322.000000
37.278450 175.042450 321.000000
37.162315 175.018585 320.000000
37.162315 175.540009 320.000000
37.162315 176.061447 320.000000
37.162315 176.582886 320.000000
37.162315 177.104324 320.000000
37.162315 177.625763 320.000000
37.162315 178.147186 320.000000
37.162315 178.668625 320.000000
37.046181 178.630096 319.000000
37.046181 179.149902 319.000000
37.046181 179.669708 319.000000
36.930050 179.624649 318.000000
36.930050 180.142838 318.000000
36.930050 180.661011 318.000000
36.813919 180.609436 317.000000
36.813919 181.125992 317.000000
36.813919 181.642532 317.000000
36.813919 182.159073 317.000000
36.813919 182.675629 317.000000
36.813919 183.192169 317.000000
36.707462 183.177490 316.083344
36.697788 183.644119 316.000000
36.697788 184.159027 316.000000
36.581654 184.089539 315.000000
36.581654 184.602829 315.000000
36.581654 185.116119 315.000000
36.465523 185.040115 314.000000
36.465523 185.551773 314.000000
36.465523 186.063431 314.000000
36.349388 185.980896 313.000000
36.349388 186.490936 313.000000
36.349388 187.000961 313.000000
36.349388 187.510986 313.000000
36.349388 188.021027 313.000000
36.117126 187.326370 311.000000
36.117126 187.833145 311.000000
36.117126 188.339920 311.000000
36.117126 188.846695 311.000000
36.117126 189.353455 311.000000
36.117126 189.860229 311.000000
36.117126 190.367004 311.000000
36.117126 190.873764 311.000000
36.000996 190.765167 310.000000
36.000996 191.270309 310.000000
36.000996 191.775452 310.000000
36.000996 192.280594 310.000000
35.884861 192.163834 309.000000
35.884861 192.667358 309.000000
35.884861 193.170868 309.000000
35.884861 193.674377 309.000000
35.884861 194.177887 309.000000
35.768730 194.051361 308.000000
35.768730 194.553238 308.000000
35.768730 195.055130 308.000000
35.768730 195.557007 308.000000
35.768730 196.058884 308.000000
35.768730 196.560776 308.000000
35.652596 196.422852 307.000000
35.536465 196.281662 306.000000
35.536465 196.780273 306.000000
35.536465 197.278900 306.000000
35.536465 197.777527 306.000000
35.536465 198.276154 306.000000
35.536465 198.774765 306.000000
35.420330 198.622177 305.000000
35.420330 199.119171 305.000000
35.420330 199.616165 305.000000
35.420330 200.113159 305.000000
35.420330 200.610153 305.000000
35.420330 201.107147 305.000000
35.304203 200.943130 304.000000
35.304203 201.438507 304.000000
35.304203 201.933868 304.000000
35.188068 201.763336 303.000000
35.188068 202.257080 303.000000
35.188068 202.750809 303.000000
35.071934 202.573776 302.000000
35.071934 203.065872 302.000000
35.071934 203.557983 302.000000
35.071934 204.050079 302.000000
35.071934 204.542191 302.000000
35.071934 205.034302 302.000000
35.071934 205.526398 302.000000
34.955803 205.336319 301.000000
34.955803 205.826797 301.000000
34.955803 206.317276 301.000000
34.913101 206.555115 300.632294
34.913101 207.044998 300.632294
34.913101 207.534866 300.632294
34.880016 207.827621 300.347412
34.880016 208.317032 300.347412
34.843643 208.588699 300.034210
34.804474 208.842575 299.696930
34.723537 208.844131 299.000000
34.723537 209.331360 299.000000
34.723537 209.818573 299.000000
45.351528 14.839636 385.115082
45.420937 15.490848 385.704468
45.420937 16.119347 385.704468
45.420937 16.747849 385.704468
45.386234 17.363073 385.409790
45.386234 17.991093 385.409790
45.386234 18.619114 385.409790
45.386234 19.247133 385.409790
45.386234 19.875154 385.409790
45.386234 20.503174 385.409790
45.385372 21.130796 385.402496
45.385372 21.758804 385.402496
45.385372 22.386812 385.402496
45.691292 23.169950 388.000275
45.691292 23.802193 388.000275
45.691292 24.434433 388.000275
45.931984 25.198721 390.044189
46.170185 25.968267 392.066925
46.170185 26.607138 392.066925
46.230488 27.281590 392.579010
46.295425 27.960514 393.130463
46.295425 28.601116 393.130463
46.365368 29.285891 393.724365
46.440685 29.976078 394.363953
46.440685 30.618689 394.363953
46.522259 31.316210 395.056671
46.522259 31.959949 395.056671
46.522259 32.603691 395.056671
48.517525 34.673359 412.000000
48.517525 35.344707 412.000000
48.517525 36.016056 412.000000
48.517525 36.687405 412.000000
48.517525 37.358753 412.000000
48.517525 38.030102 412.000000
46.333012 36.958908 393.449615
46.187504 37.481949 392.213989
46.187504 38.121056 392.213989
45.880394 38.502441 389.606079
45.778084 39.050030 388.737305
45.778084 39.683468 388.737305
45.939877 40.459400 390.111206
45.939877 41.095081 390.111206
45.939877 41.730762 390.111206
45.799381 42.236877 388.918152
45.719482 42.795826 388.239655
45.719482 43.428459 388.239655
45.564850 43.912067 386.926575
45.454208 44.434399 385.987000
45.298416 44.908909 384.664063
45.298416 45.535713 384.664063
45.160934 46.022415 383.496613
44.984695 46.465275 382.000000
44.984695 47.087738 382.000000
44.984695 47.710201 382.000000
44.984695 48.332668 382.000000
44.984695 48.955132 382.000000
44.984695 49.577595 382.000000
44.984695 50.200058 382.000000
44.984695 50.822525 382.000000
44.984695 51.444988 382.000000
44.984695 52.067451 382.000000
44.984695 52.689915 382.000000
44.984695 53.312382 382.000000
44.866932 53.793655 381.000000
44.866932 54.414490 381.000000
44.866932 55.035324 381.000000
44.866932 55.656158 381.000000
44.866932 56.276993 381.000000
44.866932 56.897827 381.000000
44.749172 57.367695 380.000000
44.749172 57.986900 380.000000
44.631409 58.451874 379.000000
44.631409 59.069450 379.000000
44.631409 59.687027 379.000000
44.631409 60.304604 379.000000
44.631409 60.922180 379.000000
44.631409 61.539753 379.000000
44.631409 62.157330 379.000000
44.631409 62.774906 379.000000
44.631409 63.392483 379.000000
44.631409 64.010056 379.000000
44.631409 64.627632 379.000000
44.631409 65.245209 379.000000
44.631409 65.862785 379.000000
44.631409 66.480362 379.000000
44.631409 67.097939 379.000000
44.631409 67.715508 379.000000
43.178429 66.108490 366.661591
43.025631 66.469910 365.364075
43.025631 67.065269 365.364075
42.842850 67.373192 363.811951
42.714539 67.762459 362.722351
42.714539 68.353516 362.722351
42.511913 68.617516 361.001709
42.511913 69.205757 361.001709
42.511913 69.794014 361.001709
42.331078 70.082863 359.466064
42.233620 70.505913 358.638489
42.233620 71.090309 358.638489
41.687386 70.747696 354.000000
41.687386 71.324532 354.000000
41.687386 71.901375 354.000000
41.687386 72.478210 354.000000
41.687386 73.055046 354.000000
41.687386 73.631889 354.000000
41.687386 74.208725 354.000000
41.687386 74.785561 354.000000
41.687386 75.362404 354.000000
41.687386 75.939240 354.000000
41.687386 76.516083 354.000000
41.687386 77.092918 354.000000
41.687386 77.669754 354.000000
41.569626 78.025558 353.000000
41.569626 78.600769 353.000000
41.569626 79.175980 353.000000
41.569626 79.751183 353.000000
41.451862 80.098839 352.000000
41.451862 80.672417 352.000000
41.451862 81.245995 352.000000
41.451862 81.819580 352.000000
41.451862 82.393158 352.000000
41.451862 82.966736 352.000000
41.334103 83.302994 351.000000
41.334103 83.874939 351.000000
41.334103 84.446892 351.000000
41.334103 85.018837 351.000000
41.334103 85.590790 351.000000
41.334103 86.162743 351.000000
41.334103 86.734688 351.000000
41.334103 87.306641 351.000000
41.334103 87.878593 351.000000
41.334103 88.450539 351.000000
41.334103 89.022491 351.000000
41.334103 89.594444 351.000000
41.334103 90.166389 351.000000
41.334103 90.738342 351.000000
41.334103 91.310287 351.000000
41.334103 91.882240 351.000000
41.216343 92.190788 350.000000
41.216343 92.761108 350.000000
41.216343 93.331429 350.000000
41.216343 93.901749 350.000000
41.216343 94.472069 350.000000
41.216343 95.042389 350.000000
41.098579 95.339531 349.000000
41.098579 95.908218 349.000000
41.098579 96.476913 349.000000
40.980820 96.767532 348.000000
40.980820 97.334595 348.000000
40.980820 97.901657 348.000000
40.980820 98.468719 348.000000
40.980820 99.035782 348.000000
40.980820 99.602844 348.000000
40.980820 100.169899 348.000000
40.980820 100.736961 348.000000
40.980820 101.304024 348.000000
40.980820 101.871086 348.000000
40.980820 102.438148 348.000000
40.980820 103.005211 348.000000
40.980820 103.572273 348.000000
40.980820 104.139336 348.000000
40.863056 104.405518 347.000000
40.863056 104.970955 347.000000
40.863056 105.536385 347.000000
40.863056 106.101814 347.000000
40.863056 106.667252 347.000000
40.863056 107.232681 347.000000
40.863056 107.798111 347.000000
40.863056 108.363541 347.000000
40.745300 108.615059 346.000000
40.745300 109.178864 346.000000
40.745300 109.742661 346.000000
40.745300 110.306465 346.000000
40.745300 110.870270 346.000000
40.745300 111.434074 346.000000
40.745300 111.997871 346.000000
40.745300 112.561676 346.000000
40.745300 113.125481 346.000000
40.745300 113.689285 346.000000
40.745300 114.253082 346.000000
40.745300 114.816887 346.000000
40.627537 115.047218 345.000000
40.627537 115.609390 345.000000
40.627537 116.171562 345.000000
40.627537 116.733734 345.000000
40.627537 117.295914 345.000000
40.509777 117.516464 344.000000
40.509777 118.077011 344.000000
40.509777 118.637550 344.000000
40.509777 119.198097 344.000000
40.509777 119.758636 344.000000
40.509777 120.319183 344.000000
40.509777 120.879723 344.000000
40.509777 121.440269 344.000000
40.509777 122.000816 344.000000
40.509777 122.561356 344.000000
40.509777 123.121902 344.000000
40.509777 123.682442 344.000000
40.509777 124.242989 344.000000
40.392014 124.440727 343.000000
40.392014 124.999641 343.000000
40.392014 125.558556 343.000000
40.392014 126.117470 343.000000
40.392014 126.676384 343.000000
40.392014 127.235298 343.000000
40.392014 127.794212 343.000000
40.392014 128.353134 343.000000
40.392014 128.912048 343.000000
40.392014 129.470963 343.000000
40.392014 130.029877 343.000000
40.392014 130.588791 343.000000
40.392014 131.147705 343.000000
40.392014 131.706619 343.000000
40.392014 132.265533 343.000000
40.274254 132.437210 342.000000
40.274254 132.994492 342.000000
40.274254 133.551773 342.000000
40.392014 134.501190 343.000000
40.392014 135.060104 343.000000
40.392014 135.619019 343.000000
40.392014 136.177933 343.000000
40.392014 136.736847 343.000000
40.392014 137.295761 343.000000
40.392014 137.854675 343.000000
40.392014 138.413589 343.000000
40.392014 138.972504 343.000000
40.392014 139.531418 343.000000
40.392014 140.090332 343.000000
40.392014 140.649246 343.000000
40.392014 141.208160 343.000000
40.392014 141.767075 343.000000
40.392014 142.325989 343.000000
40.392014 142.884903 343.000000
40.392014 143.443817 343.000000
40.392014 144.002731 343.000000
40.392014 144.561646 343.000000
40.392014 145.120560 343.000000
40.392014 145.679474 343.000000
40.392014 146.238388 343.000000
40.392014 146.797302 343.000000
40.392014 147.356216 343.000000
40.392014 147.915131 343.000000
40.392014 148.474045 343.000000
40.392014 149.032959 343.000000
40.392014 149.591873 343.000000
40.274254 149.713028 342.000000
40.274254 150.270325 342.000000
40.274254 150.827606 342.000000
40.274254 151.384888 342.000000
40.274254 151.942169 342.000000
40.274254 152.499451 342.000000
40.274254 153.056747 342.000000
40.274254 153.614029 342.000000
40.156494 153.720520 341.000000
40.156494 154.276169 341.000000
40.156494 154.831833 341.000000
40.156494 155.387482 341.000000
40.156494 155.943130 341.000000
40.038734 156.039856 340.000000
40.038734 156.593872 340.000000
40.038734 157.147903 340.000000
39.920971 157.238098 339.000000
39.920971 157.790497 339.000000
39.920971 158.342880 339.000000
39.920971 158.895279 339.000000
39.920971 159.447678 339.000000
39.920971 160.000076 339.000000
39.685448 159.605255 337.000000
39.685448 160.154388 337.000000
39.685448 160.703537 337.000000
39.567688 160.774170 336.000000
39.567688 161.321686 336.000000
39.567688 161.869186 336.000000
39.449928 161.933319 335.000000
39.449928 162.479202 335.000000
39.449928 163.025085 335.000000
39.332165 163.082687 334.000000
39.214405 163.137024 333.000000
39.214405 163.679657 333.000000
39.214405 164.222275 333.000000
39.214405 164.764893 333.000000
39.096642 164.811081 332.000000
39.096642 165.352081 332.000000
39.096642 165.893066 332.000000
38.978886 165.932755 331.000000
38.978886 166.472107 331.000000
38.861122 166.506897 330.000000
38.861122 167.044632 330.000000
38.861122 167.582367 330.000000
38.743362 167.610641 329.000000
38.625599 167.635666 328.000000
38.625599 168.170135 328.000000
38.507839 168.190262 327.000000
38.507839 168.723099 327.000000
38.507839 169.255951 327.000000
38.390079 169.269562 326.000000
38.390079 169.800766 326.000000
38.390079 170.331985 326.000000
38.390079 170.863190 326.000000
38.272320 170.868652 325.000000
38.272320 171.398239 325.000000
38.154556 171.398819 324.000000
38.154556 171.926758 324.000000
38.154556 172.454712 324.000000
38.036797 172.448776 323.000000
38.036797 172.975098 323.000000
38.036797 173.501419 323.000000
38.036797 174.027740 323.000000
37.919033 174.013657 322.000000
37.919033 174.538345 322.000000
37.919033 175.063049 322.000000
37.801273 175.042450 321.000000
37.801273 175.565506 321.000000
37.801273 176.088577 321.000000
37.683514 176.061447 320.000000
37.683514 176.582886 320.000000
37.683514 177.104324 320.000000
37.683514 177.625763 320.000000
37.683514 178.147186 320.000000
37.683514 178.668625 320.000000
37.565750 178.630096 319.000000
37.565750 179.149902 319.000000
37.565750 179.669708 319.000000
37.447990 179.624649 318.000000
37.447990 180.142838 318.000000
37.447990 180.661011 318.000000
37.330227 180.609436 317.000000
37.330227 181.125992 317.000000
37.330227 181.642532 317.000000
37.330227 182.159073 317.000000
37.330227 182.675629 317.000000
37.330227 183.192169 317.000000
37.222282 183.177490 316.083344
37.174541 183.456940 315.677917
37.174541 183.971344 315.677917
37.094707 184.089539 315.000000
36.976948 184.016800 314.000000
36.976948 184.528458 314.000000
36.976948 185.040115 314.000000
36.976948 185.551773 314.000000
36.976948 186.063431 314.000000
36.859184 185.980896 313.000000
36.859184 186.490936 313.000000
36.859184 187.000961 313.000000
36.859184 187.510986 313.000000
36.741425 187.420319 312.000000
36.623665 187.326370 311.000000
36.623665 187.833145 311.000000
36.623665 188.339920 311.000000
36.623665 188.846695 311.000000
36.623665 189.353455 311.000000
36.623665 189.860229 311.000000
36.623665 190.367004 311.000000
36.623665 190.873764 311.000000
36.505905 190.765167 310.000000
36.505905 191.270309 310.000000
36.505905 191.775452 310.000000
36.505905 192.280594 310.000000
36.388142 192.163834 309.000000
36.388142 192.667358 309.000000
36.388142 193.170868 309.000000
36.270382 193.047592 308.000000
36.270382 193.549484 308.000000
36.270382 194.051361 308.000000
36.270382 194.553238 308.000000
36.270382 195.055130 308.000000
36.270382 195.557007 308.000000
36.270382 196.058884 308.000000
36.270382 196.560776 308.000000
36.152618 196.422852 307.000000
36.034859 196.281662 306.000000
36.034859 196.780273 306.000000
36.034859 197.278900 306.000000
36.034859 197.777527 306.000000
36.034859 198.276154 306.000000
36.034859 198.774765 306.000000
35.917099 198.622177 305.000000
35.917099 199.119171 305.000000
35.917099 199.616165 305.000000
35.917099 200.113159 305.000000
35.917099 200.610153 305.000000
35.917099 201.107147 305.000000
35.799339 200.943130 304.000000
35.799339 201.438507 304.000000
35.799339 201.933868 304.000000
35.681576 201.763336 303.000000
35.681576 202.257080 303.000000
35.681576 202.750809 303.000000
35.563812 202.573776 302.000000
35.563812 203.065872 302.000000
35.563812 203.557983 302.000000
35.563812 204.050079 302.000000
35.563812 204.542191 302.000000
35.563812 205.034302 302.000000
35.446056 204.845840 301.000000
35.446056 205.336319 301.000000
35.446056 205.826797 301.000000
35.446056 206.317276 301.000000
35.328293 206.120697 300.000000
35.328293 206.609543 300.000000
35.328293 207.098389 300.000000
35.328293 207.587234 300.000000
35.328293 208.076080 300.000000
35.210533 207.869705 299.000000
35.210533 208.356918 299.000000
35.210533 208.844131 299.000000
35.210533 209.331360 299.000000
35.210533 209.818573 299.000000
45.978783 14.839636 385.115082
46.049149 15.490848 385.704468
46.049149 16.119347 385.704468
46.049149 16.747849 385.704468
46.013966 17.363073 385.409790
46.013966 17.991093 385.409790
46.013966 18.619114 385.409790
46.013966 19.247133 385.409790
46.013966 19.875154 385.409790
46.013966 20.503174 385.409790
46.013096 21.130796 385.402496
46.013096 21.758804 385.402496
46.013096 22.386812 385.402496
46.323242 23.169950 388.000275
46.323242 23.802193 388.000275
46.562019 24.560383 390.000244
46.810184 25.330172 392.078857
47.034561 26.093536 393.958221
47.034561 26.735485 393.958221
47.246807 27.500978 395.735962
47.329601 28.195147 396.429443
47.329601 28.841124 396.429443
47.417915 29.542122 397.169159
47.512119 30.249281 397.958221
47.512119 30.897751 397.958221
47.612602 31.612932 398.799835
47.612602 32.262772 398.799835
47.612602 32.912613 398.799835
49.188564 34.673359 412.000000
49.188564 35.344707 412.000000
49.188564 36.016056 412.000000
49.188564 36.687405 412.000000
49.188564 37.358753 412.000000
49.188564 38.030102 412.000000
47.197205 37.134655 395.320526
47.197205 37.778824 395.320526
47.197205 38.422993 395.320526
46.933971 38.849270 393.115662
46.816788 39.391254 392.134155
46.816788 40.030228 392.134155
46.675434 40.546417 390.950195
46.575268 41.095081 390.111206
46.575268 41.730762 390.111206
46.432831 42.236877 388.918152
46.351822 42.795826 388.239655
46.351822 43.428459 388.239655
46.195057 43.912067 386.926575
46.082878 44.434399 385.987000
45.924934 44.908909 384.664063
45.924934 45.535713 384.664063
45.785553 46.022415 383.496613
45.606873 46.465275 382.000000
45.606873 47.087738 382.000000
45.606873 47.710201 382.000000
45.606873 48.332668 382.000000
45.606873 48.955132 382.000000
45.606873 49.577595 382.000000
45.606873 50.200058 382.000000
45.606873 50.822525 382.000000
45.606873 51.444988 382.000000
45.606873 52.067451 382.000000
45.606873 52.689915 382.000000
45.606873 53.312382 382.000000
45.487480 53.793655 381.000000
45.487480 54.414490 381.000000
45.487480 55.035324 381.000000
45.487480 55.656158 381.000000
45.487480 56.276993 381.000000
45.487480 56.897827 381.000000
45.368095 57.367695 380.000000
45.368095 57.986900 380.000000
45.248703 58.451874 379.000000
45.248703 59.069450 379.000000
45.248703 59.687027 379.000000
45.248703 60.304604 379.000000
45.248703 60.922180 379.000000
45.248703 61.539753 379.000000
45.248703 62.157330 379.000000
45.248703 62.774906 379.000000
45.248703 63.392483 379.000000
45.248703 64.010056 379.000000
45.248703 64.627632 379.000000
45.248703 65.245209 379.000000
45.248703 65.862785 379.000000
45.248703 66.480362 379.000000
45.248703 67.097939 379.000000
45.248703 67.715508 379.000000
45.248703 68.333084 379.000000
45.129314 68.768738 378.000000
45.129314 69.384689 378.000000
43.753319 67.866310 366.474762
43.601910 68.226555 365.206573
43.601910 68.821655 365.206573
43.382256 69.067047 363.366760
43.099892 69.205757 361.001709
43.099892 69.794014 361.001709
42.916550 70.082863 359.466064
42.817749 70.505913 358.638489
42.817749 71.090309 358.638489
42.263962 70.747696 354.000000
42.263962 71.324532 354.000000
42.263962 71.901375 354.000000
42.263962 72.478210 354.000000
42.383350 73.261414 355.000000
42.383350 73.839882 355.000000
42.383350 74.418350 355.000000
42.383350 74.996819 355.000000
42.383350 75.575287 355.000000
42.383350 76.153755 355.000000
42.263962 76.516083 354.000000
42.263962 77.092918 354.000000
42.263962 77.669754 354.000000
42.263962 78.246597 354.000000
42.144573 78.600769 353.000000
42.144573 79.175980 353.000000
42.144573 79.751183 353.000000
42.144573 80.326393 353.000000
42.144573 80.901604 353.000000
42.025181 81.245995 352.000000
42.025181 81.819580 352.000000
42.025181 82.393158 352.000000
42.025181 82.966736 352.000000
42.025181 83.540314 352.000000
42.025181 84.113899 352.000000
41.905788 84.446892 351.000000
41.905788 85.018837 351.000000
41.905788 85.590790 351.000000
41.905788 86.162743 351.000000
41.905788 86.734688 351.000000
41.905788 87.306641 351.000000
41.905788 87.878593 351.000000
41.905788 88.450539 351.000000
41.905788 89.022491 351.000000
41.905788 89.594444 351.000000
41.905788 90.166389 351.000000
41.905788 90.738342 351.000000
41.905788 91.310287 351.000000
41.905788 91.882240 351.000000
41.905788 92.454193 351.000000
41.905788 93.026138 351.000000
41.786404 93.331429 350.000000
41.786404 93.901749 350.000000
41.786404 94.472069 350.000000
