40.773102 30.845228 366.512939
40.766388 31.437283 366.452606
40.766388 32.034409 366.452606
40.756763 32.623837 366.366058
40.751839 33.216808 366.321808
40.751839 33.813728 366.321808
40.746220 34.405899 366.271301
40.716038 34.976807 366.000000
40.716038 35.573200 366.000000
40.721962 36.174850 366.053223
40.721962 36.771332 366.053223
40.721962 37.367813 366.053223
40.716557 37.959251 366.004639
40.711933 38.551270 365.963074
40.711933 39.147602 365.963074
40.707638 39.739742 365.924469
40.697838 40.326305 365.836395
40.697838 40.922428 365.836395
40.684338 41.504780 365.715027
40.691116 42.107723 365.775940
40.691116 42.703751 365.775940
40.691116 43.299774 365.775940
40.683590 43.887688 365.708313
40.681992 44.481857 365.693939
40.681992 45.077751 365.693939
40.676559 45.667542 365.645081
40.674267 46.260754 365.624512
40.674267 46.856533 365.624512
40.666573 47.443336 365.555328
40.661560 48.033085 365.510284
40.661560 48.628681 365.510284
40.634232 49.191189 365.264618
40.611767 49.758862 365.062683
40.611767 50.353725 365.062683
40.596764 50.929764 364.927795
40.582378 51.506149 364.798492
40.582378 52.100586 364.798492
40.566605 52.674541 364.656708
40.560005 53.260078 364.597382
40.560005 53.854183 364.597382
40.552155 54.437748 364.526794
40.528671 54.999878 364.315735
40.528671 55.593525 364.315735
40.519157 56.173985 364.230225
40.493546 56.731613 364.000000
40.493546 57.324749 364.000000
40.493546 57.917881 364.000000
40.493546 58.511013 364.000000
40.493546 59.104149 364.000000
40.493546 59.697281 364.000000
40.493546 60.290413 364.000000
40.493546 60.883549 364.000000
40.493546 61.476681 364.000000
40.493546 62.069817 364.000000
40.493546 62.662949 364.000000
40.493546 63.256081 364.000000
41.726032 -23.102400 369.666656
41.726032 -22.500034 369.666656
41.726032 -21.897667 369.666656
41.715721 -21.290037 369.575287
41.723045 -20.691452 369.640198
41.723045 -20.089127 369.640198
41.763660 -19.505772 370.000000
41.763660 -18.902863 370.000000
41.763660 -18.299952 370.000000
41.763660 -17.697041 370.000000
41.763660 -17.094131 370.000000
41.763660 -16.491220 370.000000
41.763660 -15.888310 370.000000
41.763660 -15.285399 370.000000
41.763660 -14.682489 370.000000
41.763660 -14.079579 370.000000
41.763660 -13.476668 370.000000
41.763660 -12.873758 370.000000
41.763660 -12.270848 370.000000
41.763660 -11.667938 370.000000
41.763660 -11.065027 370.000000
41.763660 -10.462117 370.000000
41.763660 -9.859207 370.000000
41.763660 -9.256296 370.000000
41.763660 -8.653386 370.000000
41.763660 -8.050476 370.000000
41.763660 -7.447566 370.000000
41.763660 -6.844655 370.000000
41.705711 -6.233084 369.486633
41.750866 -5.637107 369.886658
41.750866 -5.034381 369.886658
41.750866 -4.431656 369.886658
41.749588 -3.828813 369.875336
41.749588 -3.226106 369.875336
41.748180 -2.623310 369.862885
41.746632 -2.020548 369.849152
41.746632 -1.417884 369.849152
41.715851 -0.814618 369.576447
41.687630 -0.212254 369.326447
41.687630 0.389558 369.326447
41.661583 0.990752 369.095673
41.637394 1.591264 368.881378
41.637394 2.192352 368.881378
41.595398 2.790622 368.509308
41.579296 3.389790 368.366669
41.579296 3.990039 368.366669
41.574848 4.589797 368.327240
41.558346 5.187922 368.181061
41.558346 5.787868 368.181061
41.517597 6.381551 367.820068
41.499660 6.977893 367.661133
41.499660 7.576992 367.661133
41.482006 8.172613 367.504730
41.475266 8.770032 367.445007
41.475266 9.368779 367.445007
41.472706 9.966911 367.422363
41.537910 10.582232 368.000000
41.537910 11.181884 368.000000
41.537910 11.781535 368.000000
41.537910 12.381186 368.000000
41.504063 12.970261 367.700134
41.504063 13.569423 367.700134
41.501396 14.167677 367.676544
41.475731 14.757668 367.449158
41.475731 15.356422 367.449158
41.470791 15.953277 367.405396
41.650784 16.623796 369.000000
41.650784 17.225077 369.000000
41.650784 17.826357 369.000000
41.650784 18.427639 369.000000
41.650784 19.028919 369.000000
41.650784 19.630199 369.000000
41.537910 20.176653 368.000000
41.537910 20.776304 368.000000
41.461655 21.336714 367.324432
41.465118 21.937099 367.355133
41.465118 22.535698 367.355133
41.465118 23.134300 367.355133
41.473877 23.737911 367.432709
41.473877 24.336639 367.432709
41.485371 24.942276 367.534546
41.485371 25.541170 367.534546
41.485371 26.140062 367.534546
41.471458 26.729990 367.411316
41.443245 27.310091 367.161346
41.427124 27.897518 367.018524
41.427124 28.495571 367.018524
41.405735 29.078600 366.829010
41.394123 29.668018 366.726135
41.394123 30.265594 366.726135
41.370056 30.845228 366.512939
41.363247 31.437283 366.452606
41.363247 32.034409 366.452606
41.353477 32.623837 366.366058
41.348484 33.216808 366.321808
41.348484 33.813728 366.321808
41.342781 34.405899 366.271301
41.312157 34.976807 366.000000
41.312157 35.573200 366.000000
41.318169 36.174850 366.053223
41.318169 36.771332 366.053223
41.318169 37.367813 366.053223
41.312683 37.959251 366.004639
41.307991 38.551270 365.963074
41.307991 39.147602 365.963074
41.303631 39.739742 365.924469
41.293690 40.326305 365.836395
41.293690 40.922428 365.836395
41.279995 41.504780 365.715027
41.286869 42.107723 365.775940
41.286869 42.703751 365.775940
41.286869 43.299774 365.775940
41.279236 43.887688 365.708313
41.277615 44.481857 365.693939
41.277615 45.077751 365.693939
41.272099 45.667542 365.645081
41.269775 46.260754 365.624512
41.269775 46.856533 365.624512
41.261967 47.443336 365.555328
41.256882 48.033085 365.510284
41.256882 48.628681 365.510284
41.229153 49.191189 365.264618
41.206360 49.758862 365.062683
41.206360 50.353725 365.062683
41.191135 50.929764 364.927795
41.176540 51.506149 364.798492
41.176540 52.100586 364.798492
41.160534 52.674541 364.656708
41.153839 53.260078 364.597382
41.153839 53.854183 364.597382
41.145870 54.437748 364.526794
41.122047 54.999878 364.315735
41.122047 55.593525 364.315735
41.112396 56.173985 364.230225
41.086411 56.731613 364.000000
41.086411 57.324749 364.000000
41.086411 57.917881 364.000000
41.086411 58.511013 364.000000
41.086411 59.104149 364.000000
41.086411 59.697281 364.000000
41.086411 60.290413 364.000000
41.086411 60.883549 364.000000
41.086411 61.476681 364.000000
41.086411 62.069817 364.000000
41.086411 62.662949 364.000000
41.086411 63.256081 364.000000
40.919849 74.814217 362.524353
40.919849 75.404945 362.524353
40.919849 75.995674 362.524353
40.918930 76.584686 362.516235
40.918991 77.175522 362.516785
40.918991 77.766243 362.516785
40.922222 78.363144 362.545410
40.922222 78.953911 362.545410
40.922222 79.544670 362.545410
40.920280 80.131622 362.528198
40.915737 80.713402 362.487946
40.915737 81.304070 362.487946
40.891659 81.846550 362.274628
40.872902 82.399048 362.108429
40.872902 82.989098 362.108429
42.366295 -24.329054 370.000000
42.366295 -23.726145 370.000000
42.366295 -23.123234 370.000000
42.328125 -22.500034 369.666656
42.328125 -21.897667 369.666656
42.319214 -21.290817 369.588837
42.366295 -20.711592 370.000000
42.366295 -20.108683 370.000000
42.366295 -19.505772 370.000000
42.366295 -18.902863 370.000000
42.366295 -18.299952 370.000000
42.366295 -17.697041 370.000000
42.366295 -17.094131 370.000000
42.366295 -16.491220 370.000000
42.366295 -15.888310 370.000000
42.366295 -15.285399 370.000000
42.366295 -14.682489 370.000000
42.366295 -14.079579 370.000000
42.366295 -13.476668 370.000000
42.366295 -12.873758 370.000000
42.366295 -12.270848 370.000000
42.366295 -11.667938 370.000000
42.366295 -11.065027 370.000000
42.366295 -10.462117 370.000000
42.366295 -9.859207 370.000000
42.366295 -9.256296 370.000000
42.366295 -8.653386 370.000000
42.366295 -8.050476 370.000000
42.366295 -7.447566 370.000000
42.366295 -6.844655 370.000000
42.366295 -6.241745 370.000000
42.353313 -5.637107 369.886658
42.353313 -5.034381 369.886658
42.353313 -4.431656 369.886658
42.352016 -3.828813 369.875336
42.352016 -3.226106 369.875336
42.350594 -2.623310 369.862885
42.349022 -2.020548 369.849152
42.349022 -1.417884 369.849152
42.317795 -0.814618 369.576447
42.289169 -0.212254 369.326447
42.289169 0.389558 369.326447
42.262745 0.990752 369.095673
42.238205 1.591264 368.881378
42.238205 2.192352 368.881378
42.184540 2.789890 368.412689
42.169151 3.388977 368.278290
42.169151 3.989082 368.278290
42.163345 4.588554 368.227570
42.147781 5.186662 368.091675
42.147781 5.786463 368.091675
42.114475 6.381217 367.800781
42.022781 6.965345 367.000000
42.022781 7.563366 367.000000
42.022781 8.161388 367.000000
42.022781 8.759410 367.000000
42.022781 9.357432 367.000000
42.022781 9.955454 367.000000
42.137287 10.582232 368.000000
42.137287 11.181884 368.000000
42.137287 11.781535 368.000000
42.137287 12.381186 368.000000
42.137287 12.980838 368.000000
42.137287 13.580488 368.000000
42.137287 14.180140 368.000000
42.137287 14.779791 368.000000
42.137287 15.379442 368.000000
42.137287 15.979094 368.000000
42.251789 16.623796 369.000000
42.251789 17.225077 369.000000
42.251789 17.826357 369.000000
42.251789 18.427639 369.000000
42.251789 19.028919 369.000000
42.251789 19.630199 369.000000
42.137287 20.176653 368.000000
42.137287 20.776304 368.000000
42.137287 21.375956 368.000000
42.251789 22.035324 369.000000
42.251789 22.636604 369.000000
42.251789 23.237885 369.000000
42.251789 23.839167 369.000000
42.251789 24.440447 369.000000
42.366295 25.109592 370.000000
42.366295 25.712502 370.000000
42.366295 26.315413 370.000000
42.069878 26.729990 367.411316
42.041260 27.310091 367.161346
42.031807 27.902100 367.078827
42.031807 28.500252 367.078827
42.014679 29.086544 366.929230
42.002472 29.675823 366.822601
42.002472 30.273558 366.822601
41.978748 30.853857 366.615448
41.960106 31.437283 366.452606
41.960106 32.034409 366.452606
41.950195 32.623837 366.366058
41.945129 33.216808 366.321808
41.945129 33.813728 366.321808
41.939346 34.405899 366.271301
41.908279 34.976807 366.000000
41.908279 35.573200 366.000000
41.914371 36.174850 366.053223
41.914371 36.771332 366.053223
41.914371 37.367813 366.053223
41.908810 37.959251 366.004639
41.908279 38.555161 366.000000
41.908279 39.151554 366.000000
41.908279 39.747944 366.000000
41.889545 40.326305 365.836395
41.889545 40.922428 365.836395
41.875648 41.504780 365.715027
41.882626 42.107723 365.775940
41.882626 42.703751 365.775940
41.882626 43.299774 365.775940
41.875256 43.888081 365.711578
41.908279 44.519085 366.000000
41.908279 45.115475 366.000000
41.908279 45.711868 366.000000
41.908279 46.308262 366.000000
41.908279 46.904652 366.000000
41.908279 47.501045 366.000000
41.852203 48.033085 365.510284
41.852203 48.628681 365.510284
41.824078 49.191189 365.264618
41.800953 49.758862 365.062683
41.800953 50.353725 365.062683
41.785507 50.929764 364.927795
41.770702 51.506149 364.798492
41.770702 52.100586 364.798492
41.754467 52.674541 364.656708
41.747673 53.260078 364.597382
41.747673 53.854183 364.597382
41.739590 54.437748 364.526794
41.715424 54.999878 364.315735
41.715424 55.593525 364.315735
41.705631 56.173985 364.230225
41.679272 56.731613 364.000000
41.679272 57.324749 364.000000
41.679272 57.917881 364.000000
41.679272 58.511013 364.000000
41.679272 59.104149 364.000000
41.679272 59.697281 364.000000
41.679272 60.290413 364.000000
41.679272 60.883549 364.000000
41.679272 61.476681 364.000000
41.679272 62.069817 364.000000
41.679272 62.662949 364.000000
41.679272 63.256081 364.000000
41.564770 63.673805 363.000000
41.587208 64.300003 363.195984
41.587208 64.891823 363.195984
41.587208 65.483650 363.195984
41.582554 66.068077 363.155334
41.582554 66.659836 363.155334
41.577721 67.243774 363.113098
41.572590 67.827095 363.068298
41.572590 68.418709 363.068298
41.567295 69.001534 363.022064
41.561569 69.583481 362.972046
41.561569 70.174942 362.972046
41.550087 70.746857 362.871796
41.542484 71.325096 362.805389
41.542484 71.916283 362.805389
41.536728 72.497421 362.755096
41.529621 73.076019 362.693054
41.529621 73.667030 362.693054
41.527901 74.254951 362.678009
41.519203 74.830254 362.602051
41.519203 75.421112 362.602051
41.510303 75.995674 362.524353
41.509377 76.584686 362.516235
41.509438 77.175522 362.516785
41.509438 77.766243 362.516785
41.512714 78.363144 362.545410
41.512714 78.953911 362.545410
41.512714 79.544670 362.545410
41.510746 80.131622 362.528198
41.506138 80.713402 362.487946
41.506138 81.304070 362.487946
41.481709 81.846550 362.274628
41.462681 82.399048 362.108429
41.462681 82.989098 362.108429
42.968929 -24.329054 370.000000
42.968929 -23.726145 370.000000
42.968929 -23.123234 370.000000
42.930214 -22.500034 369.666656
42.930214 -21.897667 369.666656
42.921177 -21.290817 369.588837
42.968929 -20.711592 370.000000
42.968929 -20.108683 370.000000
42.968929 -19.505772 370.000000
42.968929 -18.902863 370.000000
42.968929 -18.299952 370.000000
42.968929 -17.697041 370.000000
42.968929 -17.094131 370.000000
42.968929 -16.491220 370.000000
42.968929 -15.888310 370.000000
42.968929 -15.285399 370.000000
42.968929 -14.682489 370.000000
42.968929 -14.079579 370.000000
42.968929 -13.476668 370.000000
42.968929 -12.873758 370.000000
42.968929 -12.270848 370.000000
42.968929 -11.667938 370.000000
42.968929 -11.065027 370.000000
42.968929 -10.462117 370.000000
42.968929 -9.859207 370.000000
42.968929 -9.256296 370.000000
42.968929 -8.653386 370.000000
42.968929 -8.050476 370.000000
42.968929 -7.447566 370.000000
42.968929 -6.844655 370.000000
42.968929 -6.241745 370.000000
42.955765 -5.637107 369.886658
42.955765 -5.034381 369.886658
42.955765 -4.431656 369.886658
42.954453 -3.828813 369.875336
42.954453 -3.226106 369.875336
42.953003 -2.623310 369.862885
42.951408 -2.020548 369.849152
42.951408 -1.417884 369.849152
42.919739 -0.814618 369.576447
42.890705 -0.212254 369.326447
42.890705 0.389558 369.326447
42.863907 0.990752 369.095673
42.839020 1.591264 368.881378
42.839020 2.192352 368.881378
42.784588 2.789890 368.412689
42.768982 3.388977 368.278290
42.768982 3.989082 368.278290
42.763088 4.588554 368.227570
42.747307 5.186662 368.091675
42.747307 5.786463 368.091675
42.504398 6.349973 366.000000
42.504398 6.946366 366.000000
42.504398 7.542758 366.000000
42.504398 8.139151 366.000000
42.504398 8.735543 366.000000
42.504398 9.331936 366.000000
42.504398 9.928328 366.000000
42.620529 10.553476 367.000000
42.736664 11.181884 368.000000
42.736664 11.781535 368.000000
42.736664 12.381186 368.000000
42.736664 12.980838 368.000000
42.736664 13.580488 368.000000
42.736664 14.180140 368.000000
42.736664 14.779791 368.000000
42.736664 15.379442 368.000000
42.736664 15.979094 368.000000
42.852795 16.623796 369.000000
42.852795 17.225077 369.000000
42.852795 17.826357 369.000000
42.852795 18.427639 369.000000
42.852795 19.028919 369.000000
42.852795 19.630199 369.000000
42.736664 20.176653 368.000000
42.736664 20.776304 368.000000
42.736664 21.375956 368.000000
42.852795 22.035324 369.000000
42.852795 22.636604 369.000000
42.852795 23.237885 369.000000
42.852795 23.839167 369.000000
42.852795 24.440447 369.000000
42.968929 25.109592 370.000000
42.968929 25.712502 370.000000
42.968929 26.315413 370.000000
42.852795 26.845572 369.000000
42.736664 27.372469 368.000000
42.736664 27.972120 368.000000
42.736664 28.571772 368.000000
42.620529 29.092154 367.000000
42.620529 29.690176 367.000000
42.620529 30.288198 367.000000
42.575871 30.853857 366.615448
42.504398 31.398453 366.000000
42.504398 31.994844 366.000000
42.504398 32.591236 366.000000
42.504398 33.187630 366.000000
42.504398 33.784019 366.000000
42.504398 34.380413 366.000000
42.504398 34.976807 366.000000
42.504398 35.573200 366.000000
42.504398 36.169590 366.000000
42.504398 36.765984 366.000000
42.504398 37.362377 366.000000
42.504398 37.958767 366.000000
42.504398 38.555161 366.000000
42.504398 39.151554 366.000000
42.504398 39.747944 366.000000
42.504398 40.344337 366.000000
42.504398 40.940731 366.000000
42.468880 41.502415 365.694153
42.476135 42.105499 365.756622
42.476135 42.701492 365.756622
42.476135 43.297489 365.756622
42.470901 43.888081 365.711578
42.504398 44.519085 366.000000
42.504398 45.115475 366.000000
42.504398 45.711868 366.000000
42.504398 46.308262 366.000000
42.504398 46.904652 366.000000
42.504398 47.501045 366.000000
42.504398 48.097439 366.000000
42.504398 48.693832 366.000000
42.504398 49.290222 366.000000
42.504398 49.886616 366.000000
42.504398 50.483009 366.000000
42.388268 50.939838 365.000000
42.388268 51.534603 365.000000
42.388268 52.129368 365.000000
42.388268 52.724129 365.000000
42.388268 53.318893 365.000000
42.388268 53.913651 365.000000
42.388268 54.508415 365.000000
42.272133 54.952213 364.000000
42.272133 55.545349 364.000000
42.272133 56.138481 364.000000
42.272133 56.731613 364.000000
42.272133 57.324749 364.000000
42.272133 57.917881 364.000000
42.272133 58.511013 364.000000
42.272133 59.104149 364.000000
42.272133 59.697281 364.000000
42.272133 60.290413 364.000000
42.272133 60.883549 364.000000
42.272133 61.476681 364.000000
42.272133 62.069817 364.000000
42.272133 62.662949 364.000000
42.272133 63.256081 364.000000
42.156002 63.673805 363.000000
42.178764 64.300003 363.195984
42.178764 64.891823 363.195984
42.178764 65.483650 363.195984
42.174042 66.068077 363.155334
42.174042 66.659836 363.155334
42.169136 67.243774 363.113098
42.163933 67.827095 363.068298
42.163933 68.418709 363.068298
42.158562 69.001534 363.022064
42.156002 69.588844 363.000000
42.156002 70.180344 363.000000
42.156002 70.771851 363.000000
42.156002 71.363358 363.000000
42.156002 71.954857 363.000000
42.156002 72.546364 363.000000
42.156002 73.137863 363.000000
42.156002 73.729370 363.000000
42.156002 74.320877 363.000000
42.156002 74.912376 363.000000
42.156002 75.503883 363.000000
42.100765 75.995674 362.524353
42.156002 76.686890 363.000000
42.156002 77.278397 363.000000
42.156002 77.869896 363.000000
42.103207 78.363144 362.545410
42.103207 78.953911 362.545410
42.103207 79.544670 362.545410
42.156002 80.235916 363.000000
42.156002 80.827415 363.000000
42.156002 81.418922 363.000000
42.071762 81.846550 362.274628
42.052464 82.399048 362.108429
42.052464 82.989098 362.108429
42.039867 83.554123 362.000000
42.039867 84.143997 362.000000
42.039867 84.733871 362.000000
42.039867 85.323746 362.000000
42.039867 85.913620 362.000000
42.039867 86.503494 362.000000
42.039867 87.093369 362.000000
42.021561 87.645058 361.842346
42.021561 88.234680 361.842346
42.019165 88.819229 361.821716
42.016983 89.404167 361.802917
42.016983 89.993721 361.802917
42.011932 90.572388 361.759430
42.009392 91.156357 361.737549
42.009392 91.745804 361.737549
42.009392 92.335251 361.737549
42.006622 92.918579 361.713715
41.992855 93.477333 361.595154
41.992855 94.066544 361.595154
41.982468 94.632347 361.505737
42.039867 95.351608 362.000000
42.039867 95.941483 362.000000
42.039867 96.531357 362.000000
42.039867 97.121231 362.000000
42.039867 97.711105 362.000000
42.039867 98.300980 362.000000
42.005131 98.809143 361.700867
42.005131 99.398529 361.700867
43.571564 -24.329054 370.000000
43.571564 -23.726145 370.000000
43.571564 -23.123234 370.000000
43.532307 -22.500034 369.666656
43.532307 -21.897667 369.666656
43.523144 -21.290817 369.588837
43.571564 -20.711592 370.000000
43.571564 -20.108683 370.000000
43.571564 -19.505772 370.000000
43.571564 -18.902863 370.000000
43.571564 -18.299952 370.000000
43.571564 -17.697041 370.000000
43.571564 -17.094131 370.000000
43.571564 -16.491220 370.000000
43.571564 -15.888310 370.000000
43.571564 -15.285399 370.000000
43.571564 -14.682489 370.000000
43.571564 -14.079579 370.000000
43.571564 -13.476668 370.000000
43.571564 -12.873758 370.000000
43.571564 -12.270848 370.000000
43.571564 -11.667938 370.000000
43.571564 -11.065027 370.000000
43.571564 -10.462117 370.000000
43.571564 -9.859207 370.000000
43.571564 -9.256296 370.000000
43.571564 -8.653386 370.000000
43.571564 -8.050476 370.000000
43.571564 -7.447566 370.000000
43.571564 -6.844655 370.000000
43.571564 -6.241745 370.000000
43.550152 -5.636064 369.818176
43.550152 -5.033450 369.818176
43.520710 -4.427840 369.568176
43.493534 -3.823244 369.337402
43.493534 -3.221414 369.337402
43.468300 -2.618063 369.123138
43.436897 -2.015125 368.856445
43.436897 -1.414078 368.856445
43.407455 -0.812480 368.606445
43.379745 -0.211705 368.371155
43.379745 0.388551 368.371155
43.353580 0.988210 368.148926
43.336040 1.587462 368.000000
43.336040 2.187113 368.000000
43.336040 2.786765 368.000000
43.218277 3.377214 367.000000
43.218277 3.975236 367.000000
43.218277 4.573258 367.000000
43.218277 5.171279 367.000000
43.218277 5.769301 367.000000
43.100517 6.349973 366.000000
43.100517 6.946366 366.000000
43.100517 7.542758 366.000000
43.100517 8.139151 366.000000
43.100517 8.735543 366.000000
43.100517 9.331936 366.000000
43.100517 9.928328 366.000000
43.218277 10.553476 367.000000
43.336040 11.181884 368.000000
43.336040 11.781535 368.000000
43.336040 12.381186 368.000000
43.336040 12.980838 368.000000
43.336040 13.580488 368.000000
43.336040 14.180140 368.000000
43.336040 14.779791 368.000000
43.336040 15.379442 368.000000
43.336040 15.979094 368.000000
43.336040 16.578745 368.000000
43.336040 17.178396 368.000000
43.336040 17.778048 368.000000
43.336040 18.377699 368.000000
43.336040 18.977350 368.000000
43.336040 19.577002 368.000000
43.336040 20.176653 368.000000
43.336040 20.776304 368.000000
43.336040 21.375956 368.000000
43.453800 22.035324 369.000000
43.453800 22.636604 369.000000
43.453800 23.237885 369.000000
43.453800 23.839167 369.000000
43.453800 24.440447 369.000000
43.571564 25.109592 370.000000
43.571564 25.712502 370.000000
43.571564 26.315413 370.000000
43.453800 26.845572 369.000000
43.336040 27.372469 368.000000
43.336040 27.972120 368.000000
43.336040 28.571772 368.000000
43.218277 29.092154 367.000000
43.218277 29.690176 367.000000
43.218277 30.288198 367.000000
43.172993 30.853857 366.615448
43.100517 31.398453 366.000000
43.100517 31.994844 366.000000
43.100517 32.591236 366.000000
43.100517 33.187630 366.000000
43.100517 33.784019 366.000000
43.100517 34.380413 366.000000
43.100517 34.976807 366.000000
43.100517 35.573200 366.000000
43.100517 36.169590 366.000000
43.100517 36.765984 366.000000
43.100517 37.362377 366.000000
43.100517 37.958767 366.000000
43.100517 38.555161 366.000000
43.100517 39.151554 366.000000
43.100517 39.747944 366.000000
43.100517 40.344337 366.000000
43.100517 40.940731 366.000000
43.064499 41.502415 365.694153
43.071857 42.105499 365.756622
43.071857 42.701492 365.756622
43.071857 43.297489 365.756622
43.066551 43.888081 365.711578
43.100517 44.519085 366.000000
43.100517 45.115475 366.000000
43.100517 45.711868 366.000000
43.100517 46.308262 366.000000
43.100517 46.904652 366.000000
43.100517 47.501045 366.000000
43.100517 48.097439 366.000000
43.100517 48.693832 366.000000
43.100517 49.290222 366.000000
43.100517 49.886616 366.000000
43.100517 50.483009 366.000000
42.982758 50.939838 365.000000
42.982758 51.534603 365.000000
42.982758 52.129368 365.000000
42.982758 52.724129 365.000000
42.982758 53.318893 365.000000
42.982758 53.913651 365.000000
42.982758 54.508415 365.000000
42.864994 54.952213 364.000000
42.864994 55.545349 364.000000
42.864994 56.138481 364.000000
42.864994 56.731613 364.000000
42.864994 57.324749 364.000000
42.864994 57.917881 364.000000
42.864994 58.511013 364.000000
42.864994 59.104149 364.000000
42.864994 59.697281 364.000000
42.864994 60.290413 364.000000
42.864994 60.883549 364.000000
42.864994 61.476681 364.000000
42.864994 62.069817 364.000000
42.864994 62.662949 364.000000
42.864994 63.256081 364.000000
42.747234 63.673805 363.000000
42.770313 64.300003 363.195984
42.770313 64.891823 363.195984
42.770313 65.483650 363.195984
42.765526 66.068077 363.155334
42.765526 66.659836 363.155334
42.760555 67.243774 363.113098
42.755276 67.827095 363.068298
42.755276 68.418709 363.068298
42.749836 69.001534 363.022064
42.747234 69.588844 363.000000
42.747234 70.180344 363.000000
42.747234 70.771851 363.000000
42.747234 71.363358 363.000000
42.747234 71.954857 363.000000
42.747234 72.546364 363.000000
42.747234 73.137863 363.000000
42.747234 73.729370 363.000000
42.747234 74.320877 363.000000
42.747234 74.912376 363.000000
42.747234 75.503883 363.000000
42.629475 75.885757 362.000000
42.747234 76.686890 363.000000
42.747234 77.278397 363.000000
42.747234 77.869896 363.000000
42.747234 78.461403 363.000000
42.747234 79.052902 363.000000
42.747234 79.644409 363.000000
42.747234 80.235916 363.000000
42.747234 80.827415 363.000000
42.747234 81.418922 363.000000
42.629475 81.784500 362.000000
42.629475 82.374374 362.000000
42.629475 82.964249 362.000000
42.629475 83.554123 362.000000
42.629475 84.143997 362.000000
42.629475 84.733871 362.000000
42.629475 85.323746 362.000000
42.629475 85.913620 362.000000
42.629475 86.503494 362.000000
42.629475 87.093369 362.000000
42.629475 87.683243 362.000000
42.629475 88.273117 362.000000
42.629475 88.862991 362.000000
42.629475 89.452866 362.000000
42.629475 90.042740 362.000000
42.629475 90.632614 362.000000
42.629475 91.222488 362.000000
42.629475 91.812363 362.000000
42.629475 92.402237 362.000000
42.599861 92.927521 361.748535
42.623959 93.569885 361.953186
42.623959 94.159683 361.953186
42.623959 94.749481 361.953186
42.629475 95.351608 362.000000
42.629475 95.941483 362.000000
42.629475 96.531357 362.000000
42.629475 97.121231 362.000000
42.629475 97.711105 362.000000
42.629475 98.300980 362.000000
42.618713 98.865898 361.908630
42.618713 99.455627 361.908630
44.129425 -24.304396 369.625000
44.129425 -23.702097 369.625000
44.129425 -23.099798 369.625000
44.113037 -22.489143 369.487732
44.113037 -21.887070 369.487732
44.174198 -21.314503 370.000000
44.174198 -20.711592 370.000000
44.174198 -20.108683 370.000000
44.174198 -19.505772 370.000000
44.174198 -18.902863 370.000000
44.174198 -18.299952 370.000000
44.174198 -17.697041 370.000000
44.174198 -17.094131 370.000000
44.174198 -16.491220 370.000000
44.174198 -15.888310 370.000000
44.054806 -15.244088 369.000000
44.054806 -14.642807 369.000000
44.054806 -14.041527 369.000000
44.054806 -13.440246 369.000000
44.054806 -12.838964 369.000000
44.054806 -12.237683 369.000000
44.054806 -11.636402 369.000000
44.054806 -11.035122 369.000000
44.054806 -10.433841 369.000000
44.054806 -9.832560 369.000000
44.054806 -9.231279 369.000000
44.054806 -8.629998 369.000000
44.054806 -8.028717 369.000000
44.054806 -7.427436 369.000000
44.054806 -6.826156 369.000000
44.054806 -6.224875 369.000000
44.054806 -5.623594 369.000000
44.054806 -5.022314 369.000000
44.054806 -4.421033 369.000000
44.054806 -3.819752 369.000000
44.054806 -3.218471 369.000000
44.054806 -2.617190 369.000000
44.054806 -2.015909 369.000000
44.054806 -1.414628 369.000000
43.935738 -0.811149 368.002686
43.935417 -0.211492 368.000000
43.935417 0.388159 368.000000
43.935417 0.987811 368.000000
43.935417 1.587462 368.000000
43.935417 2.187113 368.000000
43.935417 2.786765 368.000000
43.816029 3.377214 367.000000
43.816029 3.975236 367.000000
43.816029 4.573258 367.000000
43.816029 5.171279 367.000000
43.816029 5.769301 367.000000
43.696636 6.349973 366.000000
43.696636 6.946366 366.000000
43.696636 7.542758 366.000000
43.696636 8.139151 366.000000
43.696636 8.735543 366.000000
43.696636 9.331936 366.000000
43.696636 9.928328 366.000000
43.816029 10.553476 367.000000
43.816029 11.151498 367.000000
43.816029 11.749519 367.000000
43.935417 12.381186 368.000000
43.935417 12.980838 368.000000
43.935417 13.580488 368.000000
43.935417 14.180140 368.000000
43.935417 14.779791 368.000000
43.935417 15.379442 368.000000
43.935417 15.979094 368.000000
43.935417 16.578745 368.000000
43.935417 17.178396 368.000000
43.935417 17.778048 368.000000
43.816029 18.327761 367.000000
43.816029 18.925783 367.000000
43.816029 19.523804 367.000000
43.816029 20.121826 367.000000
43.816029 20.719849 367.000000
43.935417 21.375956 368.000000
43.935417 21.975607 368.000000
43.935417 22.575258 368.000000
43.935417 23.174910 368.000000
44.054806 23.839167 369.000000
44.054806 24.440447 369.000000
44.054806 25.041727 369.000000
44.054806 25.643009 369.000000
44.054806 26.244289 369.000000
44.054806 26.845572 369.000000
43.935417 27.372469 368.000000
43.935417 27.972120 368.000000
43.935417 28.571772 368.000000
43.816029 29.092154 367.000000
43.816029 29.690176 367.000000
43.816029 30.288198 367.000000
43.696636 30.802059 366.000000
43.696636 31.398453 366.000000
43.696636 31.994844 366.000000
43.696636 32.591236 366.000000
43.696636 33.187630 366.000000
43.696636 33.784019 366.000000
43.696636 34.380413 366.000000
43.696636 34.976807 366.000000
43.696636 35.573200 366.000000
43.696636 36.169590 366.000000
43.696636 36.765984 366.000000
43.696636 37.362377 366.000000
43.696636 37.958767 366.000000
43.696636 38.555161 366.000000
43.696636 39.151554 366.000000
43.696636 39.747944 366.000000
43.696636 40.344337 366.000000
43.696636 40.940731 366.000000
43.577248 41.423634 365.000000
43.631100 42.070324 365.451080
43.631100 42.665821 365.451080
43.631100 43.261322 365.451080
43.577248 43.802685 365.000000
43.577248 44.397449 365.000000
43.577248 44.992210 365.000000
43.696636 45.711868 366.000000
43.696636 46.308262 366.000000
43.696636 46.904652 366.000000
43.696636 47.501045 366.000000
43.696636 48.097439 366.000000
43.696636 48.693832 366.000000
43.696636 49.290222 366.000000
43.696636 49.886616 366.000000
43.696636 50.483009 366.000000
43.577248 50.939838 365.000000
43.577248 51.534603 365.000000
43.577248 52.129368 365.000000
43.577248 52.724129 365.000000
43.577248 53.318893 365.000000
43.577248 53.913651 365.000000
43.577248 54.508415 365.000000
43.457855 54.952213 364.000000
43.457855 55.545349 364.000000
43.457855 56.138481 364.000000
43.457855 56.731613 364.000000
43.457855 57.324749 364.000000
43.457855 57.917881 364.000000
43.457855 58.511013 364.000000
43.457855 59.104149 364.000000
43.338467 59.533276 363.000000
43.457855 60.290413 364.000000
43.457855 60.883549 364.000000
43.457855 61.476681 364.000000
43.457855 62.069817 364.000000
43.338467 62.490795 363.000000
43.338467 63.082298 363.000000
43.338467 63.673805 363.000000
43.338467 64.265305 363.000000
43.338467 64.856812 363.000000
43.338467 65.448318 363.000000
43.338467 66.039818 363.000000
43.338467 66.631325 363.000000
43.338467 67.222824 363.000000
43.338467 67.814331 363.000000
43.338467 68.405838 363.000000
43.338467 68.997337 363.000000
43.338467 69.588844 363.000000
43.338467 70.180344 363.000000
43.338467 70.771851 363.000000
43.338467 71.363358 363.000000
43.338467 71.954857 363.000000
43.338467 72.546364 363.000000
43.338467 73.137863 363.000000
43.338467 73.729370 363.000000
43.338467 74.320877 363.000000
43.338467 74.912376 363.000000
43.338467 75.503883 363.000000
43.219078 75.885757 362.000000
43.338467 76.686890 363.000000
43.338467 77.278397 363.000000
43.338467 77.869896 363.000000
43.338467 78.461403 363.000000
43.338467 79.052902 363.000000
43.338467 79.644409 363.000000
43.338467 80.235916 363.000000
43.338467 80.827415 363.000000
43.338467 81.418922 363.000000
43.219078 81.784500 362.000000
43.219078 82.374374 362.000000
43.219078 82.964249 362.000000
43.219078 83.554123 362.000000
43.219078 84.143997 362.000000
43.219078 84.733871 362.000000
43.219078 85.323746 362.000000
43.219078 85.913620 362.000000
43.219078 86.503494 362.000000
43.219078 87.093369 362.000000
43.219078 87.683243 362.000000
43.219078 88.273117 362.000000
43.219078 88.862991 362.000000
43.219078 89.452866 362.000000
43.219078 90.042740 362.000000
43.219078 90.632614 362.000000
43.219078 91.222488 362.000000
43.219078 91.812363 362.000000
43.219078 92.402237 362.000000
43.189056 92.927521 361.748535
43.213490 93.569885 361.953186
43.213490 94.159683 361.953186
43.213490 94.749481 361.953186
43.219078 95.351608 362.000000
43.219078 95.941483 362.000000
43.219078 96.531357 362.000000
43.219078 97.121231 362.000000
43.219078 97.711105 362.000000
43.219078 98.300980 362.000000
43.208168 98.865898 361.908630
43.208168 99.455627 361.908630
44.731449 -24.304396 369.625000
44.731449 -23.702097 369.625000
44.731449 -23.099798 369.625000
44.714836 -22.489143 369.487732
44.714836 -21.887070 369.487732
44.776833 -21.314503 370.000000
44.776833 -20.711592 370.000000
44.776833 -20.108683 370.000000
44.776833 -19.505772 370.000000
44.776833 -18.902863 370.000000
44.776833 -18.299952 370.000000
44.776833 -17.697041 370.000000
44.776833 -17.094131 370.000000
44.776833 -16.491220 370.000000
44.776833 -15.888310 370.000000
44.655811 -15.244088 369.000000
44.655811 -14.642807 369.000000
44.655811 -14.041527 369.000000
44.655811 -13.440246 369.000000
44.655811 -12.838964 369.000000
44.655811 -12.237683 369.000000
44.655811 -11.636402 369.000000
44.655811 -11.035122 369.000000
44.655811 -10.433841 369.000000
44.655811 -9.832560 369.000000
44.655811 -9.231279 369.000000
44.655811 -8.629998 369.000000
44.655811 -8.028717 369.000000
44.655811 -7.427436 369.000000
44.655811 -6.826156 369.000000
44.655811 -6.224875 369.000000
44.655811 -5.623594 369.000000
44.655811 -5.022314 369.000000
44.655811 -4.421033 369.000000
44.655811 -3.819752 369.000000
44.655811 -3.218471 369.000000
44.655811 -2.617190 369.000000
44.655811 -2.015909 369.000000
44.655811 -1.414628 369.000000
44.534794 -0.811143 368.000000
44.534794 -0.211492 368.000000
44.534794 0.388159 368.000000
44.534794 0.987811 368.000000
44.534794 1.587462 368.000000
44.534794 2.187113 368.000000
44.534794 2.786765 368.000000
44.534794 3.386416 368.000000
44.534794 3.986067 368.000000
44.534794 4.585719 368.000000
44.413776 5.171279 367.000000
44.413776 5.769301 367.000000
44.413776 6.367323 367.000000
44.292755 6.946366 366.000000
44.292755 7.542758 366.000000
44.292755 8.139151 366.000000
44.292755 8.735543 366.000000
44.292755 9.331936 366.000000
44.292755 9.928328 366.000000
44.413776 10.553476 367.000000
44.413776 11.151498 367.000000
44.413776 11.749519 367.000000
44.413776 12.347542 367.000000
44.413776 12.945563 367.000000
44.413776 13.543586 367.000000
44.534794 14.180140 368.000000
44.534794 14.779791 368.000000
44.534794 15.379442 368.000000
44.413776 15.935674 367.000000
44.413776 16.533695 367.000000
44.413776 17.131718 367.000000
44.413776 17.729738 367.000000
44.413776 18.327761 367.000000
44.413776 18.925783 367.000000
44.292755 19.470606 366.000000
44.292755 20.066998 366.000000
44.292755 20.663391 366.000000
44.413776 21.317871 367.000000
44.413776 21.915892 367.000000
44.413776 22.513914 367.000000
44.413776 23.111937 367.000000
44.413776 23.709957 367.000000
44.413776 24.307980 367.000000
44.413776 24.906002 367.000000
44.413776 25.504023 367.000000
44.413776 26.102045 367.000000
44.413776 26.700068 367.000000
44.413776 27.298088 367.000000
44.413776 27.896111 367.000000
44.413776 28.494133 367.000000
44.413776 29.092154 367.000000
44.413776 29.690176 367.000000
44.413776 30.288198 367.000000
44.292755 30.802059 366.000000
44.292755 31.398453 366.000000
44.292755 31.994844 366.000000
44.292755 32.591236 366.000000
44.292755 33.187630 366.000000
44.292755 33.784019 366.000000
44.292755 34.380413 366.000000
44.292755 34.976807 366.000000
44.292755 35.573200 366.000000
44.292755 36.169590 366.000000
44.171738 36.665531 365.000000
44.171738 37.260292 365.000000
44.171738 37.855057 365.000000
44.171738 38.449821 365.000000
44.171738 39.044582 365.000000
44.171738 39.639347 365.000000
44.171738 40.234108 365.000000
44.171738 40.828873 365.000000
44.171738 41.423634 365.000000
44.171738 42.018398 365.000000
44.171738 42.613159 365.000000
44.171738 43.207924 365.000000
44.171738 43.802685 365.000000
44.171738 44.397449 365.000000
44.171738 44.992210 365.000000
44.171738 45.586975 365.000000
44.171738 46.181736 365.000000
44.171738 46.776501 365.000000
44.292755 47.501045 366.000000
44.292755 48.097439 366.000000
44.292755 48.693832 366.000000
44.292755 49.290222 366.000000
44.171738 49.750313 365.000000
44.171738 50.345078 365.000000
44.171738 50.939838 365.000000
44.171738 51.534603 365.000000
44.171738 52.129368 365.000000
44.171738 52.724129 365.000000
44.171738 53.318893 365.000000
44.171738 53.913651 365.000000
44.171738 54.508415 365.000000
44.050720 54.952213 364.000000
44.050720 55.545349 364.000000
44.050720 56.138481 364.000000
44.050720 56.731613 364.000000
44.050720 57.324749 364.000000
44.050720 57.917881 364.000000
44.050720 58.511013 364.000000
44.050720 59.104149 364.000000
43.929703 59.533276 363.000000
43.929703 60.124779 363.000000
43.929703 60.716286 363.000000
43.929703 61.307789 363.000000
43.929703 61.899292 363.000000
43.929703 62.490795 363.000000
43.929703 63.082298 363.000000
43.929703 63.673805 363.000000
43.929703 64.265305 363.000000
43.929703 64.856812 363.000000
43.929703 65.448318 363.000000
43.929703 66.039818 363.000000
43.929703 66.631325 363.000000
43.929703 67.222824 363.000000
43.929703 67.814331 363.000000
43.929703 68.405838 363.000000
43.929703 68.997337 363.000000
43.929703 69.588844 363.000000
43.929703 70.180344 363.000000
43.929703 70.771851 363.000000
43.929703 71.363358 363.000000
43.929703 71.954857 363.000000
43.929703 72.546364 363.000000
43.929703 73.137863 363.000000
43.929703 73.729370 363.000000
43.929703 74.320877 363.000000
43.808681 74.706009 362.000000
43.808681 75.295883 362.000000
43.808681 75.885757 362.000000
43.808681 76.475632 362.000000
43.929703 77.278397 363.000000
43.929703 77.869896 363.000000
43.929703 78.461403 363.000000
43.929703 79.052902 363.000000
43.929703 79.644409 363.000000
43.929703 80.235916 363.000000
43.929703 80.827415 363.000000
43.929703 81.418922 363.000000
43.808681 81.784500 362.000000
43.808681 82.374374 362.000000
43.808681 82.964249 362.000000
43.808681 83.554123 362.000000
43.808681 84.143997 362.000000
43.808681 84.733871 362.000000
43.808681 85.323746 362.000000
43.808681 85.913620 362.000000
43.808681 86.503494 362.000000
43.808681 87.093369 362.000000
43.808681 87.683243 362.000000
43.808681 88.273117 362.000000
43.808681 88.862991 362.000000
43.808681 89.452866 362.000000
43.808681 90.042740 362.000000
43.808681 90.632614 362.000000
43.808681 91.222488 362.000000
43.808681 91.812363 362.000000
43.808681 92.402237 362.000000
43.808681 92.992111 362.000000
43.803017 93.569885 361.953186
43.803017 94.159683 361.953186
43.803017 94.749481 361.953186
43.808681 95.351608 362.000000
43.808681 95.941483 362.000000
43.808681 96.531357 362.000000
43.808681 97.121231 362.000000
43.808681 97.711105 362.000000
43.808681 98.300980 362.000000
43.797623 98.865898 361.908630
43.797623 99.455627 361.908630
45.301277 -24.287134 369.362488
45.301277 -23.685265 369.362488
45.301277 -23.083393 369.362488
45.296780 -22.479290 369.325836
45.296780 -21.877478 369.325836
45.379467 -21.314503 370.000000
45.379467 -20.711592 370.000000
45.379467 -20.108683 370.000000
45.379467 -19.505772 370.000000
45.379467 -18.902863 370.000000
45.379467 -18.299952 370.000000
45.256817 -17.649212 369.000000
45.256817 -17.047930 369.000000
45.256817 -16.446650 369.000000
45.256817 -15.845369 369.000000
45.256817 -15.244088 369.000000
45.256817 -14.642807 369.000000
45.256817 -14.041527 369.000000
45.256817 -13.440246 369.000000
45.256817 -12.838964 369.000000
45.256817 -12.237683 369.000000
45.256817 -11.636402 369.000000
45.256817 -11.035122 369.000000
45.256817 -10.433841 369.000000
45.256817 -9.832560 369.000000
45.256817 -9.231279 369.000000
45.256817 -8.629998 369.000000
45.256817 -8.028717 369.000000
45.256817 -7.427436 369.000000
45.256817 -6.826156 369.000000
45.256817 -6.224875 369.000000
45.256817 -5.623594 369.000000
45.256817 -5.022314 369.000000
45.256817 -4.421033 369.000000
45.256817 -3.819752 369.000000
45.256817 -3.218471 369.000000
45.256817 -2.617190 369.000000
45.256817 -2.015909 369.000000
45.256817 -1.414628 369.000000
45.134171 -0.811143 368.000000
45.134171 -0.211492 368.000000
45.134171 0.388159 368.000000
45.134171 0.987811 368.000000
45.134171 1.587462 368.000000
45.134171 2.187113 368.000000
45.134171 2.786765 368.000000
45.134171 3.386416 368.000000
45.134171 3.986067 368.000000
45.134171 4.585719 368.000000
45.011524 5.171279 367.000000
45.011524 5.769301 367.000000
45.011524 6.367323 367.000000
44.888874 6.946366 366.000000
44.888874 7.542758 366.000000
44.888874 8.139151 366.000000
44.888874 8.735543 366.000000
44.888874 9.331936 366.000000
44.888874 9.928328 366.000000
45.011524 10.553476 367.000000
45.011524 11.151498 367.000000
45.011524 11.749519 367.000000
45.011524 12.347542 367.000000
45.011524 12.945563 367.000000
45.011524 13.543586 367.000000
45.134171 14.180140 368.000000
45.134171 14.779791 368.000000
45.134171 15.379442 368.000000
45.011524 15.935674 367.000000
45.011524 16.533695 367.000000
45.011524 17.131718 367.000000
45.011524 17.729738 367.000000
45.011524 18.327761 367.000000
45.011524 18.925783 367.000000
44.888874 19.470606 366.000000
44.888874 20.066998 366.000000
44.888874 20.663391 366.000000
45.011524 21.317871 367.000000
45.011524 21.915892 367.000000
45.011524 22.513914 367.000000
45.011524 23.111937 367.000000
45.011524 23.709957 367.000000
45.011524 24.307980 367.000000
45.011524 24.906002 367.000000
45.011524 25.504023 367.000000
45.011524 26.102045 367.000000
45.011524 26.700068 367.000000
45.011524 27.298088 367.000000
45.011524 27.896111 367.000000
45.011524 28.494133 367.000000
45.011524 29.092154 367.000000
45.011524 29.690176 367.000000
45.011524 30.288198 367.000000
44.888874 30.802059 366.000000
44.888874 31.398453 366.000000
44.888874 31.994844 366.000000
44.888874 32.591236 366.000000
44.888874 33.187630 366.000000
44.888874 33.784019 366.000000
44.888874 34.380413 366.000000
44.888874 34.976807 366.000000
44.888874 35.573200 366.000000
44.888874 36.169590 366.000000
44.766228 36.665531 365.000000
44.766228 37.260292 365.000000
44.766228 37.855057 365.000000
44.766228 38.449821 365.000000
44.766228 39.044582 365.000000
44.766228 39.639347 365.000000
44.766228 40.234108 365.000000
44.766228 40.828873 365.000000
44.766228 41.423634 365.000000
44.766228 42.018398 365.000000
44.766228 42.613159 365.000000
44.766228 43.207924 365.000000
44.766228 43.802685 365.000000
44.766228 44.397449 365.000000
44.766228 44.992210 365.000000
44.766228 45.586975 365.000000
44.766228 46.181736 365.000000
44.766228 46.776501 365.000000
44.888874 47.501045 366.000000
44.888874 48.097439 366.000000
44.888874 48.693832 366.000000
44.888874 49.290222 366.000000
44.766228 49.750313 365.000000
44.766228 50.345078 365.000000
44.766228 50.939838 365.000000
44.766228 51.534603 365.000000
44.766228 52.129368 365.000000
44.766228 52.724129 365.000000
44.766228 53.318893 365.000000
44.766228 53.913651 365.000000
44.766228 54.508415 365.000000
44.643581 54.952213 364.000000
44.643581 55.545349 364.000000
44.643581 56.138481 364.000000
44.643581 56.731613 364.000000
44.643581 57.324749 364.000000
44.643581 57.917881 364.000000
44.643581 58.511013 364.000000
44.643581 59.104149 364.000000
44.520935 59.533276 363.000000
44.520935 60.124779 363.000000
44.520935 60.716286 363.000000
44.520935 61.307789 363.000000
44.520935 61.899292 363.000000
44.520935 62.490795 363.000000
44.520935 63.082298 363.000000
44.520935 63.673805 363.000000
44.520935 64.265305 363.000000
44.520935 64.856812 363.000000
44.520935 65.448318 363.000000
44.520935 66.039818 363.000000
44.520935 66.631325 363.000000
44.520935 67.222824 363.000000
44.520935 67.814331 363.000000
44.520935 68.405838 363.000000
44.520935 68.997337 363.000000
44.520935 69.588844 363.000000
44.520935 70.180344 363.000000
44.520935 70.771851 363.000000
44.520935 71.363358 363.000000
44.520935 71.954857 363.000000
44.520935 72.546364 363.000000
44.398285 72.936386 362.000000
44.398285 73.526260 362.000000
44.398285 74.116135 362.000000
44.398285 74.706009 362.000000
44.398285 75.295883 362.000000
44.398285 75.885757 362.000000
44.398285 76.475632 362.000000
44.398285 77.065506 362.000000
44.398285 77.655380 362.000000
44.520935 78.461403 363.000000
44.520935 79.052902 363.000000
44.520935 79.644409 363.000000
44.520935 80.235916 363.000000
44.398285 80.604752 362.000000
44.398285 81.194626 362.000000
44.398285 81.784500 362.000000
44.398285 82.374374 362.000000
44.398285 82.964249 362.000000
44.398285 83.554123 362.000000
44.398285 84.143997 362.000000
44.398285 84.733871 362.000000
44.398285 85.323746 362.000000
44.398285 85.913620 362.000000
44.398285 86.503494 362.000000
44.398285 87.093369 362.000000
44.398285 87.683243 362.000000
44.398285 88.273117 362.000000
44.398285 88.862991 362.000000
44.398285 89.452866 362.000000
44.398285 90.042740 362.000000
44.398285 90.632614 362.000000
44.398285 91.222488 362.000000
44.398285 91.812363 362.000000
44.398285 92.402237 362.000000
44.398285 92.992111 362.000000
44.398285 93.581985 362.000000
44.398285 94.171860 362.000000
44.377968 94.718369 361.834320
44.376404 95.304611 361.821564
44.376404 95.894196 361.821564
44.275642 96.264702 361.000000
44.398285 97.121231 362.000000
44.398285 97.711105 362.000000
44.398285 98.300980 362.000000
44.368767 98.825104 361.759308
44.368767 99.414589 361.759308
45.868046 -24.268709 369.082275
45.868046 -23.667295 369.082275
45.877071 -23.070417 369.154877
45.877071 -22.468885 369.154877
45.877071 -21.867352 369.154877
45.857822 -21.256897 369.000000
45.857822 -20.655615 369.000000
45.857822 -20.054335 369.000000
45.857822 -19.453054 369.000000
45.857822 -18.851772 369.000000
45.857822 -18.250492 369.000000
45.857822 -17.649212 369.000000
45.857822 -17.047930 369.000000
45.857822 -16.446650 369.000000
45.857822 -15.845369 369.000000
45.857822 -15.244088 369.000000
45.857822 -14.642807 369.000000
45.857822 -14.041527 369.000000
45.857822 -13.440246 369.000000
45.857822 -12.838964 369.000000
45.857822 -12.237683 369.000000
45.857822 -11.636402 369.000000
45.857822 -11.035122 369.000000
45.857822 -10.433841 369.000000
45.857822 -9.832560 369.000000
45.857822 -9.231279 369.000000
45.857822 -8.629998 369.000000
45.857822 -8.028717 369.000000
45.857822 -7.427436 369.000000
45.857822 -6.826156 369.000000
45.857822 -6.224875 369.000000
45.857822 -5.623594 369.000000
45.857822 -5.022314 369.000000
45.857822 -4.421033 369.000000
45.857822 -3.819752 369.000000
45.857822 -3.218471 369.000000
45.857822 -2.617190 369.000000
45.733547 -2.010446 368.000000
45.733547 -1.410795 368.000000
45.733547 -0.811143 368.000000
45.733547 -0.211492 368.000000
45.733547 0.388159 368.000000
45.733547 0.987811 368.000000
45.733547 1.587462 368.000000
45.733547 2.187113 368.000000
45.733547 2.786765 368.000000
45.733547 3.386416 368.000000
45.733547 3.986067 368.000000
45.733547 4.585719 368.000000
45.733547 5.185370 368.000000
45.733547 5.785021 368.000000
45.609272 6.367323 367.000000
45.609272 6.965345 367.000000
45.609272 7.563366 367.000000
45.609272 8.161388 367.000000
45.609272 8.759410 367.000000
45.609272 9.357432 367.000000
45.609272 9.955454 367.000000
45.609272 10.553476 367.000000
45.609272 11.151498 367.000000
45.609272 11.749519 367.000000
45.609272 12.347542 367.000000
45.609272 12.945563 367.000000
45.609272 13.543586 367.000000
45.609272 14.141608 367.000000
45.484993 14.699467 366.000000
45.484993 15.295859 366.000000
45.484993 15.892252 366.000000
45.484993 16.488644 366.000000
45.484993 17.085037 366.000000
45.484993 17.681429 366.000000
45.484993 18.277821 366.000000
45.484993 18.874214 366.000000
45.484993 19.470606 366.000000
45.484993 20.066998 366.000000
45.484993 20.663391 366.000000
45.484993 21.259783 366.000000
45.484993 21.856176 366.000000
45.484993 22.452568 366.000000
45.484993 23.048960 366.000000
45.484993 23.645353 366.000000
45.484993 24.241745 366.000000
45.609272 24.906002 367.000000
45.609272 25.504023 367.000000
45.609272 26.102045 367.000000
45.609272 26.700068 367.000000
45.484993 27.223705 366.000000
45.484993 27.820097 366.000000
45.484993 28.416491 366.000000
45.484993 29.012882 366.000000
45.484993 29.609274 366.000000
45.484993 30.205667 366.000000
45.484993 30.802059 366.000000
45.484993 31.398453 366.000000
45.484993 31.994844 366.000000
45.360722 32.502190 365.000000
45.360722 33.096954 365.000000
