43.940735 118.655869 349.000000
43.940735 119.224564 349.000000
43.940735 119.793251 349.000000
43.940735 120.361946 349.000000
43.940735 120.930634 349.000000
43.940735 121.499329 349.000000
43.940735 122.068016 349.000000
43.688923 121.933914 347.000000
43.688923 122.499344 347.000000
43.778858 123.318100 347.714294
43.778858 123.884705 347.714294
43.778858 124.451294 347.714294
43.736889 124.898041 347.380951
43.736889 125.464096 347.380951
43.697544 125.916779 347.068451
43.667919 126.396568 346.833160
43.667919 126.961723 346.833160
43.632946 127.424751 346.555389
43.615845 127.939301 346.419556
43.615845 128.503784 346.419556
43.563023 128.911957 346.000000
43.563023 129.475754 346.000000
43.563023 130.039551 346.000000
43.437115 130.225891 345.000000
43.437115 130.788071 345.000000
43.437115 131.350235 345.000000
43.437115 131.912415 345.000000
43.437115 132.474579 345.000000
43.437115 133.036758 345.000000
43.437115 133.598938 345.000000
43.311211 133.772232 344.000000
43.311211 134.332779 344.000000
43.229214 134.637939 343.348755
43.209026 135.134293 343.188416
43.209026 135.693512 343.188416
43.178303 136.155838 342.944366
43.164528 136.671051 342.834961
43.156948 137.205597 342.774750
43.156948 137.764145 342.774750
43.142365 138.275955 342.658936
43.133320 138.805206 342.587097
43.133320 139.363449 342.587097
43.110889 139.848923 342.408936
43.087284 140.330002 342.221466
43.087284 140.887650 342.221466
43.075161 141.405502 342.125183
43.090836 142.014633 342.249664
43.090836 142.572327 342.249664
43.106682 143.182663 342.375519
43.118023 143.778366 342.465576
43.118023 144.336395 342.465576
43.144958 144.984970 342.679535
43.160904 145.597153 342.806183
43.160904 146.155746 342.806183
43.288601 147.148407 343.820404
43.298481 147.742386 343.898895
43.298481 148.302765 343.898895
43.298481 148.863144 343.898895
43.563023 150.336456 346.000000
43.563023 150.900253 346.000000
43.563023 151.464050 346.000000
43.563023 152.027863 346.000000
43.563023 152.591660 346.000000
43.563023 153.155472 346.000000
43.563023 153.719269 346.000000
43.563023 154.283066 346.000000
43.563023 154.846878 346.000000
43.563023 155.410675 346.000000
43.437115 155.523682 345.000000
43.437115 156.085861 345.000000
43.311211 156.193970 344.000000
43.185307 156.298843 343.000000
43.185307 156.857758 343.000000
43.185307 157.416672 343.000000
43.059402 157.515015 342.000000
43.059402 158.072296 342.000000
43.059402 158.629593 342.000000
43.059402 159.186874 342.000000
43.059402 159.744156 342.000000
43.059402 160.301437 342.000000
43.059402 160.858734 342.000000
43.059402 161.416016 342.000000
42.933498 161.499695 341.000000
42.933498 162.055344 341.000000
42.933498 162.610992 341.000000
42.807594 162.688156 340.000000
42.681686 162.762054 339.000000
42.681686 163.314453 339.000000
42.681686 163.866852 339.000000
42.429878 163.449219 337.000000
42.429878 163.998352 337.000000
42.429878 164.547485 337.000000
42.303974 164.606720 336.000000
42.303974 165.154236 336.000000
42.303974 165.701736 336.000000
42.178070 165.754471 335.000000
42.052162 165.803925 334.000000
42.052162 166.348175 334.000000
41.926262 166.392746 333.000000
41.926262 166.935364 333.000000
41.926262 167.477982 333.000000
41.926262 168.020599 333.000000
41.800354 168.057022 332.000000
41.800354 168.598022 332.000000
41.674450 168.629547 331.000000
41.548546 168.657822 330.000000
41.548546 169.195557 330.000000
41.422642 169.218933 329.000000
41.296738 169.239075 328.000000
41.296738 169.773544 328.000000
41.170834 169.788788 327.000000
41.170834 170.321625 327.000000
41.170834 170.854477 327.000000
41.044926 170.863190 326.000000
41.044926 171.394409 326.000000
41.044926 171.925613 326.000000
41.044926 172.456833 326.000000
40.919025 172.457413 325.000000
40.919025 172.986984 325.000000
40.793118 172.982666 324.000000
40.793118 173.510620 324.000000
40.793118 174.038574 324.000000
40.667213 174.027740 323.000000
40.667213 174.554077 323.000000
40.667213 175.080399 323.000000
40.667213 175.606720 323.000000
40.541309 175.587738 322.000000
40.415405 175.565506 321.000000
40.415405 176.088577 321.000000
40.415405 176.611649 321.000000
40.289497 176.582886 320.000000
40.289497 177.104324 320.000000
40.289497 177.625763 320.000000
40.163593 177.590485 319.000000
40.163593 178.110291 319.000000
40.163593 178.630096 319.000000
40.037689 178.588303 318.000000
40.037689 179.106476 318.000000
40.037689 179.624649 318.000000
40.037689 180.142838 318.000000
40.037689 180.661011 318.000000
39.911785 180.609436 317.000000
39.911785 181.125992 317.000000
39.911785 181.642532 317.000000
39.911785 182.159073 317.000000
39.911785 182.675629 317.000000
39.911785 183.192169 317.000000
39.785881 183.129196 316.000000
39.785881 183.644119 316.000000
39.785881 184.159027 316.000000
39.659973 184.089539 315.000000
39.534073 184.016800 314.000000
39.534073 184.528458 314.000000
39.534073 185.040115 314.000000
39.534073 185.551773 314.000000
39.534073 186.063431 314.000000
39.408165 185.980896 313.000000
39.282261 185.895111 312.000000
39.282261 186.403519 312.000000
39.282261 186.911911 312.000000
39.282261 187.420319 312.000000
39.156357 187.326370 311.000000
39.156357 187.833145 311.000000
39.156357 188.339920 311.000000
39.156357 188.846695 311.000000
39.156357 189.353455 311.000000
39.156357 189.860229 311.000000
39.030453 189.754883 310.000000
39.030453 190.260025 310.000000
39.030453 190.765167 310.000000
38.904549 190.653305 309.000000
38.904549 191.156815 309.000000
38.904549 191.660324 309.000000
38.904549 192.163834 309.000000
38.904549 192.667358 309.000000
38.778645 192.545715 308.000000
38.778645 193.047592 308.000000
38.778645 193.549484 308.000000
38.652737 193.421326 307.000000
38.652737 193.921585 307.000000
38.652737 194.421844 307.000000
38.526836 194.287170 306.000000
38.526836 194.785782 306.000000
38.526836 195.284409 306.000000
38.400928 195.143219 305.000000
38.400928 195.640213 305.000000
38.400928 196.137207 305.000000
38.400928 196.634201 305.000000
38.400928 197.131195 305.000000
38.400928 197.628189 305.000000
38.400928 198.125183 305.000000
38.331581 198.263474 304.449188
38.274593 198.464081 303.996582
38.274593 198.959442 303.996582
38.245193 199.301590 303.763062
38.192493 199.521271 303.344513
38.192493 200.015564 303.344513
38.158825 200.333099 303.077087
38.104740 200.542313 302.647522
38.104740 201.035477 302.647522
38.053658 201.258469 302.241791
38.023212 201.589554 302.000000
38.023212 202.081665 302.000000
38.023212 202.573776 302.000000
37.917099 202.499161 301.157166
37.917099 202.989883 301.157166
37.897312 203.374420 301.000000
37.771404 203.187622 300.000000
37.771404 203.676468 300.000000
37.771404 204.165314 300.000000
37.771404 204.654160 300.000000
37.771404 205.143005 300.000000
37.771404 205.631851 300.000000
37.645500 205.433624 299.000000
37.645500 205.920837 299.000000
37.645500 206.408051 299.000000
37.519596 206.203308 298.000000
37.519596 206.688904 298.000000
37.519596 207.174484 298.000000
37.393692 206.963226 297.000000
37.393692 207.447189 297.000000
37.393692 207.931137 297.000000
37.393692 208.415100 297.000000
52.609032 15.895310 412.511719
52.609032 16.567493 412.511719
52.609032 17.239676 412.511719
52.011559 17.708435 407.826874
52.315536 18.480364 410.210388
52.315536 19.148796 410.210388
53.053905 20.096924 416.000000
53.053905 20.774792 416.000000
53.053905 21.452658 416.000000
53.053905 22.130524 416.000000
53.053905 22.808392 416.000000
53.053905 23.486258 416.000000
52.926373 24.106037 415.000000
52.926373 24.782274 415.000000
52.926373 25.458511 415.000000
52.926373 26.134748 415.000000
52.926373 26.810987 415.000000
52.926373 27.487225 415.000000
52.926373 28.163462 415.000000
52.926373 28.839699 415.000000
52.926373 29.515936 415.000000
52.926373 30.192173 415.000000
52.926373 30.868410 415.000000
52.926373 31.544647 415.000000
52.926373 32.220886 415.000000
52.926373 32.897121 415.000000
52.798840 33.492462 414.000000
52.798840 34.167068 414.000000
52.798840 34.841675 414.000000
52.543774 35.344707 412.000000
52.543774 36.016056 412.000000
52.543774 36.687405 412.000000
52.650051 37.434319 412.833344
52.650051 38.107025 412.833344
52.650051 38.779732 412.833344
52.627022 39.435181 412.652771
52.627022 40.107594 412.652771
52.602077 40.760677 412.457184
52.575054 41.411484 412.245270
52.575054 42.083233 412.245270
52.251316 42.491711 409.706818
52.161171 43.084869 409.000000
52.161171 43.751328 409.000000
52.161171 44.417789 409.000000
52.161171 45.084248 409.000000
52.161171 45.750710 409.000000
52.161171 46.417168 409.000000
50.224674 45.335636 393.815765
50.066753 45.832787 392.577484
50.066753 46.472485 392.577484
49.851116 46.909275 390.886658
49.924370 47.616089 391.461060
49.924370 48.253967 391.461060
49.924370 48.891853 391.461060
49.741478 49.348282 390.026978
49.741478 49.983829 390.026978
49.569618 50.444481 388.679413
48.717770 50.200058 382.000000
48.717770 50.822525 382.000000
48.590233 51.310318 381.000000
48.590233 51.931152 381.000000
48.590233 52.551987 381.000000
48.590233 53.172821 381.000000
48.590233 53.793655 381.000000
48.590233 54.414490 381.000000
48.590233 55.035324 381.000000
48.590233 55.656158 381.000000
48.590233 56.276993 381.000000
48.590233 56.897827 381.000000
48.590233 57.518661 381.000000
48.590233 58.139500 381.000000
48.590233 58.760334 381.000000
48.462704 59.225307 380.000000
48.462704 59.844513 380.000000
48.335167 60.304604 379.000000
48.335167 60.922180 379.000000
48.335167 61.539753 379.000000
48.335167 62.157330 379.000000
48.335167 62.774906 379.000000
48.335167 63.392483 379.000000
48.335167 64.010056 379.000000
48.335167 64.627632 379.000000
48.335167 65.245209 379.000000
48.335167 65.862785 379.000000
48.335167 66.480362 379.000000
48.335167 67.097939 379.000000
48.335167 67.715508 379.000000
48.335167 68.333084 379.000000
48.335167 68.950661 379.000000
48.335167 69.568237 379.000000
48.335167 70.185814 379.000000
48.335167 70.803391 379.000000
48.335167 71.420967 379.000000
46.964897 69.996300 368.255585
46.880222 70.469086 367.591644
46.880222 71.068069 367.591644
46.737633 71.449081 366.473602
47.706154 73.539215 374.067841
47.706154 74.148758 374.067841
47.706154 74.758293 374.067841
47.643253 75.268463 373.574646
47.643253 75.877197 373.574646
47.574062 76.374855 373.032104
47.497952 76.859543 372.435303
47.497952 77.466423 372.435303
47.414230 77.935684 371.778839
47.322140 78.388947 371.056732
47.246426 78.867195 370.463074
47.246426 79.470856 370.463074
47.283047 80.136589 370.750214
47.337589 80.833855 371.177887
47.337589 81.438683 371.177887
47.337589 82.043518 371.177887
46.547733 81.269310 364.984589
46.547733 81.864052 364.984589
46.452602 82.290260 364.238647
46.333561 82.671387 363.305237
46.333561 83.263390 363.305237
46.453918 84.073219 364.248962
46.453918 84.666748 364.248962
46.453918 85.260292 364.248962
46.373894 85.705933 363.621460
46.294868 86.151390 363.001862
46.294868 86.742905 363.001862
45.731289 86.271225 358.582764
45.606606 86.618713 357.605103
45.606606 87.201431 357.605103
45.480408 87.541237 356.615570
45.378349 87.924591 355.815338
45.378349 88.504387 355.815338
45.303082 88.936424 355.225159
45.257866 89.425919 354.870636
45.257866 90.004181 354.870636
45.185143 90.436882 354.300385
45.245670 91.136124 354.774994
45.245670 91.714226 354.774994
45.245670 92.292328 354.774994
45.171986 92.719185 354.197235
45.108974 93.166206 353.703156
45.108974 93.742561 353.703156
44.921570 93.927071 352.233704
44.891766 94.438324 352.000000
44.891766 95.011909 352.000000
44.891766 95.585487 352.000000
44.891766 96.159065 352.000000
44.891766 96.732643 352.000000
44.764233 97.029793 351.000000
44.764233 97.601738 351.000000
44.764233 98.173691 351.000000
44.764233 98.745644 351.000000
44.764233 99.317589 351.000000
44.764233 99.889542 351.000000
44.764233 100.461494 351.000000
44.764233 101.033440 351.000000
44.764233 101.605392 351.000000
44.636700 101.886238 350.000000
44.636700 102.456558 350.000000
44.636700 103.026878 350.000000
44.636700 103.597198 350.000000
44.636700 104.167519 350.000000
44.636700 104.737839 350.000000
44.764233 105.609039 351.000000
44.764233 106.180992 351.000000
44.764233 106.752945 351.000000
44.764233 107.324883 351.000000
44.764233 107.896835 351.000000
44.764233 108.468788 351.000000
44.764233 109.040733 351.000000
44.764233 109.612686 351.000000
44.764233 110.184639 351.000000
44.764233 110.756584 351.000000
44.764233 111.328537 351.000000
44.764233 111.900490 351.000000
44.764233 112.472435 351.000000
44.764233 113.044388 351.000000
44.636700 113.292641 350.000000
44.636700 113.862961 350.000000
44.636700 114.433281 350.000000
44.636700 115.003601 350.000000
44.636700 115.573921 350.000000
44.636700 116.144241 350.000000
44.636700 116.714561 350.000000
44.636700 117.284889 350.000000
44.636700 117.855209 350.000000
44.509163 118.087181 349.000000
44.509163 118.655869 349.000000
44.509163 119.224564 349.000000
44.509163 119.793251 349.000000
44.509163 120.361946 349.000000
44.509163 120.930634 349.000000
44.509163 121.499329 349.000000
44.509163 122.068016 349.000000
44.254097 121.933914 347.000000
44.254097 122.499344 347.000000
44.345196 123.318100 347.714294
44.345196 123.884705 347.714294
44.345196 124.451294 347.714294
44.302685 124.898041 347.380951
44.302685 125.464096 347.380951
44.262829 125.916779 347.068451
44.232822 126.396568 346.833160
44.232822 126.961723 346.833160
44.197399 127.424751 346.555389
44.180073 127.939301 346.419556
44.180073 128.503784 346.419556
44.126568 128.911957 346.000000
44.126568 129.475754 346.000000
44.126568 130.039551 346.000000
43.999031 130.225891 345.000000
43.999031 130.788071 345.000000
43.999031 131.350235 345.000000
43.999031 131.912415 345.000000
43.999031 132.474579 345.000000
43.999031 133.036758 345.000000
43.999031 133.598938 345.000000
43.871498 133.772232 344.000000
43.871498 134.332779 344.000000
43.788445 134.637939 343.348755
43.767994 135.134293 343.188416
43.767994 135.693512 343.188416
43.736870 136.155838 342.944366
43.724644 136.676453 342.848480
43.715240 137.205597 342.774750
43.715240 137.764145 342.774750
43.700470 138.275955 342.658936
43.691307 138.805206 342.587097
43.691307 139.363449 342.587097
43.668583 139.848923 342.408936
43.644676 140.330002 342.221466
43.644676 140.887650 342.221466
43.632397 141.405502 342.125183
43.648273 142.014633 342.249664
43.648273 142.572327 342.249664
43.664322 143.182663 342.375519
43.675808 143.778366 342.465576
43.675808 144.336395 342.465576
43.703098 144.984970 342.679535
43.719246 145.597153 342.806183
43.719246 146.155746 342.806183
43.848595 147.148407 343.820404
43.858604 147.742386 343.898895
43.858604 148.302765 343.898895
43.858604 148.863144 343.898895
44.126568 150.336456 346.000000
44.126568 150.900253 346.000000
44.126568 151.464050 346.000000
44.126568 152.027863 346.000000
44.126568 152.591660 346.000000
44.126568 153.155472 346.000000
44.126568 153.719269 346.000000
44.126568 154.283066 346.000000
44.126568 154.846878 346.000000
44.126568 155.410675 346.000000
43.999031 155.523682 345.000000
43.999031 156.085861 345.000000
43.871498 156.193970 344.000000
43.871498 156.754517 344.000000
43.871498 157.315063 344.000000
43.871498 157.875610 344.000000
43.743965 157.975586 343.000000
43.743965 158.534500 343.000000
43.743965 159.093414 343.000000
43.743965 159.652328 343.000000
43.743965 160.211227 343.000000
43.616432 160.301437 342.000000
43.616432 160.858734 342.000000
43.616432 161.416016 342.000000
43.616432 161.973297 342.000000
43.616432 162.530579 342.000000
43.616432 163.087860 342.000000
43.488899 163.166656 341.000000
43.361366 163.242188 340.000000
43.361366 163.796204 340.000000
43.233829 163.866852 339.000000
43.233829 164.419250 339.000000
43.233829 164.971649 339.000000
43.106300 165.035767 338.000000
42.978764 165.096634 337.000000
42.851231 165.154236 336.000000
42.851231 165.701736 336.000000
42.851231 166.249252 336.000000
42.723698 166.300354 335.000000
42.723698 166.846222 335.000000
42.723698 167.392105 335.000000
42.468632 166.935364 333.000000
42.468632 167.477982 333.000000
42.468632 168.020599 333.000000
42.468632 168.563217 333.000000
42.468632 169.105850 333.000000
42.341095 169.139008 332.000000
42.213566 169.168915 331.000000
42.213566 169.708267 331.000000
41.958500 169.218933 329.000000
41.830963 169.239075 328.000000
41.830963 169.773544 328.000000
41.703430 169.788788 327.000000
41.703430 170.321625 327.000000
41.703430 170.854477 327.000000
41.575897 170.863190 326.000000
41.575897 171.394409 326.000000
41.575897 171.925613 326.000000
41.575897 172.456833 326.000000
41.448364 172.457413 325.000000
41.448364 172.986984 325.000000
41.320831 172.982666 324.000000
41.320831 173.510620 324.000000
41.320831 174.038574 324.000000
41.193298 174.027740 323.000000
41.193298 174.554077 323.000000
41.193298 175.080399 323.000000
41.193298 175.606720 323.000000
41.065762 175.587738 322.000000
41.065762 176.112442 322.000000
41.065762 176.637131 322.000000
40.938232 176.611649 321.000000
40.810696 176.582886 320.000000
40.810696 177.104324 320.000000
40.810696 177.625763 320.000000
40.683163 177.590485 319.000000
40.683163 178.110291 319.000000
40.683163 178.630096 319.000000
40.683163 179.149902 319.000000
40.683163 179.669708 319.000000
40.555630 179.624649 318.000000
40.555630 180.142838 318.000000
40.555630 180.661011 318.000000
40.555630 181.179184 318.000000
40.428097 181.125992 317.000000
40.428097 181.642532 317.000000
40.428097 182.159073 317.000000
40.300564 182.099365 316.000000
40.300564 182.614273 316.000000
40.300564 183.129196 316.000000
40.300564 183.644119 316.000000
40.300564 184.159027 316.000000
40.173027 184.089539 315.000000
40.045498 184.016800 314.000000
40.045498 184.528458 314.000000
40.045498 185.040115 314.000000
40.045498 185.551773 314.000000
40.045498 186.063431 314.000000
39.917961 185.980896 313.000000
39.790428 185.895111 312.000000
39.790428 186.403519 312.000000
39.790428 186.911911 312.000000
39.662895 186.819611 311.000000
39.662895 187.326370 311.000000
39.662895 187.833145 311.000000
39.662895 188.339920 311.000000
39.662895 188.846695 311.000000
39.662895 189.353455 311.000000
39.535362 189.249741 310.000000
39.535362 189.754883 310.000000
39.535362 190.260025 310.000000
39.407829 190.149796 309.000000
39.407829 190.653305 309.000000
39.407829 191.156815 309.000000
39.407829 191.660324 309.000000
39.407829 192.163834 309.000000
39.407829 192.667358 309.000000
39.280296 192.545715 308.000000
39.280296 193.047592 308.000000
39.280296 193.549484 308.000000
39.152763 193.421326 307.000000
39.152763 193.921585 307.000000
39.152763 194.421844 307.000000
39.025230 194.287170 306.000000
39.025230 194.785782 306.000000
39.025230 195.284409 306.000000
38.897694 195.143219 305.000000
38.897694 195.640213 305.000000
38.897694 196.137207 305.000000
38.897694 196.634201 305.000000
38.897694 197.131195 305.000000
38.897694 197.628189 305.000000
38.897694 198.125183 305.000000
38.827450 198.263474 304.449188
38.642628 197.813461 303.000000
38.642628 198.307205 303.000000
38.666553 198.924011 303.187592
38.666553 199.418045 303.187592
38.666553 199.912094 303.187592
38.631378 200.223846 302.911804
38.566257 200.379059 302.401154
38.566257 200.871826 302.401154
38.515095 201.097458 302.000000
38.515095 201.589554 302.000000
38.515095 202.081665 302.000000
38.515095 202.573776 302.000000
38.407604 202.499161 301.157166
38.407604 202.989883 301.157166
38.365093 203.255386 300.823822
38.260025 203.187622 300.000000
38.260025 203.676468 300.000000
38.260025 204.165314 300.000000
38.260025 204.654160 300.000000
38.260025 205.143005 300.000000
38.132496 204.946411 299.000000
38.132496 205.433624 299.000000
38.132496 205.920837 299.000000
38.004959 205.717728 298.000000
38.004959 206.203308 298.000000
38.004959 206.688904 298.000000
38.004959 207.174484 298.000000
37.877430 206.963226 297.000000
37.877430 207.447189 297.000000
37.877430 207.931137 297.000000
37.877430 208.415100 297.000000
53.280907 15.895310 412.511719
53.280907 16.567493 412.511719
53.280907 17.239676 412.511719
52.582306 17.677004 407.102997
52.965027 18.473862 410.066101
52.965027 19.142061 410.066101
53.731461 20.096924 416.000000
53.731461 20.774792 416.000000
53.731461 21.452658 416.000000
53.731461 22.130524 416.000000
53.731461 22.808392 416.000000
53.731461 23.486258 416.000000
53.602299 24.106037 415.000000
53.602299 24.782274 415.000000
53.602299 25.458511 415.000000
53.602299 26.134748 415.000000
53.602299 26.810987 415.000000
53.602299 27.487225 415.000000
53.602299 28.163462 415.000000
53.602299 28.839699 415.000000
53.602299 29.515936 415.000000
53.602299 30.192173 415.000000
53.602299 30.868410 415.000000
53.602299 31.544647 415.000000
53.602299 32.220886 415.000000
53.602299 32.897121 415.000000
53.473137 33.492462 414.000000
53.473137 34.167068 414.000000
53.473137 34.841675 414.000000
53.214813 35.344707 412.000000
53.214813 36.016056 412.000000
53.085651 36.598354 411.000000
53.322453 37.434319 412.833344
53.322453 38.107025 412.833344
53.322453 38.779732 412.833344
53.299126 39.435181 412.652771
53.299126 40.107594 412.652771
53.273865 40.760677 412.457184
53.246490 41.411484 412.245270
53.246490 42.083233 412.245270
52.918621 42.491711 409.706818
52.614166 42.911018 407.349670
52.614166 43.574791 407.349670
52.827328 44.417789 409.000000
52.827328 45.084248 409.000000
52.827328 45.750710 409.000000
52.827328 46.417168 409.000000
50.866100 45.335636 393.815765
50.706161 45.832787 392.577484
50.706161 46.472485 392.577484
50.487770 46.909275 390.886658
50.561958 47.616089 391.461060
50.561958 48.253967 391.461060
50.561958 48.891853 391.461060
50.376732 49.348282 390.026978
50.376732 49.983829 390.026978
50.202675 50.444481 388.679413
49.339947 50.200058 382.000000
49.339947 50.822525 382.000000
49.210785 51.310318 381.000000
49.210785 51.931152 381.000000
49.210785 52.551987 381.000000
49.210785 53.172821 381.000000
49.210785 53.793655 381.000000
49.210785 54.414490 381.000000
49.210785 55.035324 381.000000
49.210785 55.656158 381.000000
49.210785 56.276993 381.000000
49.210785 56.897827 381.000000
49.210785 57.518661 381.000000
49.210785 58.139500 381.000000
49.210785 58.760334 381.000000
49.210785 59.381168 381.000000
49.210785 60.002003 381.000000
49.210785 60.622837 381.000000
48.952461 60.922180 379.000000
48.952461 61.539753 379.000000
48.952461 62.157330 379.000000
48.952461 62.774906 379.000000
49.081623 63.559746 380.000000
49.081623 64.178947 380.000000
49.081623 64.798157 380.000000
49.081623 65.417358 380.000000
49.081623 66.036568 380.000000
49.081623 66.655769 380.000000
49.081623 67.274979 380.000000
49.081623 67.894180 380.000000
48.952461 68.333084 379.000000
48.952461 68.950661 379.000000
48.952461 69.568237 379.000000
48.952461 70.185814 379.000000
48.952461 70.803391 379.000000
48.952461 71.420967 379.000000
48.823299 71.848473 378.000000
48.823299 72.464417 378.000000
48.823299 73.080360 378.000000
48.952461 73.891266 379.000000
48.952461 74.508842 379.000000
48.952461 75.126419 379.000000
48.939545 75.724007 378.899994
48.925339 76.319260 378.790009
48.925339 76.936501 378.790009
48.909710 77.528961 378.669006
48.905434 78.139160 378.635895
48.905434 78.756142 378.635895
48.900734 79.365494 378.599487
48.895561 79.973961 378.559448
48.896523 80.592407 378.566925
48.896523 81.209274 378.566925
48.903851 81.838402 378.623627
48.903851 82.455360 378.623627
48.903851 83.072327 378.623627
47.942142 82.043518 371.177887
47.142200 81.269310 364.984589
47.142200 81.864052 364.984589
47.045853 82.290260 364.238647
46.925293 82.671387 363.305237
46.925293 83.263390 363.305237
47.047188 84.073219 364.248962
47.047188 84.666748 364.248962
47.047188 85.260292 364.248962
46.966137 85.705933 363.621460
46.886105 86.151390 363.001862
46.886105 86.742905 363.001862
46.315327 86.271225 358.582764
46.189049 86.618713 357.605103
46.189049 87.201431 357.605103
46.061241 87.541237 356.615570
45.957878 87.924591 355.815338
45.957878 88.504387 355.815338
45.881653 88.936424 355.225159
45.835861 89.425919 354.870636
45.835861 90.004181 354.870636
45.762203 90.436882 354.300385
45.823509 91.136124 354.774994
45.823509 91.714226 354.774994
45.823509 92.292328 354.774994
45.748882 92.719185 354.197235
45.685066 93.166206 353.703156
45.685066 93.742561 353.703156
45.495270 93.927071 352.233704
45.594246 94.706619 353.000000
45.594246 95.281830 353.000000
45.594246 95.857040 353.000000
45.465084 96.159065 352.000000
45.465084 96.732643 352.000000
45.465084 97.306229 352.000000
45.465084 97.879807 352.000000
45.465084 98.453384 352.000000
45.335918 98.745644 351.000000
45.335918 99.317589 351.000000
45.335918 99.889542 351.000000
45.335918 100.461494 351.000000
45.335918 101.033440 351.000000
45.335918 101.605392 351.000000
45.335918 102.177345 351.000000
45.335918 102.749290 351.000000
45.335918 103.321243 351.000000
45.335918 103.893188 351.000000
45.335918 104.465141 351.000000
45.335918 105.037094 351.000000
45.335918 105.609039 351.000000
45.335918 106.180992 351.000000
45.335918 106.752945 351.000000
45.335918 107.324883 351.000000
45.335918 107.896835 351.000000
45.335918 108.468788 351.000000
45.335918 109.040733 351.000000
45.335918 109.612686 351.000000
45.335918 110.184639 351.000000
45.335918 110.756584 351.000000
45.335918 111.328537 351.000000
45.335918 111.900490 351.000000
45.335918 112.472435 351.000000
45.335918 113.044388 351.000000
45.335918 113.616341 351.000000
45.335918 114.188286 351.000000
45.335918 114.760239 351.000000
45.335918 115.332184 351.000000
45.335918 115.904137 351.000000
45.335918 116.476089 351.000000
45.206760 116.714561 350.000000
45.206760 117.284889 350.000000
45.206760 117.855209 350.000000
45.206760 118.425529 350.000000
45.206760 118.995850 350.000000
45.077595 119.224564 349.000000
45.077595 119.793251 349.000000
45.077595 120.361946 349.000000
45.077595 120.930634 349.000000
45.077595 121.499329 349.000000
45.077595 122.068016 349.000000
44.819271 121.933914 347.000000
44.819271 122.499344 347.000000
45.020142 123.616325 348.555176
45.020142 124.184288 348.555176
45.020142 124.752251 348.555176
45.001484 125.268280 348.410706
45.001484 125.836014 348.410706
44.980953 126.346085 348.251770
44.958378 126.849846 348.076965
44.958378 127.417038 348.076965
44.946453 127.950272 347.984650
44.933338 128.479828 347.883118
44.933338 129.046692 347.883118
44.690109 128.911957 346.000000
44.690109 129.475754 346.000000
44.690109 130.039551 346.000000
44.560947 130.225891 345.000000
44.560947 130.788071 345.000000
44.560947 131.350235 345.000000
44.560947 131.912415 345.000000
44.560947 132.474579 345.000000
44.560947 133.036758 345.000000
44.560947 133.598938 345.000000
44.431786 133.772232 344.000000
44.431786 134.332779 344.000000
44.365303 134.691483 343.485291
44.335213 135.159454 343.252319
44.335213 135.718781 343.252319
44.295437 136.155838 342.944366
44.283054 136.676453 342.848480
44.273529 137.205597 342.774750
44.273529 137.764145 342.774750
44.258572 138.275955 342.658936
44.249290 138.805206 342.587097
44.249290 139.363449 342.587097
44.226284 139.848923 342.408936
44.202068 140.330002 342.221466
44.202068 140.887650 342.221466
44.189629 141.405502 342.125183
44.205711 142.014633 342.249664
44.205711 142.572327 342.249664
44.221966 143.182663 342.375519
44.233597 143.778366 342.465576
44.233597 144.336395 342.465576
44.261234 144.984970 342.679535
44.277592 145.597153 342.806183
44.277592 146.155746 342.806183
44.408588 147.148407 343.820404
44.418728 147.742386 343.898895
44.418728 148.302765 343.898895
44.418728 148.863144 343.898895
44.690109 150.336456 346.000000
44.690109 150.900253 346.000000
44.690109 151.464050 346.000000
44.690109 152.027863 346.000000
44.690109 152.591660 346.000000
44.690109 153.155472 346.000000
44.690109 153.719269 346.000000
44.690109 154.283066 346.000000
44.690109 154.846878 346.000000
44.690109 155.410675 346.000000
44.690109 155.974472 346.000000
44.690109 156.538284 346.000000
44.690109 157.102081 346.000000
44.560947 157.210205 345.000000
44.560947 157.772369 345.000000
44.431786 157.875610 344.000000
44.302624 157.975586 343.000000
44.302624 158.534500 343.000000
44.302624 159.093414 343.000000
44.302624 159.652328 343.000000
44.302624 160.211227 343.000000
44.173462 160.301437 342.000000
44.173462 160.858734 342.000000
44.173462 161.416016 342.000000
44.173462 161.973297 342.000000
44.173462 162.530579 342.000000
44.173462 163.087860 342.000000
44.044300 163.166656 341.000000
43.915138 163.242188 340.000000
43.915138 163.796204 340.000000
43.785976 163.866852 339.000000
43.785976 164.419250 339.000000
43.785976 164.971649 339.000000
43.656815 165.035767 338.000000
43.527649 165.096634 337.000000
43.527649 165.645767 337.000000
43.527649 166.194901 337.000000
43.527649 166.744034 337.000000
43.398487 166.796753 336.000000
43.398487 167.344269 336.000000
43.269325 167.392105 335.000000
43.140163 167.436676 334.000000
43.140163 167.980927 334.000000
43.011002 168.020599 333.000000
43.011002 168.563217 333.000000
43.011002 169.105850 333.000000
43.011002 169.648468 333.000000
42.881840 169.679993 332.000000
42.881840 170.220978 332.000000
42.623516 169.733292 330.000000
42.494354 169.755035 329.000000
42.494354 170.291138 329.000000
42.365189 170.308029 328.000000
42.236031 170.321625 327.000000
42.236031 170.854477 327.000000
42.236031 171.387314 327.000000
42.106865 171.394409 326.000000
42.106865 171.925613 326.000000
42.106865 172.456833 326.000000
42.106865 172.988052 326.000000
42.106865 173.519257 326.000000
41.977707 173.516571 325.000000
41.848541 173.510620 324.000000
41.848541 174.038574 324.000000
41.719383 174.027740 323.000000
41.719383 174.554077 323.000000
41.719383 175.080399 323.000000
41.719383 175.606720 323.000000
41.590218 175.587738 322.000000
41.590218 176.112442 322.000000
41.590218 176.637131 322.000000
41.461056 176.611649 321.000000
41.331894 176.582886 320.000000
41.331894 177.104324 320.000000
41.331894 177.625763 320.000000
41.202732 177.590485 319.000000
41.202732 178.110291 319.000000
41.202732 178.630096 319.000000
41.202732 179.149902 319.000000
41.202732 179.669708 319.000000
41.073570 179.624649 318.000000
41.073570 180.142838 318.000000
41.073570 180.661011 318.000000
41.073570 181.179184 318.000000
40.944405 181.125992 317.000000
40.944405 181.642532 317.000000
40.944405 182.159073 317.000000
40.815247 182.099365 316.000000
40.815247 182.614273 316.000000
40.815247 183.129196 316.000000
40.686081 183.062958 315.000000
40.686081 183.576248 315.000000
40.686081 184.089539 315.000000
40.556923 184.016800 314.000000
40.556923 184.528458 314.000000
40.556923 185.040115 314.000000
40.427757 184.960846 313.000000
40.427757 185.470871 313.000000
40.427757 185.980896 313.000000
40.298595 185.895111 312.000000
40.298595 186.403519 312.000000
40.298595 186.911911 312.000000
40.169434 186.819611 311.000000
40.169434 187.326370 311.000000
40.169434 187.833145 311.000000
40.169434 188.339920 311.000000
40.169434 188.846695 311.000000
40.169434 189.353455 311.000000
40.040272 189.249741 310.000000
39.911110 189.142776 309.000000
39.911110 189.646286 309.000000
39.911110 190.149796 309.000000
39.911110 190.653305 309.000000
39.911110 191.156815 309.000000
39.781948 191.040070 308.000000
39.781948 191.541946 308.000000
39.781948 192.043823 308.000000
39.781948 192.545715 308.000000
39.652786 192.420822 307.000000
39.652786 192.921082 307.000000
39.652786 193.421326 307.000000
39.523624 193.289917 306.000000
39.523624 193.788544 306.000000
39.523624 194.287170 306.000000
39.523624 194.785782 306.000000
39.523624 195.284409 306.000000
39.394463 195.143219 305.000000
39.394463 195.640213 305.000000
39.394463 196.137207 305.000000
39.394463 196.634201 305.000000
39.394463 197.131195 305.000000
39.265301 196.980225 304.000000
39.265301 197.475586 304.000000
39.265301 197.970947 304.000000
39.136139 197.813461 303.000000
39.136139 198.307205 303.000000
39.160366 198.924011 303.187592
39.160366 199.418045 303.187592
39.160366 199.912094 303.187592
39.124744 200.223846 302.911804
39.058788 200.379059 302.401154
39.058788 200.871826 302.401154
39.006973 201.097458 302.000000
39.006973 201.589554 302.000000
39.006973 202.081665 302.000000
39.006973 202.573776 302.000000
38.898113 202.499161 301.157166
38.898113 202.989883 301.157166
38.855057 203.255386 300.823822
38.748650 203.187622 300.000000
38.748650 203.676468 300.000000
38.748650 204.165314 300.000000
38.748650 204.654160 300.000000
38.748650 205.143005 300.000000
38.619488 204.946411 299.000000
38.619488 205.433624 299.000000
38.619488 205.920837 299.000000
38.490326 205.717728 298.000000
38.490326 206.203308 298.000000
38.490326 206.688904 298.000000
38.490326 207.174484 298.000000
38.361164 206.963226 297.000000
38.361164 207.447189 297.000000
38.361164 207.931137 297.000000
38.361164 208.415100 297.000000
53.089634 16.302443 405.912262
53.089634 16.963871 405.912262
53.245373 17.677004 407.102997
53.632919 18.473862 410.066101
53.632919 19.142061 410.066101
53.692146 19.832136 410.518951
53.722439 20.512634 410.750519
53.722439 21.181948 410.750519
54.409016 22.130524 416.000000
54.409016 22.808392 416.000000
54.409016 23.486258 416.000000
54.278225 24.106037 415.000000
54.278225 24.782274 415.000000
54.278225 25.458511 415.000000
54.278225 26.134748 415.000000
54.278225 26.810987 415.000000
54.278225 27.487225 415.000000
54.278225 28.163462 415.000000
54.278225 28.839699 415.000000
54.278225 29.515936 415.000000
54.278225 30.192173 415.000000
54.278225 30.868410 415.000000
54.278225 31.544647 415.000000
54.278225 32.220886 415.000000
54.278225 32.897121 415.000000
54.147438 33.492462 414.000000
54.147438 34.167068 414.000000
54.147438 34.841675 414.000000
53.885853 35.344707 412.000000
53.885853 36.016056 412.000000
53.755062 36.598354 411.000000
53.994850 37.434319 412.833344
53.994850 38.107025 412.833344
53.994850 38.779732 412.833344
53.971233 39.435181 412.652771
53.971233 40.107594 412.652771
53.945652 40.760677 412.457184
53.917938 41.411484 412.245270
53.917938 42.083233 412.245270
53.585930 42.491711 409.706818
53.277634 42.911018 407.349670
53.277634 43.574791 407.349670
53.493484 44.417789 409.000000
53.493484 45.084248 409.000000
53.493484 45.750710 409.000000
53.493484 46.417168 409.000000
51.468273 45.301090 393.515686
51.314133 45.804726 392.337158
51.314133 46.444038 392.337158
51.124424 46.909275 390.886658
51.200329 47.616814 391.467010
51.200329 48.254704 391.467010
51.200329 48.892593 391.467010
51.041077 49.376427 390.249420
51.041077 50.012333 390.249420
50.903286 50.511509 389.195892
50.391037 50.631016 385.279358
50.391037 51.258823 385.279358
50.291000 51.783623 384.514496
50.380531 52.503490 385.199036
50.380531 53.131168 385.199036
50.380531 53.758842 385.199036
50.291199 54.290081 384.516022
50.291199 54.916645 384.516022
49.831337 55.035324 381.000000
49.831337 55.656158 381.000000
49.831337 56.276993 381.000000
49.831337 56.897827 381.000000
49.831337 57.518661 381.000000
49.831337 58.139500 381.000000
49.831337 58.760334 381.000000
49.831337 59.381168 381.000000
49.831337 60.002003 381.000000
49.831337 60.622837 381.000000
49.569756 60.922180 379.000000
49.569756 61.539753 379.000000
49.569756 62.157330 379.000000
49.569756 62.774906 379.000000
49.700546 63.559746 380.000000
49.700546 64.178947 380.000000
49.700546 64.798157 380.000000
49.700546 65.417358 380.000000
49.700546 66.036568 380.000000
49.700546 66.655769 380.000000
49.700546 67.274979 380.000000
49.700546 67.894180 380.000000
49.569756 68.333084 379.000000
49.569756 68.950661 379.000000
49.569756 69.568237 379.000000
49.569756 70.185814 379.000000
49.569756 70.803391 379.000000
49.569756 71.420967 379.000000
49.438965 71.848473 378.000000
49.438965 72.464417 378.000000
49.438965 73.080360 378.000000
49.569756 73.891266 379.000000
49.569756 74.508842 379.000000
49.569756 75.126419 379.000000
49.556675 75.724007 378.899994
49.542290 76.319260 378.790009
49.542290 76.936501 378.790009
49.526466 77.528961 378.669006
49.522133 78.139160 378.635895
49.522133 78.756142 378.635895
49.517368 79.365494 378.599487
49.512135 79.973961 378.559448
49.513115 80.592407 378.566925
49.513115 81.209274 378.566925
49.520531 81.838402 378.623627
49.520531 82.455360 378.623627
49.520531 83.072327 378.623627
47.895874 80.943642 366.201874
47.736664 81.269310 364.984589
47.736664 81.864052 364.984589
47.639103 82.290260 364.238647
47.517025 82.671387 363.305237
47.517025 83.263390 363.305237
47.388016 83.627724 362.318878
47.314453 84.087387 361.756439
47.314453 84.676865 361.756439
47.192207 85.046036 360.821777
47.070786 85.413658 359.893402
47.070786 86.000107 359.893402
46.899364 86.271225 358.582764
46.771496 86.618713 357.605103
46.771496 87.201431 357.605103
46.642075 87.541237 356.615570
46.537411 87.924591 355.815338
46.537411 88.504387 355.815338
46.460220 88.936424 355.225159
46.413853 89.425919 354.870636
46.413853 90.004181 354.870636
46.339268 90.436882 354.300385
46.401344 91.136124 354.774994
46.401344 91.714226 354.774994
46.401344 92.292328 354.774994
46.325779 92.719185 354.197235
46.261158 93.166206 353.703156
46.261158 93.742561 353.703156
46.068970 93.927071 352.233704
46.169193 94.706619 353.000000
46.169193 95.281830 353.000000
46.169193 95.857040 353.000000
46.038399 96.159065 352.000000
46.038399 96.732643 352.000000
46.038399 97.306229 352.000000
46.038399 97.879807 352.000000
46.038399 98.453384 352.000000
45.907608 98.745644 351.000000
45.907608 99.317589 351.000000
45.907608 99.889542 351.000000
45.907608 100.461494 351.000000
45.907608 101.033440 351.000000
45.907608 101.605392 351.000000
45.907608 102.177345 351.000000
45.907608 102.749290 351.000000
45.907608 103.321243 351.000000
45.907608 103.893188 351.000000
45.907608 104.465141 351.000000
45.907608 105.037094 351.000000
45.907608 105.609039 351.000000
45.907608 106.180992 351.000000
45.907608 106.752945 351.000000
45.907608 107.324883 351.000000
45.907608 107.896835 351.000000
45.907608 108.468788 351.000000
45.907608 109.040733 351.000000
45.907608 109.612686 351.000000
45.907608 110.184639 351.000000
45.907608 110.756584 351.000000
45.907608 111.328537 351.000000
45.907608 111.900490 351.000000
45.907608 112.472435 351.000000
45.907608 113.044388 351.000000
45.907608 113.616341 351.000000
45.907608 114.188286 351.000000
45.907608 114.760239 351.000000
45.907608 115.332184 351.000000
45.907608 115.904137 351.000000
45.907608 116.476089 351.000000
45.776817 116.714561 350.000000
45.776817 117.284889 350.000000
45.776817 117.855209 350.000000
45.776817 118.425529 350.000000
45.776817 118.995850 350.000000
45.646027 119.224564 349.000000
45.646027 119.793251 349.000000
45.646027 120.361946 349.000000
45.646027 120.930634 349.000000
45.646027 121.499329 349.000000
45.646027 122.068016 349.000000
45.351749 121.846062 346.750000
45.323956 122.336067 346.537506
45.587849 123.616325 348.555176
45.587849 124.184288 348.555176
45.587849 124.752251 348.555176
45.568954 125.268280 348.410706
45.568954 125.836014 348.410706
45.548164 126.346085 348.251770
45.525303 126.849846 348.076965
45.525303 127.417038 348.076965
45.513229 127.950272 347.984650
45.499950 128.479828 347.883118
45.499950 129.046692 347.883118
45.153694 128.627197 345.235718
45.122536 129.100616 344.997498
45.122536 129.662781 344.997498
45.097996 130.154129 344.809875
45.086697 130.683243 344.723480
45.086697 131.244965 344.723480
45.070080 131.758102 344.596436
45.031116 132.205231 344.298523
45.031116 132.766266 344.298523
45.004223 133.247665 344.092896
44.957409 133.669159 343.734955
44.957409 134.229279 343.734955
44.924755 134.691483 343.485291
44.894283 135.159454 343.252319
44.894283 135.718781 343.252319
44.851612 136.148575 342.926056
44.841465 136.676453 342.848480
44.815380 146.647095 342.649048
44.847916 147.312302 342.897797
44.847916 147.871048 342.897797
44.847916 148.429794 342.897797
44.878670 149.090729 343.132935
44.878670 149.649857 343.132935
44.878670 150.208984 343.132935
44.887699 150.798431 343.201965
44.887699 151.357681 343.201965
44.887699 151.916931 343.201965
44.885815 152.469772 343.187561
45.253654 154.283066 346.000000
45.253654 154.846878 346.000000
45.253654 155.410675 346.000000
45.253654 155.974472 346.000000
45.253654 156.538284 346.000000
45.253654 157.102081 346.000000
45.253654 157.665894 346.000000
45.253654 158.229691 346.000000
45.122864 158.334549 345.000000
44.992073 158.436157 344.000000
44.992073 158.996689 344.000000
44.992073 159.557236 344.000000
44.861282 159.652328 343.000000
44.861282 160.211227 343.000000
44.861282 160.770142 343.000000
44.861282 161.329056 343.000000
44.861282 161.887970 343.000000
44.861282 162.446884 343.000000
44.730492 162.530579 342.000000
44.730492 163.087860 342.000000
44.730492 163.645157 342.000000
44.599701 163.722305 341.000000
44.599701 164.277969 341.000000
44.599701 164.833618 341.000000
44.338120 164.419250 339.000000
44.338120 164.971649 339.000000
44.338120 165.524033 339.000000
44.338120 166.076431 339.000000
44.076538 165.645767 337.000000
44.076538 166.194901 337.000000
44.076538 166.744034 337.000000
43.945744 166.796753 336.000000
43.945744 167.344269 336.000000
43.814957 167.392105 335.000000
43.684162 167.436676 334.000000
43.684162 167.980927 334.000000
43.553371 168.020599 333.000000
43.553371 168.563217 333.000000
43.553371 169.105850 333.000000
43.553371 169.648468 333.000000
43.422581 169.679993 332.000000
43.422581 170.220978 332.000000
43.160999 169.733292 330.000000
43.160999 170.271011 330.000000
43.160999 170.808746 330.000000
43.030209 170.827240 329.000000
42.899418 170.842499 328.000000
42.899418 171.376968 328.000000
42.768627 171.387314 327.000000
42.768627 171.920151 327.000000
42.768627 172.453003 327.000000
42.637836 172.456833 326.000000
42.637836 172.988052 326.000000
42.637836 173.519257 326.000000
42.637836 174.050476 326.000000
42.507046 174.046158 325.000000
42.507046 174.575745 325.000000
42.376255 174.566528 324.000000
42.245464 174.554077 323.000000
42.245464 175.080399 323.000000
42.245464 175.606720 323.000000
42.245464 176.133041 323.000000
42.114674 176.112442 322.000000
42.114674 176.637131 322.000000
41.983883 176.611649 321.000000
41.853092 176.582886 320.000000
41.853092 177.104324 320.000000
41.853092 177.625763 320.000000
41.722298 177.590485 319.000000
41.722298 178.110291 319.000000
41.722298 178.630096 319.000000
41.722298 179.149902 319.000000
41.722298 179.669708 319.000000
41.591511 179.624649 318.000000
41.591511 180.142838 318.000000
41.591511 180.661011 318.000000
41.591511 181.179184 318.000000
41.460716 181.125992 317.000000
41.460716 181.642532 317.000000
41.460716 182.159073 317.000000
41.329929 182.099365 316.000000
41.329929 182.614273 316.000000
41.329929 183.129196 316.000000
41.199135 183.062958 315.000000
41.199135 183.576248 315.000000
41.199135 184.089539 315.000000
41.068348 184.016800 314.000000
41.068348 184.528458 314.000000
41.068348 185.040115 314.000000
40.937553 184.960846 313.000000
40.937553 185.470871 313.000000
40.937553 185.980896 313.000000
40.806767 185.895111 312.000000
40.806767 186.403519 312.000000
40.806767 186.911911 312.000000
40.675972 186.819611 311.000000
40.675972 187.326370 311.000000
40.675972 187.833145 311.000000
40.675972 188.339920 311.000000
40.675972 188.846695 311.000000
40.675972 189.353455 311.000000
40.545181 189.249741 310.000000
40.414391 189.142776 309.000000
40.414391 189.646286 309.000000
40.414391 190.149796 309.000000
40.414391 190.653305 309.000000
40.414391 191.156815 309.000000
40.283600 191.040070 308.000000
40.283600 191.541946 308.000000
40.283600 192.043823 308.000000
40.283600 192.545715 308.000000
40.152809 192.420822 307.000000
40.152809 192.921082 307.000000
40.152809 193.421326 307.000000
40.022018 193.289917 306.000000
40.022018 193.788544 306.000000
40.022018 194.287170 306.000000
39.891228 194.149231 305.000000
39.891228 194.646225 305.000000
39.891228 195.143219 305.000000
39.891228 195.640213 305.000000
39.891228 196.137207 305.000000
39.891228 196.634201 305.000000
39.891228 197.131195 305.000000
39.760437 196.980225 304.000000
39.760437 197.475586 304.000000
39.760437 197.970947 304.000000
39.629646 197.813461 303.000000
39.629646 198.307205 303.000000
39.629646 198.800934 303.000000
39.629646 199.294662 303.000000
39.629646 199.788406 303.000000
39.592461 200.094208 302.715698
39.541874 200.331207 302.328918
39.541874 200.823837 302.328918
39.498852 201.097458 302.000000
39.498852 201.589554 302.000000
39.498852 202.081665 302.000000
39.416813 202.153000 301.372711
39.362881 202.366837 300.960388
39.362881 202.857254 300.960388
39.319286 203.122467 300.627075
39.237270 203.187622 300.000000
39.237270 203.676468 300.000000
39.237270 204.165314 300.000000
39.237270 204.654160 300.000000
39.237270 205.143005 300.000000
39.106483 204.946411 299.000000
38.975689 204.746552 298.000000
38.975689 205.232132 298.000000
38.975689 205.717728 298.000000
38.975689 206.203308 298.000000
38.975689 206.688904 298.000000
38.975689 207.174484 298.000000
38.844902 206.963226 297.000000
38.844902 207.447189 297.000000
38.844902 207.931137 297.000000
38.844902 208.415100 297.000000
54.177792 18.432011 409.137115
54.177792 19.098694 409.137115
54.254032 19.793192 409.712830
54.296780 20.476934 410.035645
54.296780 21.145082 410.035645
54.296780 21.813231 410.035645
54.206276 28.447214 409.352203
54.206276 29.114248 409.352203
54.206276 29.781284 409.352203
54.181793 30.434565 409.167328
54.147709 31.081734 408.909912
54.147709 31.748047 408.909912
54.118679 32.396980 408.690674
54.001938 32.991615 407.809082
54.001938 33.656136 407.809082
53.964542 34.296890 407.526672
53.665939 34.767498 405.271729
53.665939 35.427887 405.271729
53.601128 36.044685 404.782257
53.926407 36.927013 407.238678
53.926407 37.590603 407.238678
53.926407 38.254192 407.238678
53.926407 38.917786 407.238678
53.926407 39.581375 407.238678
53.898418 40.224079 407.027344
53.870079 40.865826 406.813324
53.870079 41.528725 406.813324
53.842316 42.169876 406.603668
53.814678 42.810444 406.394958
53.814678 43.472660 406.394958
53.795952 44.119522 406.253571
52.760895 43.919888 398.437042
52.760895 44.569138 398.437042
52.492260 44.988155 396.408386
52.109211 45.301090 393.515686
51.860302 45.722866 391.635986
51.860302 46.361034 391.635986
51.716446 46.868828 390.549622
51.837925 47.616814 391.467010
51.837925 48.254704 391.467010
51.837925 48.892593 391.467010
51.676693 49.376427 390.249420
51.676693 50.012333 390.249420
51.537186 50.511509 389.195892
51.018559 50.631016 385.279358
51.018559 51.258823 385.279358
50.917278 51.783623 384.514496
51.007923 52.503490 385.199036
51.007923 53.131168 385.199036
51.007923 53.758842 385.199036
50.917477 54.290081 384.516022
50.917477 54.916645 384.516022
50.451885 55.035324 381.000000
50.451885 55.656158 381.000000
50.451885 56.276993 381.000000
50.451885 56.897827 381.000000
50.451885 57.518661 381.000000
50.451885 58.139500 381.000000
50.451885 58.760334 381.000000
50.451885 59.381168 381.000000
50.451885 60.002003 381.000000
50.451885 60.622837 381.000000
50.584309 61.404419 382.000000
50.584309 62.026882 382.000000
50.584309 62.649345 382.000000
50.584309 63.271809 382.000000
50.451885 63.727009 381.000000
50.451885 64.347847 381.000000
50.451885 64.968681 381.000000
50.451885 65.589516 381.000000
50.451885 66.210350 381.000000
50.451885 66.831184 381.000000
50.451885 67.452019 381.000000
50.451885 68.072853 381.000000
50.187046 68.333084 379.000000
50.187046 68.950661 379.000000
50.187046 69.568237 379.000000
50.187046 70.185814 379.000000
50.187046 70.803391 379.000000
50.187046 71.420967 379.000000
50.054630 71.848473 378.000000
50.054630 72.464417 378.000000
50.054630 73.080360 378.000000
50.226772 73.949760 379.299988
50.226772 74.567825 379.299988
50.226772 75.185890 379.299988
50.204262 75.769981 379.130005
