13.195189 195.367569 333.368561
13.195189 195.910782 333.368561
13.185315 196.307007 333.119110
13.185315 196.849808 333.119110
13.141042 196.729828 332.000580
13.141042 197.270813 332.000580
13.141042 197.811813 332.000580
12.936498 195.265381 326.832886
12.936498 195.797958 326.832886
12.812812 194.453400 323.708038
12.751716 194.051147 322.164490
12.751716 194.576111 322.164490
12.874155 196.974396 325.257843
12.961377 198.842484 327.461456
12.961377 199.376083 327.461456
12.961377 199.909668 327.461456
17.565815 90.743568 426.250000
17.565815 91.438133 426.250000
17.565815 92.132706 426.250000
17.548302 92.734726 425.825012
17.548302 93.428596 425.825012
17.493406 93.828041 424.492950
17.447262 94.270424 423.373230
17.447262 94.960304 423.373230
17.392202 95.348328 422.037109
17.224905 95.112251 417.977478
17.224905 95.793335 417.977478
17.196239 96.313881 417.281921
17.171453 96.854027 416.680450
17.171453 97.533005 416.680450
17.141325 98.039665 415.949371
17.121195 98.601517 415.460876
17.121195 99.278503 415.460876
17.087923 99.761253 414.653534
17.060991 100.278625 414.000000
17.060991 100.953232 414.000000
17.019781 101.382370 413.000000
16.978571 101.808235 412.000000
16.937361 102.230850 411.000000
16.937361 102.900566 411.000000
16.896151 103.318291 410.000000
16.896151 103.986382 410.000000
16.896151 104.654465 410.000000
16.854942 105.065681 409.000000
16.854942 105.732140 409.000000
16.854942 106.398598 409.000000
16.813732 106.803284 408.000000
16.772520 107.204712 407.000000
16.772520 107.867912 407.000000
16.731310 108.264450 406.000000
16.690100 108.657730 405.000000
16.690100 109.317673 405.000000
16.648890 109.706078 404.000000
16.607679 110.091209 403.000000
16.607679 110.747894 403.000000
16.566469 111.128136 402.000000
16.525259 111.505119 401.000000
16.525259 112.158546 401.000000
16.525259 112.811966 401.000000
16.525259 113.465393 401.000000
16.525259 114.118820 401.000000
16.484049 114.486023 400.000000
16.442839 114.849976 399.000000
16.442839 115.500137 399.000000
16.401630 115.859200 398.000000
16.360420 116.215012 397.000000
16.360420 116.861916 397.000000
16.360420 117.508827 397.000000
16.319210 117.858109 396.000000
16.319210 118.503387 396.000000
16.319210 119.148666 396.000000
16.236790 119.188919 394.000000
16.195580 119.526794 393.000000
16.195580 120.167183 393.000000
16.154367 120.500168 392.000000
16.113157 120.829903 391.000000
16.113157 121.467026 391.000000
16.071947 121.791885 390.000000
15.989528 121.799545 388.000000
15.989528 122.431786 388.000000
15.948318 122.746849 387.000000
15.907107 123.058655 386.000000
15.907107 123.687637 386.000000
15.865897 123.994553 385.000000
15.824688 124.298210 384.000000
15.824688 124.923935 384.000000
15.783478 125.222717 383.000000
15.742268 125.518227 382.000000
15.742268 126.140694 382.000000
15.659847 126.099472 380.000000
15.618637 126.385201 379.000000
15.618637 127.002777 379.000000
15.618637 127.620354 379.000000
15.618637 128.237930 379.000000
15.618637 128.855499 379.000000
15.473577 128.270599 375.480011
15.434808 128.559509 374.539215
15.434808 129.169815 374.539215
15.405339 129.532349 373.824158
15.454928 130.560410 375.027466
15.454928 131.171509 375.027466
15.454928 131.782608 375.027466
15.439969 132.265564 374.664459
15.439969 132.876068 374.664459
15.439969 133.486588 374.664459
15.453363 134.213440 374.989502
15.453363 134.824478 374.989502
15.453363 135.435516 374.989502
15.340974 135.057114 372.262238
15.231080 134.691879 369.595581
15.231080 135.294144 369.595581
15.110335 134.819061 366.665588
15.025329 134.654724 364.602844
15.025329 135.248856 364.602844
14.945709 135.123123 362.670807
14.872024 135.044983 360.882751
14.872024 135.633041 360.882751
14.800941 135.570023 359.157898
14.736628 135.563629 357.597260
14.736628 136.146347 357.597260
14.665725 136.071182 355.876740
14.562726 135.691376 353.377380
14.562726 136.267197 353.377380
14.299913 134.373428 347.000000
14.258703 134.549973 346.000000
14.258703 135.113785 346.000000
14.217493 135.285446 345.000000
14.176284 135.453857 344.000000
14.176284 136.014404 344.000000
14.135072 136.177933 343.000000
14.135072 136.736847 343.000000
14.135072 137.295761 343.000000
14.135072 137.854675 343.000000
14.093862 138.010056 342.000000
14.093862 138.567337 342.000000
14.093862 139.124619 342.000000
14.093862 139.681915 342.000000
14.093862 140.239197 342.000000
14.093862 140.796478 342.000000
14.052651 140.940445 341.000000
14.052651 141.496109 341.000000
14.052651 142.051758 341.000000
14.011442 142.189209 340.000000
14.011442 142.743225 340.000000
14.011442 143.297256 340.000000
14.011442 143.851288 340.000000
14.011442 144.405304 340.000000
14.011442 144.959335 340.000000
13.970232 145.085373 339.000000
13.970232 145.637772 339.000000
13.970232 146.190170 339.000000
13.970232 146.742569 339.000000
13.929022 146.860458 338.000000
13.929022 147.411224 338.000000
13.929022 147.961990 338.000000
13.929022 148.512756 338.000000
13.929022 149.063538 338.000000
13.929022 149.614304 338.000000
13.929022 150.165070 338.000000
13.929022 150.715836 338.000000
13.929022 151.266602 338.000000
13.887812 151.368195 337.000000
13.887812 151.917328 337.000000
13.887812 152.466476 337.000000
13.887812 153.015610 337.000000
13.887812 153.564743 337.000000
13.887812 154.113892 337.000000
13.887812 154.663025 337.000000
13.887812 155.212158 337.000000
13.887812 155.761292 337.000000
13.887812 156.310440 337.000000
13.887812 156.859573 337.000000
13.887812 157.408707 337.000000
13.887812 157.957840 337.000000
13.929022 158.977325 338.000000
13.929022 159.528091 338.000000
13.929022 160.078857 338.000000
13.929022 160.629639 338.000000
13.929022 161.180405 338.000000
13.929022 161.731171 338.000000
13.970232 162.762054 339.000000
13.970232 163.314453 339.000000
13.970232 163.866852 339.000000
13.970232 164.419250 339.000000
13.970232 164.971649 339.000000
13.970232 165.524033 339.000000
13.970232 166.076431 339.000000
13.970232 166.628830 339.000000
13.970232 167.181229 339.000000
13.970232 167.733627 339.000000
13.970232 168.286026 339.000000
13.970232 168.838409 339.000000
13.970232 169.390808 339.000000
13.970232 169.943207 339.000000
13.970232 170.495605 339.000000
14.011442 171.552567 340.000000
14.011442 172.106598 340.000000
14.011442 172.660614 340.000000
14.011442 173.214645 340.000000
14.011442 173.768677 340.000000
14.011442 174.322693 340.000000
14.011442 174.876724 340.000000
14.011442 175.430756 340.000000
14.011442 175.984772 340.000000
13.970232 176.019562 339.000000
13.970232 176.571960 339.000000
13.970232 177.124359 339.000000
13.970232 177.676758 339.000000
13.970232 178.229156 339.000000
13.970232 178.781555 339.000000
13.970232 179.333939 339.000000
13.970232 179.886337 339.000000
13.970232 180.438736 339.000000
13.955514 180.800461 338.642853
13.944525 181.209457 338.376190
13.944525 181.760834 338.376190
13.934223 182.177521 338.126190
13.922101 182.569550 337.832062
13.922101 183.120041 337.832062
13.910654 183.519516 337.554291
13.901978 183.954758 337.343781
13.887812 184.316437 337.000000
13.887812 184.865570 337.000000
13.887812 185.414703 337.000000
13.887812 185.963837 337.000000
13.887812 186.512985 337.000000
13.846601 186.507034 336.000000
13.846601 187.054550 336.000000
13.846601 187.602051 336.000000
13.846601 188.149567 336.000000
13.805391 188.135483 335.000000
13.805391 188.681351 335.000000
13.805391 189.227234 335.000000
13.819161 189.962387 335.334137
13.819161 190.508820 335.334137
13.819161 191.055237 335.334137
13.812791 191.513336 335.179535
13.812791 192.059509 335.179535
13.807020 192.525208 335.039520
13.733019 192.036377 333.243835
13.733019 192.579391 333.243835
13.722972 192.981094 333.000000
13.722972 193.523712 333.000000
13.722972 194.066330 333.000000
13.681762 194.024536 332.000000
13.659436 194.248062 331.458282
13.659436 194.788162 331.458282
13.647185 195.153076 331.161011
13.644274 195.650940 331.090332
13.681786 196.729828 332.000580
13.681786 197.270813 332.000580
13.681786 197.811813 332.000580
13.468824 195.265381 326.832886
13.468824 195.797958 326.832886
13.368599 194.869583 324.400848
13.276439 194.051147 322.164490
13.276439 194.576111 322.164490
13.403916 196.974396 325.257843
13.494727 198.842484 327.461456
13.494727 199.376083 327.461456
13.494727 199.909668 327.461456
18.260067 90.743568 426.250000
18.260067 91.438133 426.250000
18.260067 92.132706 426.250000
18.241861 92.734726 425.825012
18.241861 93.428596 425.825012
18.184795 93.828041 424.492950
18.136829 94.270424 423.373230
18.136829 94.960304 423.373230
18.079592 95.348328 422.037109
17.905682 95.112251 417.977478
17.905682 95.793335 417.977478
17.875883 96.313881 417.281921
17.854595 96.878319 416.784943
17.854595 97.557465 416.784943
17.854595 98.236610 416.784943
17.813438 98.687752 415.824219
17.813438 99.365334 415.824219
17.763288 99.761253 414.653534
17.692451 100.036415 413.000000
17.692451 100.709389 413.000000
17.649612 101.136887 412.000000
17.606773 101.561127 411.000000
17.563936 101.982109 410.000000
17.563936 102.650200 410.000000
17.563936 103.318291 410.000000
17.521097 103.732758 409.000000
17.521097 104.399216 409.000000
17.478258 104.808792 408.000000
17.435417 105.215111 407.000000
17.435417 105.878311 407.000000
17.392578 106.279739 406.000000
17.349741 106.677910 405.000000
17.349741 107.337845 405.000000
17.349741 107.997787 405.000000
17.264063 108.121155 403.000000
17.264063 108.777840 403.000000
17.221224 109.162971 402.000000
17.221224 109.818024 402.000000
17.221224 110.473083 402.000000
17.178385 110.851692 401.000000
17.178385 111.505119 401.000000
17.178385 112.158546 401.000000
17.135546 112.530640 400.000000
17.135546 113.182434 400.000000
17.135546 113.834229 400.000000
17.049870 113.913589 398.000000
17.007030 114.274292 397.000000
17.007030 114.921204 397.000000
17.007030 115.568108 397.000000
17.007030 116.215012 397.000000
17.007030 116.861916 397.000000
16.964191 117.212830 396.000000
16.921352 117.560486 395.000000
16.921352 118.204132 395.000000
16.921352 118.847778 395.000000
16.878513 119.188919 394.000000
16.835674 119.526794 393.000000
16.835674 120.167183 393.000000
16.792835 120.500168 392.000000
16.749996 120.829903 391.000000
16.749996 121.467026 391.000000
16.707157 121.791885 390.000000
16.621479 121.799545 388.000000
16.621479 122.431786 388.000000
16.578640 122.746849 387.000000
16.450125 122.421043 384.000000
16.450125 123.046768 384.000000
16.450125 123.672485 384.000000
16.407286 123.974533 383.000000
16.407286 124.598625 383.000000
16.364447 124.895760 382.000000
16.278769 124.861061 380.000000
16.278769 125.480263 380.000000
16.235931 125.767632 379.000000
16.235931 126.385201 379.000000
16.235931 127.002777 379.000000
16.235931 127.620354 379.000000
16.083424 127.033386 375.440002
16.083424 127.645157 375.440002
16.003481 127.619415 373.573853
15.961685 127.893265 372.598206
15.961685 128.500412 372.598206
15.930081 128.851929 371.860504
15.968228 129.767868 372.750946
15.968228 130.375259 372.750946
15.968228 130.982651 372.750946
16.050200 132.265564 374.664459
16.050200 132.876068 374.664459
16.050200 133.486588 374.664459
16.031628 133.941925 374.230896
16.011198 134.380264 373.753998
16.011198 134.989288 373.753998
15.906973 134.715637 371.321045
15.799581 134.407120 368.814178
15.799581 135.008087 368.814178
15.707538 134.819061 366.665588
15.619172 134.654724 364.602844
15.619172 135.248856 364.602844
15.536407 135.123123 362.670807
15.459808 135.044983 360.882751
15.459808 135.633041 360.882751
15.385917 135.570023 359.157898
15.319060 135.563629 357.597260
15.319060 136.146347 357.597260
15.252206 136.132324 356.036652
15.156146 135.851471 353.794312
15.156146 136.427963 353.794312
15.077520 136.293716 351.958893
14.822248 134.549973 346.000000
14.822248 135.113785 346.000000
14.736570 134.893311 344.000000
14.693730 135.060104 343.000000
14.693730 135.619019 343.000000
14.693730 136.177933 343.000000
14.693730 136.736847 343.000000
14.693730 137.295761 343.000000
14.693730 137.854675 343.000000
14.650891 138.010056 342.000000
14.650891 138.567337 342.000000
14.650891 139.124619 342.000000
14.650891 139.681915 342.000000
14.650891 140.239197 342.000000
14.650891 140.796478 342.000000
14.608052 140.940445 341.000000
14.608052 141.496109 341.000000
14.608052 142.051758 341.000000
14.565214 142.189209 340.000000
14.565214 142.743225 340.000000
14.565214 143.297256 340.000000
14.565214 143.851288 340.000000
14.565214 144.405304 340.000000
14.565214 144.959335 340.000000
14.522375 145.085373 339.000000
14.522375 145.637772 339.000000
14.522375 146.190170 339.000000
14.522375 146.742569 339.000000
14.479536 146.860458 338.000000
14.479536 147.411224 338.000000
14.479536 147.961990 338.000000
14.479536 148.512756 338.000000
14.479536 149.063538 338.000000
14.479536 149.614304 338.000000
14.479536 150.165070 338.000000
14.479536 150.715836 338.000000
14.479536 151.266602 338.000000
14.436698 151.368195 337.000000
14.436698 151.917328 337.000000
14.436698 152.466476 337.000000
14.436698 153.015610 337.000000
14.436698 153.564743 337.000000
14.436698 154.113892 337.000000
14.436698 154.663025 337.000000
14.436698 155.212158 337.000000
14.436698 155.761292 337.000000
14.436698 156.310440 337.000000
14.436698 156.859573 337.000000
14.436698 157.408707 337.000000
14.436698 157.957840 337.000000
14.479536 158.977325 338.000000
14.479536 159.528091 338.000000
14.479536 160.078857 338.000000
14.479536 160.629639 338.000000
14.479536 161.180405 338.000000
14.479536 161.731171 338.000000
14.522375 162.762054 339.000000
14.522375 163.314453 339.000000
14.522375 163.866852 339.000000
14.522375 164.419250 339.000000
14.522375 164.971649 339.000000
14.522375 165.524033 339.000000
14.522375 166.076431 339.000000
14.522375 166.628830 339.000000
14.522375 167.181229 339.000000
14.522375 167.733627 339.000000
14.522375 168.286026 339.000000
14.522375 168.838409 339.000000
14.522375 169.390808 339.000000
14.522375 169.943207 339.000000
14.522375 170.495605 339.000000
14.565214 171.552567 340.000000
14.565214 172.106598 340.000000
14.565214 172.660614 340.000000
14.565214 173.214645 340.000000
14.565214 173.768677 340.000000
14.565214 174.322693 340.000000
14.565214 174.876724 340.000000
14.565214 175.430756 340.000000
14.565214 175.984772 340.000000
14.522375 176.019562 339.000000
14.522375 176.571960 339.000000
14.522375 177.124359 339.000000
14.522375 177.676758 339.000000
14.522375 178.229156 339.000000
14.522375 178.781555 339.000000
14.522375 179.333939 339.000000
14.522375 179.886337 339.000000
14.522375 180.438736 339.000000
14.507075 180.800461 338.642853
14.495652 181.209457 338.376190
14.495652 181.760834 338.376190
14.484942 182.177521 338.126190
14.472342 182.569550 337.832062
14.472342 183.120041 337.832062
14.395836 182.699570 336.046143
14.384561 183.103653 335.782959
14.393859 183.769501 336.000000
14.393859 184.317001 336.000000
14.393859 184.864517 336.000000
14.393859 185.412018 336.000000
14.393859 185.959534 336.000000
14.351020 185.951965 335.000000
14.351020 186.497849 335.000000
14.351020 187.043716 335.000000
14.308181 187.029633 334.000000
14.308181 187.573883 334.000000
14.308181 188.118134 334.000000
14.265343 188.097519 333.000000
14.265343 188.640137 333.000000
14.265343 189.182755 333.000000
14.265343 189.725372 333.000000
14.265343 190.267990 333.000000
14.265343 190.810608 333.000000
14.265343 191.353241 333.000000
14.265343 191.895859 333.000000
14.265343 192.438477 333.000000
14.265343 192.981094 333.000000
14.222504 192.942551 332.000000
14.222504 193.483551 332.000000
14.179665 193.440125 331.000000
14.136827 193.393448 330.000000
14.136827 193.931168 330.000000
14.137297 194.475388 330.011017
14.137297 195.013153 330.011017
14.155442 195.801880 330.434570
14.155442 196.340317 330.434570
14.155442 196.878754 330.434570
13.959519 194.684769 325.861084
13.959519 195.215775 325.861084
13.896964 194.869583 324.400848
14.179665 199.373093 331.000000
14.179665 199.912445 331.000000
14.222504 201.057404 332.000000
14.222504 201.598389 332.000000
14.222504 202.139389 332.000000
14.222504 202.680374 332.000000
14.179665 202.609253 331.000000
14.179665 203.148605 331.000000
14.179665 203.687973 331.000000
14.179665 204.227325 331.000000
14.179665 204.766693 331.000000
14.179665 205.306046 331.000000
18.982109 88.094276 426.875000
18.982109 88.789864 426.875000
18.982109 89.485451 426.875000
18.979006 90.166290 426.805206
18.987669 90.903236 427.000000
18.987669 91.599030 427.000000
18.987669 92.294823 427.000000
18.987669 92.990608 427.000000
18.987669 93.686401 427.000000
18.943201 94.161156 426.000000
18.943201 94.855316 426.000000
18.943201 95.549477 426.000000
18.784250 95.436066 422.425446
18.650394 95.439423 419.415283
18.650394 96.122856 419.415283
18.617844 96.637337 418.683289
18.588886 97.168205 418.032074
18.588886 97.849388 418.032074
18.533430 98.236610 416.784943
18.490709 98.687752 415.824219
18.490709 99.365334 415.824219
18.438650 99.761253 414.653534
18.365122 100.036415 413.000000
18.365122 100.709389 413.000000
18.320654 101.136887 412.000000
18.276188 101.561127 411.000000
18.231720 101.982109 410.000000
18.231720 102.650200 410.000000
18.231720 103.318291 410.000000
18.187252 103.732758 409.000000
18.187252 104.399216 409.000000
18.142784 104.808792 408.000000
18.098316 105.215111 407.000000
18.098316 105.878311 407.000000
18.009380 106.017967 405.000000
17.964912 106.414505 404.000000
17.964912 107.072823 404.000000
17.875978 107.197815 402.000000
17.831511 107.584572 401.000000
17.831511 108.237999 401.000000
17.831511 108.891418 401.000000
17.787043 109.271667 400.000000
17.787043 109.923462 400.000000
17.787043 110.575256 400.000000
17.742575 110.948982 399.000000
17.742575 111.599144 399.000000
17.698109 111.967979 398.000000
17.653641 112.333572 397.000000
17.653641 112.980484 397.000000
17.653641 113.627388 397.000000
17.609173 113.986450 396.000000
17.609173 114.631721 396.000000
17.609173 115.277000 396.000000
17.564705 115.629539 395.000000
17.564705 116.273193 395.000000
17.564705 116.916840 395.000000
17.520237 117.262863 394.000000
17.475771 117.605629 393.000000
17.475771 118.246017 393.000000
17.431301 118.583893 392.000000
17.431301 119.222649 392.000000
17.431301 119.861412 392.000000
17.386833 120.192772 391.000000
17.342365 120.520882 390.000000
17.342365 121.156380 390.000000
17.253431 121.167305 388.000000
17.208963 121.485626 387.000000
17.208963 122.116241 387.000000
17.164495 122.429672 386.000000
17.075562 122.421043 384.000000
17.075562 123.046768 384.000000
17.075562 123.672485 384.000000
17.031094 123.974533 383.000000
17.031094 124.598625 383.000000
16.986626 124.895760 382.000000
16.897692 124.861061 380.000000
16.897692 125.480263 380.000000
16.853224 125.767632 379.000000
16.853224 126.385201 379.000000
16.853224 127.002777 379.000000
16.853224 127.620354 379.000000
16.612003 126.402466 373.575378
16.612003 127.011208 373.575378
16.532314 127.007729 371.783295
16.489273 127.281319 370.815399
16.489273 127.885551 370.815399
16.455181 128.224136 370.048706
16.479586 129.018204 370.597565
16.821817 132.313934 378.293762
16.821817 132.930374 378.293762
16.821817 133.546799 378.293762
16.791235 133.919296 377.605988
16.791235 134.534607 377.605988
16.758408 134.885681 376.867737
16.723188 135.215027 376.075745
16.723188 135.827835 376.075745
16.695566 136.215271 375.454559
16.695566 136.827072 375.454559
16.695566 137.438889 375.454559
16.580149 137.096329 372.859039
16.477966 136.855240 370.561157
16.477966 137.459076 370.561157
16.386175 137.293808 368.496918
16.266893 136.890457 365.814423
16.266893 137.486542 365.814423
16.157400 137.153214 363.352142
16.053753 136.861679 361.021301
16.053753 137.449951 361.021301
15.832098 136.132324 356.036652
15.732387 135.851471 353.794312
15.732387 136.427963 353.794312
15.650770 136.293716 351.958893
15.252389 133.383362 343.000000
15.252389 133.942276 343.000000
15.252389 134.501190 343.000000
15.252389 135.060104 343.000000
15.252389 135.619019 343.000000
15.207921 135.780914 342.000000
15.207921 136.338196 342.000000
15.207921 136.895493 342.000000
15.163453 137.050858 341.000000
15.163453 137.606522 341.000000
15.163453 138.162170 341.000000
15.118986 138.311020 340.000000
15.118986 138.865051 340.000000
15.118986 139.419083 340.000000
15.118986 139.973099 340.000000
15.118986 140.527130 340.000000
15.118986 141.081161 340.000000
15.118986 141.635178 340.000000
15.074518 141.770996 339.000000
15.074518 142.323395 339.000000
15.074518 142.875793 339.000000
15.074518 143.428192 339.000000
15.074518 143.980591 339.000000
15.074518 144.532990 339.000000
15.074518 145.085373 339.000000
15.030051 145.208160 338.000000
15.030051 145.758926 338.000000
15.030051 146.309692 338.000000
15.030051 146.860458 338.000000
15.030051 147.411224 338.000000
14.985583 147.524231 337.000000
14.985583 148.073380 337.000000
14.985583 148.622513 337.000000
14.941116 148.729004 336.000000
14.941116 149.276505 336.000000
14.941116 149.824020 336.000000
14.941116 150.371521 336.000000
14.941116 150.919037 336.000000
14.941116 151.466537 336.000000
14.941116 152.014053 336.000000
14.941116 152.561554 336.000000
14.941116 153.109070 336.000000
14.941116 153.656570 336.000000
14.941116 154.204086 336.000000
14.941116 154.751587 336.000000
14.941116 155.299088 336.000000
14.941116 155.846603 336.000000
14.941116 156.394104 336.000000
14.941116 156.941620 336.000000
14.941116 157.489120 336.000000
14.985583 158.506989 337.000000
14.985583 159.056122 337.000000
14.990232 159.654785 337.104553
14.990232 160.204086 337.104553
14.990232 160.753403 337.104553
15.030051 161.731171 338.000000
15.030051 162.281937 338.000000
15.030051 162.832703 338.000000
15.074518 163.866852 339.000000
15.074518 164.419250 339.000000
15.074518 164.971649 339.000000
15.074518 165.524033 339.000000
15.074518 166.076431 339.000000
15.074518 166.628830 339.000000
15.074518 167.181229 339.000000
15.074518 167.733627 339.000000
15.074518 168.286026 339.000000
15.074518 168.838409 339.000000
15.030051 168.891129 338.000000
15.030051 169.441895 338.000000
15.030051 169.992661 338.000000
15.074518 171.048004 339.000000
15.074518 171.600403 339.000000
15.074518 172.152786 339.000000
15.074518 172.705185 339.000000
15.074518 173.257584 339.000000
15.074518 173.809982 339.000000
15.074518 174.362381 339.000000
15.074518 174.914780 339.000000
15.074518 175.467163 339.000000
15.030051 175.500336 338.000000
14.985583 175.530243 337.000000
14.985583 176.079376 337.000000
14.985583 176.628510 337.000000
14.985583 177.177643 337.000000
14.985583 177.726791 337.000000
15.009528 178.560776 337.538452
15.009528 179.110794 337.538452
15.009528 179.660797 337.538452
14.996822 180.058273 337.252747
14.984964 180.465027 336.986084
14.984964 181.014130 336.986084
14.971068 181.394882 336.673584
14.957989 181.784546 336.379456
14.957989 182.332657 336.379456
14.943168 182.699570 336.046143
14.931464 183.103653 335.782959
14.941116 183.769501 336.000000
14.941116 184.317001 336.000000
14.941116 184.864517 336.000000
14.941116 185.412018 336.000000
14.941116 185.959534 336.000000
14.896648 185.951965 335.000000
14.896648 186.497849 335.000000
14.896648 187.043716 335.000000
14.852181 187.029633 334.000000
14.852181 187.573883 334.000000
14.852181 188.118134 334.000000
14.807714 188.097519 333.000000
14.807714 188.640137 333.000000
14.807714 189.182755 333.000000
14.807714 189.725372 333.000000
14.807714 190.267990 333.000000
14.807714 190.810608 333.000000
14.807714 191.353241 333.000000
14.807714 191.895859 333.000000
14.807714 192.438477 333.000000
14.807714 192.981094 333.000000
14.763246 192.942551 332.000000
14.763246 193.483551 332.000000
14.674311 192.855713 330.000000
14.674311 193.393448 330.000000
14.674311 193.931168 330.000000
14.674311 194.468903 330.000000
14.630220 194.420715 329.008484
14.632153 194.982590 329.051941
14.632153 195.518784 329.051941
14.632153 196.054947 329.051941
14.425330 193.812363 324.400848
14.425330 194.340973 324.400848
14.425330 194.869583 324.400848
14.718779 199.373093 331.000000
14.718779 199.912445 331.000000
14.763246 201.057404 332.000000
14.763246 201.598389 332.000000
14.763246 202.139389 332.000000
14.763246 202.680374 332.000000
14.718779 202.609253 331.000000
14.718779 203.148605 331.000000
14.718779 203.687973 331.000000
14.718779 204.227325 331.000000
14.718779 204.766693 331.000000
14.718779 205.306046 331.000000
14.718779 205.845413 331.000000
14.718779 206.384766 331.000000
14.365817 201.962006 323.062500
19.667774 85.965530 426.666656
19.681433 86.720963 426.962952
19.681433 87.416695 426.962952
19.681433 88.112419 426.962952
19.677839 88.791939 426.884979
19.677839 89.487541 426.884979
19.729239 90.418701 428.000000
19.729239 91.116119 428.000000
19.729239 91.813545 428.000000
19.683142 92.294823 427.000000
19.683142 92.990608 427.000000
19.683142 93.686401 427.000000
19.637045 94.161156 426.000000
19.637045 94.855316 426.000000
19.637045 95.549477 426.000000
19.637045 96.243637 426.000000
19.376240 95.650345 420.342194
19.376240 96.335289 420.342194
19.325167 96.764496 419.234222
19.274778 97.193550 418.141113
19.274778 97.874901 418.141113
19.215048 98.250847 416.845337
19.167978 98.687752 415.824219
19.167978 99.365334 415.824219
18.991695 99.122841 412.000000
18.991695 99.794189 412.000000
18.991695 100.465538 412.000000
18.945601 100.891411 411.000000
18.899504 101.314018 410.000000
18.853407 101.733376 409.000000
18.853407 102.399834 409.000000
18.807310 102.814301 408.000000
18.761213 103.225502 407.000000
18.761213 103.888702 407.000000
18.715117 104.295029 406.000000
18.715117 104.956596 406.000000
18.715117 105.618172 406.000000
18.669022 106.017967 405.000000
18.622925 106.414505 404.000000
18.622925 107.072823 404.000000
18.530731 107.197815 402.000000
18.484636 107.584572 401.000000
18.484636 108.237999 401.000000
18.484636 108.891418 401.000000
18.438540 109.271667 400.000000
18.438540 109.923462 400.000000
18.438540 110.575256 400.000000
18.392443 110.948982 399.000000
18.392443 111.599144 399.000000
18.346348 111.967979 398.000000
18.300251 112.333572 397.000000
18.300251 112.980484 397.000000
18.300251 113.627388 397.000000
18.208057 113.698601 395.000000
18.208057 114.342247 395.000000
18.161963 114.694794 394.000000
18.115866 115.044075 393.000000
18.115866 115.684464 393.000000
18.115866 116.324852 393.000000
18.069767 116.667618 392.000000
18.023672 117.007118 391.000000
18.023672 117.644249 391.000000
18.023672 118.281380 391.000000
17.977575 118.614380 390.000000
17.977575 119.249886 390.000000
17.977575 119.885384 390.000000
17.959846 120.402016 389.615387
17.959846 121.036896 389.615387
17.839287 120.855019 387.000000
17.793190 121.171707 386.000000
17.793190 121.800690 386.000000
17.700998 121.795319 384.000000
17.654902 122.102249 383.000000
17.654902 122.726341 383.000000
17.782198 124.239815 385.761536
17.782198 124.868416 385.761536
17.782198 125.497009 385.761536
17.762661 125.987038 385.337708
17.754997 126.560310 385.171448
17.754997 127.187943 385.171448
17.746569 127.754906 384.988617
17.737297 128.315155 384.787476
17.737297 128.942169 384.787476
17.715042 129.406601 384.304688
17.220461 126.402466 373.575378
17.220461 127.011208 373.575378
17.137852 127.007729 371.783295
17.093235 127.281319 370.815399
17.496092 130.899567 379.554810
17.496092 131.518066 379.554810
17.496092 132.136536 379.554810
17.467478 132.537918 378.934113
17.467478 133.155396 378.934113
17.437962 133.546799 378.293762
17.406258 133.919296 377.605988
17.406258 134.534607 377.605988
17.372227 134.885681 376.867737
17.335720 135.215027 376.075745
17.335720 135.827835 376.075745
17.307085 136.215271 375.454559
17.307085 136.827072 375.454559
17.307085 137.438889 375.454559
17.187441 137.096329 372.859039
17.081516 136.855240 370.561157
17.081516 137.459076 370.561157
16.986362 137.293808 368.496918
16.862709 136.890457 365.814423
16.862709 137.486542 365.814423
16.749207 137.153214 363.352142
16.641764 136.861679 361.021301
16.641764 137.449951 361.021301
16.411989 136.132324 356.036652
16.308626 135.851471 353.794312
16.308626 136.427963 353.794312
16.224020 136.293716 351.958893
15.764951 132.994492 342.000000
15.764951 133.551773 342.000000
15.764951 134.109070 342.000000
15.764951 134.666351 342.000000
15.764951 135.223633 342.000000
15.718854 135.383896 341.000000
15.718854 135.939545 341.000000
15.718854 136.495209 341.000000
15.672758 136.648956 340.000000
15.672758 137.202972 340.000000
15.672758 137.757004 340.000000
15.672758 138.311020 340.000000
15.626662 138.456619 339.000000
15.626662 139.009018 339.000000
15.626662 139.561417 339.000000
15.626662 140.113815 339.000000
15.626662 140.666214 339.000000
15.626662 141.218613 339.000000
15.626662 141.770996 339.000000
15.626662 142.323395 339.000000
15.626662 142.875793 339.000000
15.626662 143.428192 339.000000
15.580565 143.555862 338.000000
15.580565 144.106628 338.000000
15.580565 144.657394 338.000000
15.580565 145.208160 338.000000
15.580565 145.758926 338.000000
15.534470 145.876831 337.000000
15.534470 146.425964 337.000000
15.534470 146.975098 337.000000
15.534470 147.524231 337.000000
15.488373 147.633987 336.000000
15.488373 148.181488 336.000000
15.488373 148.729004 336.000000
15.488373 149.276505 336.000000
15.488373 149.824020 336.000000
15.488373 150.371521 336.000000
15.488373 150.919037 336.000000
15.488373 151.466537 336.000000
15.488373 152.014053 336.000000
15.488373 152.561554 336.000000
15.488373 153.109070 336.000000
15.488373 153.656570 336.000000
15.488373 154.204086 336.000000
15.488373 154.751587 336.000000
15.488373 155.299088 336.000000
15.488373 155.846603 336.000000
15.488373 156.394104 336.000000
15.488373 156.941620 336.000000
15.488373 157.489120 336.000000
15.533222 158.494263 336.972961
15.533222 159.043365 336.972961
15.539289 159.654785 337.104553
15.539289 160.204086 337.104553
15.539289 160.753403 337.104553
15.488373 160.774170 336.000000
15.534470 161.801804 337.000000
15.534470 162.350937 337.000000
15.534470 162.900085 337.000000
15.534470 163.449219 337.000000
15.534470 163.998352 337.000000
15.534470 164.547485 337.000000
15.534470 165.096634 337.000000
15.534470 165.645767 337.000000
15.534470 166.194901 337.000000
15.534470 166.744034 337.000000
15.534470 167.293182 337.000000
15.534470 167.842316 337.000000
15.534470 168.391449 337.000000
15.534470 168.940582 337.000000
15.534470 169.489731 337.000000
15.534470 170.038864 337.000000
15.534470 170.587997 337.000000
15.534470 171.137146 337.000000
15.534470 171.686279 337.000000
15.534470 172.235413 337.000000
15.534470 172.784546 337.000000
15.534470 173.333694 337.000000
15.534470 173.882828 337.000000
15.534470 174.431961 337.000000
15.488373 174.461868 336.000000
15.488373 175.009369 336.000000
15.488373 175.556885 336.000000
15.488373 176.104385 336.000000
15.499011 176.773224 336.230774
15.499011 177.321121 336.230774
15.499011 177.869003 336.230774
15.492426 178.341080 336.087921
15.492426 178.888718 336.087921
15.483206 179.329590 335.887909
15.474564 179.776520 335.700409
15.474564 180.323532 335.700409
15.466430 180.775482 335.523956
15.456184 181.202118 335.301727
15.456184 181.748489 335.301727
15.446481 182.180389 335.091187
15.442277 182.676697 335.000000
15.442277 183.222580 335.000000
15.442277 183.768448 335.000000
15.442277 184.314331 335.000000
15.442277 184.860214 335.000000
15.442277 185.406082 335.000000
15.396181 185.396881 334.000000
15.396181 185.941132 334.000000
15.396181 186.485382 334.000000
15.396181 187.029633 334.000000
15.350084 187.012283 333.000000
15.350084 187.554901 333.000000
15.350084 188.097519 333.000000
15.350084 188.640137 333.000000
15.350084 189.182755 333.000000
15.350084 189.725372 333.000000
15.350084 190.267990 333.000000
15.350084 190.810608 333.000000
15.350084 191.353241 333.000000
15.303988 191.319580 332.000000
15.303988 191.860580 332.000000
15.303988 192.401566 332.000000
15.257892 192.361404 331.000000
15.257892 192.900757 331.000000
15.211796 192.855713 330.000000
15.211796 193.393448 330.000000
15.211796 193.931168 330.000000
15.211796 194.468903 330.000000
15.166089 194.420715 329.008484
15.168094 194.982590 329.051941
15.168094 195.518784 329.051941
15.168094 196.054947 329.051941
14.243772 184.611160 309.000000
14.243772 185.114685 309.000000
14.243772 185.618195 309.000000
15.257892 199.373093 331.000000
15.257892 199.912445 331.000000
15.303988 201.057404 332.000000
15.303988 201.598389 332.000000
15.303988 202.139389 332.000000
15.303988 202.680374 332.000000
15.257892 202.609253 331.000000
15.257892 203.148605 331.000000
15.257892 203.687973 331.000000
15.257892 204.227325 331.000000
15.257892 204.766693 331.000000
15.257892 205.306046 331.000000
15.257892 205.845413 331.000000
15.257892 206.384766 331.000000
14.931066 202.491791 323.909943
14.931066 203.019592 323.909943
14.931066 203.547409 323.909943
16.894682 40.175251 354.000000
16.894682 40.752087 354.000000
16.894682 41.328926 354.000000
16.894682 41.905766 354.000000
16.894682 42.482605 354.000000
16.894682 43.059441 354.000000
16.894682 43.636280 354.000000
16.885138 44.188137 353.799988
16.885138 44.764652 353.799988
16.885138 45.341164 353.799988
16.890591 45.932510 353.914276
16.890591 46.509209 353.914276
16.890591 47.085907 353.914276
16.890591 47.662605 353.914276
16.890591 48.239304 353.914276
16.890591 48.816006 353.914276
16.890591 49.392704 353.914276
16.890182 49.968193 353.905701
16.890182 50.544876 353.905701
16.889732 51.120197 353.896271
16.889236 51.695354 353.885895
16.889236 52.272007 353.885895
16.889048 52.848068 353.881958
16.889439 53.425953 353.890137
16.889439 54.002613 353.890137
16.889870 54.580666 353.899170
16.889870 55.157337 353.899170
16.889870 55.734013 353.899170
16.889797 56.310444 353.897644
16.889717 56.886848 353.895996
16.889717 57.463520 353.895996
16.889631 58.039890 353.894165
16.889534 58.616219 353.892151
16.889534 59.192886 353.892151
16.889469 59.769318 353.890778
16.889465 60.345959 353.890686
16.889544 60.922897 353.892303
16.889544 61.499557 353.892303
16.889591 62.076405 353.893311
16.889606 62.653126 353.893646
16.889606 63.229786 353.893646
16.889606 63.806454 353.893646
16.889580 64.383018 353.893097
16.889580 64.959686 353.893097
20.362705 85.965530 426.666656
20.376844 86.720963 426.962952
20.376844 87.416695 426.962952
20.376844 88.112419 426.962952
20.373123 88.791939 426.884979
20.373123 89.487541 426.884979
20.426338 90.418701 428.000000
20.426338 91.116119 428.000000
20.426338 91.813545 428.000000
20.378614 92.294823 427.000000
20.378614 92.990608 427.000000
20.378614 93.686401 427.000000
20.330889 94.161156 426.000000
20.330889 94.855316 426.000000
20.330889 95.549477 426.000000
20.330889 96.243637 426.000000
20.060869 95.650345 420.342194
20.060869 96.335289 420.342194
20.007992 96.764496 419.234222
19.955822 97.193550 418.141113
19.955822 97.874901 418.141113
19.931808 98.437653 417.637909
19.868212 98.801941 416.305389
19.868212 99.480309 416.305389
19.788517 99.756920 414.635498
19.750828 100.241272 413.845795
19.750828 100.915634 413.845795
19.617701 100.905243 411.056335
19.617701 101.575050 411.056335
19.471838 101.484634 408.000000
19.471838 102.149467 408.000000
19.424110 102.562302 407.000000
19.376387 102.971886 406.000000
19.376387 103.633453 406.000000
19.328661 104.038139 405.000000
19.280935 104.439568 404.000000
19.280935 105.097878 404.000000
19.233212 105.494423 403.000000
19.137760 105.624298 401.000000
19.137760 106.277725 401.000000
19.137760 106.931152 401.000000
19.090036 107.316284 400.000000
19.090036 107.968079 400.000000
19.090036 108.619873 400.000000
19.042311 108.998482 399.000000
19.042311 109.648651 399.000000
19.042311 110.298813 399.000000
18.946861 110.392853 397.000000
18.946861 111.039764 397.000000
18.946861 111.686668 397.000000
18.899136 112.050613 396.000000
18.899136 112.695892 396.000000
18.851412 113.054955 395.000000
18.851412 113.698601 395.000000
18.851412 114.342247 395.000000
18.803686 114.694794 394.000000
18.755960 115.044075 393.000000
18.755960 115.684464 393.000000
18.755960 116.324852 393.000000
18.708235 116.667618 392.000000
18.660509 117.007118 391.000000
18.660509 117.644249 391.000000
18.660509 118.281380 391.000000
18.612785 118.614380 390.000000
18.612785 119.249886 390.000000
18.612785 119.885384 390.000000
18.594429 120.402016 389.615387
18.594429 121.036896 389.615387
18.443579 120.684685 386.454559
18.423857 121.184685 386.041321
18.423857 121.813728 386.041321
18.278709 121.478157 383.000000
18.376526 122.755661 385.049591
18.376526 123.383102 385.049591
18.410503 124.239815 385.761536
18.410503 124.868416 385.761536
18.410503 125.497009 385.761536
18.390276 125.987038 385.337708
18.382341 126.560310 385.171448
18.382341 127.187943 385.171448
18.373617 127.754906 384.988617
18.364017 128.315155 384.787476
18.364017 128.942169 384.787476
18.340975 129.406601 384.304688
17.812714 126.287575 373.235809
17.812714 126.895752 373.235809
17.732298 126.928329 371.550873
17.685709 127.198685 370.574677
18.114288 130.899567 379.554810
18.114288 131.518066 379.554810
18.114288 132.136536 379.554810
18.084665 132.537918 378.934113
18.084665 133.155396 378.934113
18.054104 133.546799 378.293762
18.021280 133.919296 377.605988
18.021280 134.534607 377.605988
17.986046 134.885681 376.867737
17.948248 135.215027 376.075745
17.948248 135.827835 376.075745
17.918604 136.215271 375.454559
17.918604 136.827072 375.454559
17.918604 137.438889 375.454559
17.794731 137.096329 372.859039
17.685064 136.855240 370.561157
17.685064 137.459076 370.561157
17.586548 137.293808 368.496918
17.458527 136.890457 365.814423
17.458527 137.486542 365.814423
17.341015 137.153214 363.352142
17.229774 136.861679 361.021301
17.229774 137.449951 361.021301
16.725691 133.999725 350.459076
16.725691 134.570786 350.459076
16.725691 135.141846 350.459076
16.321980 132.437210 342.000000
16.321980 132.994492 342.000000
16.321980 133.551773 342.000000
16.321980 134.109070 342.000000
16.321980 134.666351 342.000000
16.321980 135.223633 342.000000
16.274256 135.383896 341.000000
16.274256 135.939545 341.000000
16.274256 136.495209 341.000000
16.226530 136.648956 340.000000
16.226530 137.202972 340.000000
16.226530 137.757004 340.000000
16.226530 138.311020 340.000000
16.178804 138.456619 339.000000
16.178804 139.009018 339.000000
16.178804 139.561417 339.000000
16.178804 140.113815 339.000000
16.178804 140.666214 339.000000
16.178804 141.218613 339.000000
16.178804 141.770996 339.000000
16.178804 142.323395 339.000000
16.178804 142.875793 339.000000
16.178804 143.428192 339.000000
16.131081 143.555862 338.000000
16.131081 144.106628 338.000000
16.131081 144.657394 338.000000
16.131081 145.208160 338.000000
16.131081 145.758926 338.000000
16.083355 145.876831 337.000000
16.083355 146.425964 337.000000
16.083355 146.975098 337.000000
16.035631 147.086472 336.000000
16.035631 147.633987 336.000000
16.035631 148.181488 336.000000
16.035631 148.729004 336.000000
16.035631 149.276505 336.000000
16.035631 149.824020 336.000000
16.035631 150.371521 336.000000
16.035631 150.919037 336.000000
16.035631 151.466537 336.000000
16.035631 152.014053 336.000000
16.035631 152.561554 336.000000
15.987906 152.653397 335.000000
15.987906 153.199265 335.000000
15.987906 153.745148 335.000000
15.987906 154.291031 335.000000
15.987906 154.836899 335.000000
15.987906 155.382782 335.000000
15.987906 155.928665 335.000000
15.987906 156.474533 335.000000
15.987906 157.020416 335.000000
16.035631 158.036636 336.000000
16.035631 158.584137 336.000000
16.035631 159.131653 336.000000
16.035631 159.679153 336.000000
16.035631 160.226669 336.000000
16.035631 160.774170 336.000000
16.035631 161.321686 336.000000
16.035631 161.869186 336.000000
16.035631 162.416702 336.000000
16.035631 162.964203 336.000000
16.035631 163.511703 336.000000
16.035631 164.059219 336.000000
16.035631 164.606720 336.000000
16.035631 165.154236 336.000000
16.035631 165.701736 336.000000
16.035631 166.249252 336.000000
16.035631 166.796753 336.000000
16.035631 167.344269 336.000000
16.035631 167.891769 336.000000
16.035631 168.439285 336.000000
16.035631 168.986786 336.000000
16.035631 169.534302 336.000000
16.035631 170.081802 336.000000
16.035631 170.629318 336.000000
16.035631 171.176819 336.000000
16.035631 171.724319 336.000000
16.035631 172.271835 336.000000
16.035631 172.819336 336.000000
16.035631 173.366852 336.000000
16.035631 173.914352 336.000000
16.035631 174.461868 336.000000
15.987906 174.488525 335.000000
15.987906 175.034409 335.000000
15.987906 175.580276 335.000000
15.987906 176.126160 335.000000
15.987906 176.672043 335.000000
15.987906 177.217911 335.000000
15.982290 177.701370 334.882355
15.982290 178.247055 334.882355
15.976988 178.733414 334.771240
15.969452 179.194351 334.613342
15.969452 179.739609 334.613342
15.940181 179.954391 334.000000
15.940181 180.498642 334.000000
15.940181 181.042892 334.000000
15.940181 181.587143 334.000000
15.940181 182.131393 334.000000
15.940181 182.675644 334.000000
15.940181 183.219894 334.000000
15.940181 183.764145 334.000000
15.940181 184.308380 334.000000
15.940181 184.852631 334.000000
15.940181 185.396881 334.000000
15.892455 185.384415 333.000000
15.892455 185.927048 333.000000
15.892455 186.469666 333.000000
15.892455 187.012283 333.000000
15.892455 187.554901 333.000000
15.892455 188.097519 333.000000
15.892455 188.640137 333.000000
15.892455 189.182755 333.000000
15.844730 189.155624 332.000000
15.844730 189.696625 332.000000
15.844730 190.237610 332.000000
15.844730 190.778595 332.000000
15.844730 191.319580 332.000000
15.844730 191.860580 332.000000
15.797006 191.822037 331.000000
15.749280 191.780243 330.000000
15.749280 192.317978 330.000000
15.749280 192.855713 330.000000
15.749280 193.393448 330.000000
15.749280 193.931168 330.000000
15.701555 193.879608 329.000000
15.653829 193.824783 328.000000
15.653829 194.359253 328.000000
15.550994 193.613403 325.845245
15.544930 194.068665 325.718201
14.747052 184.611160 309.000000
14.747052 185.114685 309.000000
14.747052 185.618195 309.000000
14.747052 186.121704 309.000000
14.747052 186.625214 309.000000
15.749280 199.846207 330.000000
15.749280 200.383942 330.000000
15.749280 200.921677 330.000000
15.749280 201.459396 330.000000
15.749280 201.997131 330.000000
15.749280 202.534866 330.000000
15.749280 203.072601 330.000000
15.749280 203.610321 330.000000
15.749280 204.148056 330.000000
15.797006 205.306046 331.000000
15.797006 205.845413 331.000000
15.797006 206.384766 331.000000
15.458632 202.491791 323.909943
15.543103 204.128967 325.679901
15.543103 204.659668 325.679901
15.543103 205.190353 325.679901
15.606104 208.153442 327.000000
15.606104 208.686279 327.000000
15.606104 209.219131 327.000000
15.606104 209.751968 327.000000
15.606104 210.284805 327.000000
15.606104 210.817657 327.000000
17.471256 40.175251 354.000000
17.471256 40.752087 354.000000
17.471256 41.328926 354.000000
17.471256 41.905766 354.000000
17.471256 42.482605 354.000000
17.471256 43.059441 354.000000
17.471256 43.636280 354.000000
17.461386 44.188137 353.799988
17.461386 44.764652 353.799988
17.461386 45.341164 353.799988
17.467026 45.932510 353.914276
17.467026 46.509209 353.914276
17.467026 47.085907 353.914276
17.467026 47.662605 353.914276
17.467026 48.239304 353.914276
17.467026 48.816006 353.914276
17.467026 49.392704 353.914276
17.466602 49.968193 353.905701
17.466602 50.544876 353.905701
17.466137 51.120197 353.896271
17.465626 51.695354 353.885895
17.465626 52.272007 353.885895
17.465429 52.848068 353.881958
17.465834 53.425953 353.890137
17.465834 54.002613 353.890137
17.466280 54.580666 353.899170
17.466280 55.157337 353.899170
17.466280 55.734013 353.899170
17.466204 56.310444 353.897644
17.466124 56.886848 353.895996
17.466124 57.463520 353.895996
17.466032 58.039890 353.894165
17.465935 58.616219 353.892151
17.465935 59.192886 353.892151
17.465866 59.769318 353.890778
17.465860 60.345959 353.890686
17.465940 60.922897 353.892303
17.465940 61.499557 353.892303
17.465992 62.076405 353.893311
17.466007 62.653126 353.893646
17.466007 63.229786 353.893646
17.466007 63.806454 353.893646
17.798456 65.608589 360.629669
17.798456 66.196228 360.629669
18.099121 67.912033 366.721680
18.376661 69.560165 372.345184
18.376661 70.166893 372.345184
18.376661 70.773628 372.345184
21.074087 83.945328 427.000000
21.074087 84.641121 427.000000
21.074087 85.336906 427.000000
21.067036 86.003914 426.857147
21.072462 86.721809 426.967102
21.072462 87.417542 426.967102
21.072462 88.113281 426.967102
21.123440 89.023857 428.000000
21.123440 89.721283 428.000000
21.123440 90.418701 428.000000
21.123440 91.116119 428.000000
21.123440 91.813545 428.000000
21.074087 92.294823 427.000000
21.074087 92.990608 427.000000
21.074087 93.686401 427.000000
21.024733 94.161156 426.000000
21.024733 94.855316 426.000000
21.024733 95.549477 426.000000
21.024733 96.243637 426.000000
20.821892 96.002563 421.890045
20.821892 96.690033 421.890045
20.755117 97.065224 420.537109
20.690041 97.443985 419.218536
20.690041 98.127098 419.218536
20.612032 98.437653 417.637909
20.546267 98.801941 416.305389
20.546267 99.480309 416.305389
20.463850 99.756920 414.635498
20.424875 100.241272 413.845795
20.424875 100.915634 413.845795
20.287205 100.905243 411.056335
20.287205 101.575050 411.056335
20.136364 101.484634 408.000000
20.136364 102.149467 408.000000
20.037655 102.310310 406.000000
19.988302 102.718254 405.000000
19.988302 103.378197 405.000000
19.938948 103.781258 404.000000
19.840240 103.922539 402.000000
19.840240 104.577599 402.000000
19.790886 104.970879 401.000000
19.741533 105.360893 400.000000
19.741533 106.012688 400.000000
19.741533 106.664482 400.000000
19.692179 107.047989 399.000000
19.692179 107.698151 399.000000
19.642826 108.076767 398.000000
19.593472 108.452133 397.000000
19.593472 109.099045 397.000000
19.593472 109.745949 397.000000
19.544117 110.114784 396.000000
19.544117 110.760063 396.000000
19.544117 111.405342 396.000000
19.494764 111.767654 395.000000
19.494764 112.411308 395.000000
19.445410 112.768738 394.000000
19.396057 113.122910 393.000000
19.396057 113.763298 393.000000
19.346701 114.112579 392.000000
19.346701 114.751335 392.000000
19.346701 115.390099 392.000000
19.297348 115.732864 391.000000
19.297348 116.369995 391.000000
19.247993 116.707878 390.000000
19.247993 117.343384 390.000000
19.099932 117.071350 387.000000
19.099932 117.701958 387.000000
19.099932 118.332573 387.000000
19.229012 119.767143 389.615387
19.229012 120.402016 389.615387
19.229012 121.036896 389.615387
19.073013 120.684685 386.454559
19.052618 121.184685 386.041321
19.052618 121.813728 386.041321
18.902517 121.478157 383.000000
19.003674 122.755661 385.049591
19.003674 123.383102 385.049591
19.038811 124.239815 385.761536
19.038811 124.868416 385.761536
19.038811 125.497009 385.761536
19.017893 125.987038 385.337708
19.009687 126.560310 385.171448
19.009687 127.187943 385.171448
19.000664 127.754906 384.988617
18.990736 128.315155 384.787476
18.990736 128.942169 384.787476
18.966909 129.406601 384.304688
18.333401 125.689644 371.468658
18.333401 126.294945 371.468658
18.197165 125.957245 368.708252
18.197165 126.558044 368.708252
18.732485 130.899567 379.554810
18.732485 131.518066 379.554810
18.732485 132.136536 379.554810
18.701851 132.537918 378.934113
18.701851 133.155396 378.934113
17.767445 127.089127 360.001343
17.714121 127.292564 358.920868
17.714121 127.877403 358.920868
18.053942 130.926651 365.806274
18.053942 131.522720 365.806274
18.053942 132.118790 365.806274
18.023027 132.487625 365.179901
17.857851 131.863007 361.833099
17.857851 132.452606 361.833099
17.857851 133.042206 361.833099
16.977718 127.045708 344.000000
16.977718 127.606247 344.000000
16.928364 127.794212 343.000000
16.928364 128.353134 343.000000
16.928364 128.912048 343.000000
16.928364 129.470963 343.000000
