51.165958 197.047089 304.103180
51.165958 197.542618 304.103180
51.165958 198.038147 304.103180
51.039989 198.044907 303.354492
51.039989 198.539215 303.354492
50.937630 198.634369 302.746124
50.827427 198.696869 302.091125
50.827427 199.189117 302.091125
50.749245 199.374237 301.626465
50.675056 199.573547 301.185516
50.675056 200.064331 301.185516
50.598713 200.252975 300.731781
50.515774 200.413956 300.238831
50.515774 200.903183 300.238831
50.418453 201.004425 299.660400
50.139084 200.376266 298.000000
50.139084 200.861847 298.000000
50.139084 201.347443 298.000000
49.970833 201.155731 297.000000
49.970833 201.639694 297.000000
49.970833 202.123642 297.000000
49.970833 202.607605 297.000000
49.970833 203.091568 297.000000
49.970833 203.575516 297.000000
49.970833 204.059479 297.000000
49.802582 203.854736 296.000000
49.802582 204.337067 296.000000
49.802582 204.819397 296.000000
49.634331 204.608139 295.000000
49.634331 205.088837 295.000000
49.634331 205.569534 295.000000
49.634331 206.050232 295.000000
49.634331 206.530930 295.000000
49.634331 207.011627 295.000000
54.206524 180.757935 319.085815
54.206524 181.277878 319.085815
54.206524 181.797836 319.085815
54.117622 182.018768 318.562500
54.117622 182.537857 318.562500
54.117622 183.056946 318.562500
53.997124 183.167282 317.853180
53.997124 183.685226 317.853180
54.191948 184.867767 319.000000
54.191948 185.387573 319.000000
54.191948 185.907379 319.000000
54.022060 185.842773 318.000000
53.852184 185.774918 317.000000
53.852184 186.291458 317.000000
53.852184 186.808014 317.000000
53.682304 186.733627 316.000000
53.490673 186.580109 314.871948
53.490673 187.093201 314.871948
53.441982 187.435516 314.585358
53.400982 187.803940 314.344025
53.400982 188.316162 314.344025
53.342545 188.621735 314.000000
53.342545 189.133392 314.000000
53.342545 189.645050 314.000000
53.342545 190.156708 314.000000
53.342545 190.668365 314.000000
53.342545 191.180023 314.000000
53.172661 191.081192 313.000000
53.002781 190.979111 312.000000
53.002781 191.487518 312.000000
52.832901 191.380539 311.000000
52.663021 191.270309 310.000000
52.663021 191.775452 310.000000
52.663021 192.280594 310.000000
52.493137 192.163834 309.000000
52.493137 192.667358 309.000000
52.493137 193.170868 309.000000
52.323257 193.047592 308.000000
52.323257 193.549484 308.000000
52.323257 194.051361 308.000000
52.153378 193.921585 307.000000
52.153378 194.421844 307.000000
51.983498 194.287170 306.000000
51.983498 194.785782 306.000000
51.813614 194.646225 305.000000
51.813614 195.143219 305.000000
51.813614 195.640213 305.000000
51.813614 196.137207 305.000000
51.813614 196.634201 305.000000
51.813614 197.131195 305.000000
51.661266 197.047089 304.103180
51.661266 197.542618 304.103180
51.661266 198.038147 304.103180
51.534077 198.044907 303.354492
51.534077 198.539215 303.354492
51.430725 198.634369 302.746124
51.319454 198.696869 302.091125
51.319454 199.189117 302.091125
51.240517 199.374237 301.626465
51.165607 199.573547 301.185516
51.165607 200.064331 301.185516
51.088528 200.252975 300.731781
51.004787 200.413956 300.238831
51.004787 200.903183 300.238831
50.906521 201.004425 299.660400
50.624451 200.376266 298.000000
50.624451 200.861847 298.000000
50.624451 201.347443 298.000000
50.454571 201.155731 297.000000
50.454571 201.639694 297.000000
50.454571 202.123642 297.000000
50.454571 202.607605 297.000000
50.454571 203.091568 297.000000
50.454571 203.575516 297.000000
50.454571 204.059479 297.000000
50.284687 203.854736 296.000000
50.284687 204.337067 296.000000
50.284687 204.819397 296.000000
50.114811 204.608139 295.000000
50.114811 205.088837 295.000000
50.114811 205.569534 295.000000
50.114811 206.050232 295.000000
50.114811 206.530930 295.000000
50.114811 207.011627 295.000000
54.636478 182.018768 318.562500
54.636478 182.537857 318.562500
54.636478 183.056946 318.562500
54.514828 183.167282 317.853180
54.514828 183.685226 317.853180
54.472054 184.058624 317.603790
54.355152 184.180069 316.922211
54.355152 184.696487 316.922211
54.227055 184.776413 316.175323
54.368492 185.774918 317.000000
54.368492 186.291458 317.000000
54.368492 186.808014 317.000000
54.050945 186.230453 315.148499
54.003517 186.580109 314.871948
54.003517 187.093201 314.871948
53.954361 187.435516 314.585358
53.912968 187.803940 314.344025
53.912968 188.316162 314.344025
53.853966 188.621735 314.000000
53.853966 189.133392 314.000000
53.853966 189.645050 314.000000
53.853966 190.156708 314.000000
53.853966 190.668365 314.000000
53.853966 191.180023 314.000000
53.682457 191.081192 313.000000
53.510948 190.979111 312.000000
53.510948 191.487518 312.000000
53.339439 191.380539 311.000000
53.167931 191.270309 310.000000
53.167931 191.775452 310.000000
53.167931 192.280594 310.000000
53.167931 192.785736 310.000000
53.167931 193.290878 310.000000
52.996418 193.170868 309.000000
52.824913 193.047592 308.000000
52.824913 193.549484 308.000000
52.824913 194.051361 308.000000
52.653400 193.921585 307.000000
52.653400 194.421844 307.000000
52.653400 194.922089 307.000000
52.481892 194.785782 306.000000
52.481892 195.284409 306.000000
52.481892 195.783035 306.000000
52.310383 195.640213 305.000000
52.310383 196.137207 305.000000
52.310383 196.634201 305.000000
52.310383 197.131195 305.000000
52.138874 196.980225 304.000000
52.138874 197.475586 304.000000
52.133312 197.949844 303.967590
52.019768 198.012939 303.305542
52.019768 198.507172 303.305542
51.927418 198.648117 302.767090
51.624344 197.979187 301.000000
51.624344 198.469666 301.000000
51.624344 198.960144 301.000000
51.578342 199.272888 300.731781
51.578342 199.762924 300.731781
51.578342 200.252975 300.731781
51.510651 200.479553 300.337097
51.510651 200.968933 300.337097
51.394360 201.003525 299.659058
51.109814 200.376266 298.000000
51.109814 200.861847 298.000000
51.109814 201.347443 298.000000
50.938309 201.155731 297.000000
50.938309 201.639694 297.000000
50.938309 202.123642 297.000000
50.938309 202.607605 297.000000
50.938309 203.091568 297.000000
50.938309 203.575516 297.000000
50.938309 204.059479 297.000000
50.766796 203.854736 296.000000
50.766796 204.337067 296.000000
50.766796 204.819397 296.000000
50.595287 204.608139 295.000000
50.595287 205.088837 295.000000
50.595287 205.569534 295.000000
50.595287 206.050232 295.000000
50.595287 206.530930 295.000000
50.595287 207.011627 295.000000
54.989342 183.023575 317.603790
54.989342 183.541107 317.603790
54.989342 184.058624 317.603790
54.892815 184.252151 317.046265
54.892815 184.768784 317.046265
54.778481 184.899490 316.385895
54.696934 185.138992 315.914886
54.619804 185.391983 315.469421
54.619804 185.906036 315.469421
54.558727 186.211624 315.116638
54.479527 186.454071 314.659241
54.479527 186.966812 314.659241
54.421932 187.281326 314.326569
54.364315 187.594681 313.993774
54.364315 188.106339 313.993774
54.318214 188.458038 313.727509
54.365391 189.133392 314.000000
54.365391 189.645050 314.000000
54.365391 190.156708 314.000000
54.365391 190.668365 314.000000
54.365391 191.180023 314.000000
54.365391 191.691681 314.000000
54.192253 191.591232 313.000000
54.192253 192.101257 313.000000
53.845982 191.380539 311.000000
53.845982 191.887314 311.000000
53.845982 192.394089 311.000000
53.672836 192.280594 310.000000
53.672836 192.785736 310.000000
53.672836 193.290878 310.000000
53.499699 193.170868 309.000000
53.326565 193.047592 308.000000
53.326565 193.549484 308.000000
53.326565 194.051361 308.000000
53.153423 193.921585 307.000000
53.153423 194.421844 307.000000
53.153423 194.922089 307.000000
52.980289 194.785782 306.000000
52.980289 195.284409 306.000000
52.980289 195.783035 306.000000
52.807148 195.640213 305.000000
52.807148 196.137207 305.000000
52.807148 196.634201 305.000000
52.807148 197.131195 305.000000
52.634010 196.980225 304.000000
52.634010 197.475586 304.000000
52.628399 197.949844 303.967590
52.513775 198.012939 303.305542
52.513775 198.507172 303.305542
52.460873 198.800934 303.000000
52.287731 198.636932 302.000000
52.287731 199.129028 302.000000
52.114597 198.960144 301.000000
52.114597 199.450607 301.000000
52.114597 199.941086 301.000000
52.114597 200.431564 301.000000
52.029995 200.595886 300.511383
52.029995 201.085556 300.511383
51.882427 201.003525 299.659058
51.768318 201.048676 299.000000
51.768318 201.535889 299.000000
51.595181 201.347443 298.000000
51.595181 201.833023 298.000000
51.595181 202.318619 298.000000
51.422043 202.123642 297.000000
51.422043 202.607605 297.000000
51.422043 203.091568 297.000000
51.422043 203.575516 297.000000
51.422043 204.059479 297.000000
51.248905 203.854736 296.000000
51.248905 204.337067 296.000000
51.248905 204.819397 296.000000
51.075768 204.608139 295.000000
51.075768 205.088837 295.000000
51.104622 205.685669 295.166656
51.104622 206.166641 295.166656
51.104622 206.647614 295.166656
51.001705 206.711456 294.572235
55.506641 183.023575 317.603790
55.506641 183.541107 317.603790
55.506641 184.058624 317.603790
55.409203 184.252151 317.046265
55.409203 184.768784 317.046265
55.293793 184.899490 316.385895
55.216438 185.155624 315.943268
55.142483 185.421768 315.520111
55.142483 185.935913 315.520111
55.071972 186.211624 315.116638
54.992027 186.454071 314.659241
54.992027 186.966812 314.659241
54.933891 187.281326 314.326569
54.875725 187.594681 313.993774
54.875725 188.106339 313.993774
54.829193 188.458038 313.727509
54.780598 188.801758 313.449432
54.780598 189.312515 313.449432
55.051586 190.762283 315.000000
55.051586 191.275574 315.000000
55.051586 191.788864 315.000000
54.876816 191.691681 314.000000
54.876816 192.203339 314.000000
54.876816 192.714996 314.000000
54.352520 191.380539 311.000000
54.352520 191.887314 311.000000
54.352520 192.394089 311.000000
54.352520 192.900848 311.000000
54.177746 192.785736 310.000000
54.177746 193.290878 310.000000
54.002983 193.170868 309.000000
54.002983 193.674377 309.000000
54.002983 194.177887 309.000000
53.828217 194.051361 308.000000
53.653450 193.921585 307.000000
53.653450 194.421844 307.000000
53.653450 194.922089 307.000000
53.478680 194.785782 306.000000
53.478680 195.284409 306.000000
53.478680 195.783035 306.000000
53.303913 195.640213 305.000000
53.303913 196.137207 305.000000
53.303913 196.634201 305.000000
53.303913 197.131195 305.000000
53.129150 196.980225 304.000000
53.129150 197.475586 304.000000
53.123482 197.949844 303.967590
53.007778 198.012939 303.305542
53.007778 198.507172 303.305542
52.954380 198.800934 303.000000
52.779613 198.636932 302.000000
52.779613 199.129028 302.000000
52.604847 198.960144 301.000000
52.604847 199.450607 301.000000
52.604847 199.941086 301.000000
52.604847 200.431564 301.000000
52.519451 200.595886 300.511383
52.519451 201.085556 300.511383
52.370495 201.003525 299.659058
52.255314 201.048676 299.000000
52.255314 201.535889 299.000000
52.080544 201.347443 298.000000
52.080544 201.833023 298.000000
52.080544 202.318619 298.000000
51.905781 202.123642 297.000000
51.905781 202.607605 297.000000
51.905781 203.091568 297.000000
51.905781 203.575516 297.000000
51.905781 204.059479 297.000000
51.905781 204.543442 297.000000
51.905781 205.027390 297.000000
51.731010 204.819397 296.000000
51.731010 205.301727 296.000000
51.731010 205.784042 296.000000
51.611488 205.789810 295.316101
51.611488 206.271027 295.316101
51.611488 206.752228 295.316101
51.503166 206.798508 294.696289
55.925591 183.735535 317.046265
55.925591 184.252151 317.046265
55.925591 184.768784 317.046265
55.809105 184.899490 316.385895
55.731026 185.155624 315.943268
55.656384 185.421768 315.520111
55.656384 185.935913 315.520111
55.585209 186.211624 315.116638
55.504528 186.454071 314.659241
55.504528 186.966812 314.659241
55.445850 187.281326 314.326569
55.387146 187.594681 313.993774
55.387146 188.106339 313.993774
55.340179 188.458038 313.727509
55.291126 188.801758 313.449432
55.291126 189.312515 313.449432
55.564640 190.762283 315.000000
55.564640 191.275574 315.000000
55.564640 191.788864 315.000000
55.388241 191.691681 314.000000
55.388241 192.203339 314.000000
55.388241 192.714996 314.000000
54.859058 191.380539 311.000000
54.859058 191.887314 311.000000
54.859058 192.394089 311.000000
54.859058 192.900848 311.000000
54.819515 193.268219 310.775848
54.819515 193.774628 310.775848
54.727650 193.955475 310.255066
54.631092 194.117920 309.707642
54.631092 194.622589 309.707642
54.530323 194.767349 309.136414
54.153473 193.921585 307.000000
54.153473 194.421844 307.000000
54.153473 194.922089 307.000000
54.153473 195.422348 307.000000
53.977074 195.284409 306.000000
53.977074 195.783035 306.000000
53.977074 196.281662 306.000000
53.800682 196.137207 305.000000
53.800682 196.634201 305.000000
53.800682 197.131195 305.000000
53.624287 196.980225 304.000000
53.624287 197.475586 304.000000
53.447887 197.319733 303.000000
53.447887 197.813461 303.000000
53.447887 198.307205 303.000000
53.447887 198.800934 303.000000
53.271492 198.636932 302.000000
53.271492 199.129028 302.000000
53.271492 199.621140 302.000000
53.095097 199.450607 301.000000
53.095097 199.941086 301.000000
53.095097 200.431564 301.000000
53.008907 200.595886 300.511383
53.008907 201.085556 300.511383
52.742306 200.561447 299.000000
52.742306 201.048676 299.000000
52.742306 201.535889 299.000000
52.565910 201.347443 298.000000
52.565910 201.833023 298.000000
52.565910 202.318619 298.000000
52.389515 202.123642 297.000000
52.389515 202.607605 297.000000
52.389515 203.091568 297.000000
52.389515 203.575516 297.000000
52.389515 204.059479 297.000000
52.389515 204.543442 297.000000
52.389515 205.027390 297.000000
52.213120 204.819397 296.000000
52.213120 205.301727 296.000000
52.213120 205.784042 296.000000
52.092484 205.789810 295.316101
52.092484 206.271027 295.316101
52.092484 206.752228 295.316101
51.983150 206.798508 294.696289
56.245613 184.125977 315.943268
56.245613 184.640808 315.943268
56.245613 185.155624 315.943268
56.216232 185.573441 315.778198
56.216232 186.087997 315.778198
56.089298 186.181213 315.065186
55.992306 186.371796 314.520386
55.992306 186.884308 314.520386
55.930012 187.188309 314.170471
55.873573 187.510834 313.853424
55.873573 188.022263 313.853424
55.873573 188.533676 313.853424
55.873573 189.045090 313.853424
55.873573 189.556519 313.853424
56.255714 191.367889 316.000000
56.255714 191.882797 316.000000
56.255714 192.397720 316.000000
56.077694 192.302155 315.000000
55.899662 192.203339 314.000000
55.899662 192.714996 314.000000
55.543617 191.995911 312.000000
55.365597 191.887314 311.000000
55.365597 192.394089 311.000000
55.365597 192.900848 311.000000
55.325691 193.268219 310.775848
55.325691 193.774628 310.775848
55.232975 193.955475 310.255066
55.135525 194.117920 309.707642
55.135525 194.622589 309.707642
55.033829 194.767349 309.136414
54.653500 193.921585 307.000000
54.653500 194.421844 307.000000
54.653500 194.922089 307.000000
54.653500 195.422348 307.000000
54.475468 195.284409 306.000000
54.475468 195.783035 306.000000
54.475468 196.281662 306.000000
54.297447 196.137207 305.000000
54.297447 196.634201 305.000000
54.297447 197.131195 305.000000
54.297447 197.628189 305.000000
54.297447 198.125183 305.000000
54.119423 197.970947 304.000000
53.941395 197.813461 303.000000
53.941395 198.307205 303.000000
53.941395 198.800934 303.000000
53.941395 199.294662 303.000000
53.941395 199.788406 303.000000
53.763371 199.621140 302.000000
53.763371 200.113235 302.000000
53.763371 200.605347 302.000000
53.585350 200.431564 301.000000
53.407326 200.254532 300.000000
53.407326 200.743378 300.000000
53.407326 201.232224 300.000000
53.229301 201.048676 299.000000
53.229301 201.535889 299.000000
53.229301 202.023102 299.000000
53.051273 201.833023 298.000000
53.051273 202.318619 298.000000
53.051273 202.804199 298.000000
52.873253 202.607605 297.000000
52.873253 203.091568 297.000000
52.873253 203.575516 297.000000
52.873253 204.059479 297.000000
52.873253 204.543442 297.000000
52.873253 205.027390 297.000000
52.695225 204.819397 296.000000
52.695225 205.301727 296.000000
52.695225 205.784042 296.000000
52.695225 206.266373 296.000000
52.585339 206.317581 295.382751
52.585339 206.798904 295.382751
52.481884 206.872406 294.801605
56.730553 185.058899 315.778198
56.730553 185.573441 315.778198
56.730553 186.087997 315.778198
56.602451 186.181213 315.065186
56.504581 186.371796 314.520386
56.504581 186.884308 314.520386
56.486649 187.337326 314.420563
56.453876 187.740692 314.238159
56.453876 188.252747 314.238159
56.539188 189.050034 314.713013
56.539188 189.562866 314.713013
56.539188 190.075684 314.713013
56.950050 191.973480 317.000000
56.950050 192.490036 317.000000
56.950050 193.006577 317.000000
56.950050 193.523132 317.000000
56.770397 193.427551 316.000000
56.770397 193.942474 316.000000
56.231438 192.611282 313.000000
56.053345 192.509659 312.008667
56.053345 193.018066 312.008667
56.053345 193.526489 312.008667
55.947567 193.668747 311.419891
55.947567 194.176208 311.419891
55.849937 194.343948 310.876465
55.759663 194.535553 310.373962
55.759663 195.041306 310.373962
55.658367 195.191803 309.810120
55.153522 193.921585 307.000000
55.153522 194.421844 307.000000
55.153522 194.922089 307.000000
55.153522 195.422348 307.000000
54.973866 195.284409 306.000000
54.973866 195.783035 306.000000
54.973866 196.281662 306.000000
54.794212 196.137207 305.000000
54.794212 196.634201 305.000000
54.794212 197.131195 305.000000
54.794212 197.628189 305.000000
54.794212 198.125183 305.000000
54.614563 197.970947 304.000000
54.434902 197.813461 303.000000
54.434902 198.307205 303.000000
54.434902 198.800934 303.000000
54.434902 199.294662 303.000000
54.434902 199.788406 303.000000
54.255253 199.621140 302.000000
54.255253 200.113235 302.000000
54.255253 200.605347 302.000000
54.075600 200.431564 301.000000
53.895950 200.254532 300.000000
53.895950 200.743378 300.000000
53.895950 201.232224 300.000000
53.716290 201.048676 299.000000
53.716290 201.535889 299.000000
53.716290 202.023102 299.000000
53.716290 202.510315 299.000000
53.716290 202.997543 299.000000
53.536640 202.804199 298.000000
53.536640 203.289795 298.000000
53.536640 203.775375 298.000000
53.356987 203.575516 297.000000
53.356987 204.059479 297.000000
53.356987 204.543442 297.000000
53.356987 205.027390 297.000000
53.356987 205.511353 297.000000
53.177334 205.301727 296.000000
53.177334 205.784042 296.000000
53.177334 206.266373 296.000000
53.101215 206.452759 295.576294
53.101215 206.934402 295.576294
53.001202 207.025375 295.019592
57.244869 185.058899 315.778198
57.244869 185.573441 315.778198
57.244869 186.087997 315.778198
57.115616 186.181213 315.065186
57.016853 186.371796 314.520386
57.016853 186.884308 314.520386
56.998760 187.337326 314.420563
56.965687 187.740692 314.238159
56.965687 188.252747 314.238159
57.051769 189.050034 314.713013
57.051769 189.562866 314.713013
57.051769 190.075684 314.713013
57.466362 191.973480 317.000000
57.466362 192.490036 317.000000
57.466362 193.006577 317.000000
57.466362 193.523132 317.000000
57.285080 193.427551 316.000000
57.285080 193.942474 316.000000
56.741234 192.611282 313.000000
56.561523 192.509659 312.008667
56.561523 193.018066 312.008667
56.561523 193.526489 312.008667
56.480232 193.756027 311.560242
56.480232 194.263718 311.560242
56.414169 194.543564 311.195801
56.324688 194.741287 310.702209
56.324688 195.247574 310.702209
56.162968 195.191803 309.810120
55.834827 194.553238 308.000000
55.834827 195.055130 308.000000
55.834827 195.557007 308.000000
55.653545 195.422348 307.000000
55.653545 195.922592 307.000000
55.653545 196.422852 307.000000
55.472260 196.281662 306.000000
55.472260 196.780273 306.000000
55.472260 197.278900 306.000000
55.290977 197.131195 305.000000
55.290977 197.628189 305.000000
55.290977 198.125183 305.000000
55.109699 197.970947 304.000000
55.109699 198.466309 304.000000
55.109699 198.961685 304.000000
54.928413 198.800934 303.000000
54.928413 199.294662 303.000000
54.928413 199.788406 303.000000
54.747131 199.621140 302.000000
54.747131 200.113235 302.000000
54.747131 200.605347 302.000000
54.565853 200.431564 301.000000
54.384571 200.254532 300.000000
54.384571 200.743378 300.000000
54.384571 201.232224 300.000000
54.384571 201.721069 300.000000
54.384571 202.209915 300.000000
54.203285 202.023102 299.000000
54.203285 202.510315 299.000000
54.203285 202.997543 299.000000
54.022003 202.804199 298.000000
54.022003 203.289795 298.000000
54.022003 203.775375 298.000000
53.840725 203.575516 297.000000
53.840725 204.059479 297.000000
53.840725 204.543442 297.000000
53.840725 205.027390 297.000000
53.840725 205.511353 297.000000
53.659443 205.301727 296.000000
53.659443 205.784042 296.000000
53.659443 206.266373 296.000000
53.582634 206.452759 295.576294
53.582634 206.934402 295.576294
53.481712 207.025375 295.019592
57.510864 186.312637 314.420563
57.510864 186.824982 314.420563
57.510864 187.337326 314.420563
57.503101 187.824310 314.378113
57.503101 188.336578 314.378113
57.564358 189.050034 314.713013
57.686195 189.964066 315.379120
57.686195 190.477982 315.379120
57.982670 191.973480 317.000000
57.982670 192.490036 317.000000
57.982670 193.006577 317.000000
57.982670 193.523132 317.000000
57.982670 194.039673 317.000000
57.982670 194.556213 317.000000
57.616852 193.842026 315.000000
57.251030 193.121323 313.000000
57.251030 193.631348 313.000000
57.069706 193.526489 312.008667
56.987682 193.756027 311.560242
56.987682 194.263718 311.560242
56.921024 194.543564 311.195801
56.830738 194.741287 310.702209
56.830738 195.247574 310.702209
56.667564 195.191803 309.810120
56.336479 194.553238 308.000000
56.336479 195.055130 308.000000
56.336479 195.557007 308.000000
56.153568 195.422348 307.000000
56.153568 195.922592 307.000000
56.153568 196.422852 307.000000
55.970654 196.281662 306.000000
55.970654 196.780273 306.000000
55.970654 197.278900 306.000000
55.970654 197.777527 306.000000
55.787746 197.628189 305.000000
55.787746 198.125183 305.000000
55.787746 198.622177 305.000000
55.604836 198.466309 304.000000
55.604836 198.961685 304.000000
55.421921 198.800934 303.000000
55.421921 199.294662 303.000000
55.421921 199.788406 303.000000
55.421921 200.282135 303.000000
55.239014 200.113235 302.000000
55.239014 200.605347 302.000000
55.239014 201.097458 302.000000
55.056103 200.922043 301.000000
55.056103 201.412521 301.000000
54.873196 201.232224 300.000000
54.873196 201.721069 300.000000
54.873196 202.209915 300.000000
54.873196 202.698761 300.000000
54.690277 202.510315 299.000000
54.690277 202.997543 299.000000
54.507370 202.804199 298.000000
54.507370 203.289795 298.000000
54.507370 203.775375 298.000000
54.507370 204.260956 298.000000
54.507370 204.746552 298.000000
54.324459 204.543442 297.000000
54.324459 205.027390 297.000000
54.324459 205.511353 297.000000
54.141552 205.301727 296.000000
54.141552 205.784042 296.000000
54.141552 206.266373 296.000000
54.083027 206.525238 295.680054
54.083027 207.007050 295.680054
53.978340 207.087204 295.107697
58.015144 187.824310 314.378113
58.015144 188.336578 314.378113
58.015144 188.848862 314.378113
58.199867 189.964066 315.379120
58.199867 190.477982 315.379120
58.498981 191.973480 317.000000
58.498981 192.490036 317.000000
58.498981 193.006577 317.000000
58.498981 193.523132 317.000000
58.498981 194.039673 317.000000
58.498981 194.556213 317.000000
58.314445 194.457397 316.000000
57.760826 193.121323 313.000000
57.760826 193.631348 313.000000
57.563545 193.478271 311.930939
57.576286 194.029510 312.000000
57.576286 194.537918 312.000000
57.576286 195.046310 312.000000
57.391750 194.927933 311.000000
57.391750 195.434708 311.000000
57.022667 194.681396 309.000000
57.022667 195.184906 309.000000
57.022667 195.688416 309.000000
57.022667 196.191925 309.000000
57.022667 196.695450 309.000000
56.653591 195.922592 307.000000
56.653591 196.422852 307.000000
56.653591 196.923096 307.000000
56.469048 196.780273 306.000000
56.469048 197.278900 306.000000
56.469048 197.777527 306.000000
56.284512 197.628189 305.000000
56.284512 198.125183 305.000000
56.284512 198.622177 305.000000
56.099972 198.466309 304.000000
56.099972 198.961685 304.000000
55.915428 198.800934 303.000000
55.915428 199.294662 303.000000
55.915428 199.788406 303.000000
55.915428 200.282135 303.000000
55.730892 200.113235 302.000000
55.730892 200.605347 302.000000
55.730892 201.097458 302.000000
55.546352 200.922043 301.000000
55.546352 201.412521 301.000000
55.427296 201.470230 300.354828
55.427296 201.959656 300.354828
55.427296 202.449081 300.354828
55.361816 202.698761 300.000000
55.254372 202.793274 299.417786
55.254372 203.281189 299.417786
54.992733 202.804199 298.000000
54.992733 203.289795 298.000000
54.992733 203.775375 298.000000
54.992733 204.260956 298.000000
54.992733 204.746552 298.000000
54.808197 204.543442 297.000000
54.808197 205.027390 297.000000
54.808197 205.511353 297.000000
54.808197 205.995316 297.000000
54.808197 206.479263 297.000000
54.623661 206.266373 296.000000
54.623661 206.748703 296.000000
54.623661 207.231033 296.000000
54.482086 207.175034 295.232849
58.527180 187.824310 314.378113
58.527180 188.336578 314.378113
58.527180 188.848862 314.378113
58.713539 189.964066 315.379120
58.713539 190.477982 315.379120
59.015293 191.973480 317.000000
59.015293 192.490036 317.000000
59.015293 193.006577 317.000000
59.015293 193.523132 317.000000
59.015293 194.039673 317.000000
59.015293 194.556213 317.000000
58.829128 194.457397 316.000000
58.270622 193.121323 313.000000
58.270622 193.631348 313.000000
58.053108 193.416687 311.831635
58.084454 194.029510 312.000000
58.084454 194.537918 312.000000
58.084454 195.046310 312.000000
57.898289 194.927933 311.000000
57.898289 195.434708 311.000000
57.525951 194.681396 309.000000
57.525951 195.184906 309.000000
57.525951 195.688416 309.000000
57.525951 196.191925 309.000000
57.525951 196.695450 309.000000
57.339783 196.560776 308.000000
57.339783 197.062653 308.000000
57.153618 196.923096 307.000000
57.153618 197.423355 307.000000
57.153618 197.923599 307.000000
56.967445 197.777527 306.000000
56.781277 197.628189 305.000000
56.781277 198.125183 305.000000
56.781277 198.622177 305.000000
56.595112 198.466309 304.000000
56.595112 198.961685 304.000000
56.595112 199.457047 304.000000
56.408939 199.294662 303.000000
56.408939 199.788406 303.000000
56.408939 200.282135 303.000000
56.408939 200.775879 303.000000
56.408939 201.269608 303.000000
56.222771 201.097458 302.000000
56.036606 200.922043 301.000000
56.036606 201.412521 301.000000
55.916492 201.470230 300.354828
55.916492 201.959656 300.354828
55.916492 202.449081 300.354828
55.850437 202.698761 300.000000
55.742046 202.793274 299.417786
55.742046 203.281189 299.417786
55.478100 202.804199 298.000000
55.478100 203.289795 298.000000
55.478100 203.775375 298.000000
55.478100 204.260956 298.000000
55.478100 204.746552 298.000000
55.291935 204.543442 297.000000
55.291935 205.027390 297.000000
55.291935 205.511353 297.000000
55.291935 205.995316 297.000000
55.291935 206.479263 297.000000
55.105766 206.266373 296.000000
55.105766 206.748703 296.000000
55.105766 207.231033 296.000000
54.962948 207.175034 295.232849
59.006401 188.743851 314.203308
59.006401 189.255844 314.203308
59.006401 189.767838 314.203308
58.995506 190.244705 314.145325
59.531605 192.490036 317.000000
59.531605 193.006577 317.000000
59.531605 193.523132 317.000000
59.531605 194.039673 317.000000
59.531605 194.556213 317.000000
59.343811 194.457397 316.000000
58.625816 192.613373 312.176758
58.625816 193.122055 312.176758
58.561001 193.416687 311.831635
58.592621 194.029510 312.000000
58.592621 194.537918 312.000000
58.592621 195.046310 312.000000
58.404827 194.927933 311.000000
58.404827 195.434708 311.000000
58.029232 194.681396 309.000000
58.029232 195.184906 309.000000
58.029232 195.688416 309.000000
58.029232 196.191925 309.000000
58.029232 196.695450 309.000000
57.841434 196.560776 308.000000
57.841434 197.062653 308.000000
57.653641 196.923096 307.000000
57.653641 197.423355 307.000000
57.653641 197.923599 307.000000
57.465839 197.777527 306.000000
57.465839 198.276154 306.000000
57.465839 198.774765 306.000000
57.278042 198.622177 305.000000
57.278042 199.119171 305.000000
57.278042 199.616165 305.000000
57.278042 200.113159 305.000000
57.090248 199.952408 304.000000
57.090248 200.447769 304.000000
56.902447 200.282135 303.000000
56.902447 200.775879 303.000000
56.902447 201.269608 303.000000
56.714653 201.097458 302.000000
56.714653 201.589554 302.000000
56.714653 202.081665 302.000000
56.617874 202.228119 301.484680
56.475773 202.210587 300.727997
56.475773 202.700607 300.727997
56.370750 202.812790 300.168762
56.286701 202.998779 299.721191
56.286701 203.487167 299.721191
56.173275 203.564529 299.117218
55.963463 203.289795 298.000000
55.963463 203.775375 298.000000
55.963463 204.260956 298.000000
55.963463 204.746552 298.000000
55.963463 205.232132 298.000000
55.963463 205.717728 298.000000
55.775669 205.511353 297.000000
55.775669 205.995316 297.000000
55.775669 206.479263 297.000000
55.587875 206.266373 296.000000
55.587875 206.748703 296.000000
55.587875 207.231033 296.000000
55.443802 207.175034 295.232849
59.352299 188.728455 313.327728
59.352299 189.239014 313.327728
59.418388 189.960876 313.676636
59.418388 190.472015 313.676636
59.418388 190.983139 313.676636
59.369259 191.335938 313.417267
59.369259 191.846634 313.417267
59.369259 192.357361 313.417267
59.133785 192.103104 312.174194
58.965687 192.064255 311.286774
58.965687 192.571487 311.286774
58.868866 192.761688 310.775635
59.100788 194.029510 312.000000
59.100788 194.537918 312.000000
59.100788 195.046310 312.000000
58.911366 194.927933 311.000000
58.911366 195.434708 311.000000
58.721935 195.311432 310.000000
58.532513 195.184906 309.000000
58.532513 195.688416 309.000000
58.532513 196.191925 309.000000
58.532513 196.695450 309.000000
58.343086 196.560776 308.000000
58.343086 197.062653 308.000000
58.153664 196.923096 307.000000
58.153664 197.423355 307.000000
58.153664 197.923599 307.000000
58.153664 198.423859 307.000000
57.964233 198.276154 306.000000
57.964233 198.774765 306.000000
57.774811 198.622177 305.000000
57.774811 199.119171 305.000000
57.774811 199.616165 305.000000
57.774811 200.113159 305.000000
57.585384 199.952408 304.000000
57.585384 200.447769 304.000000
57.395954 200.282135 303.000000
57.395954 200.775879 303.000000
57.395954 201.269608 303.000000
57.206532 201.097458 302.000000
57.206532 201.589554 302.000000
57.206532 202.081665 302.000000
57.108917 202.228119 301.484680
56.996792 202.321365 300.892761
56.996792 202.811676 300.892761
56.891872 202.927719 300.338867
56.805195 203.107208 299.881287
56.805195 203.595871 299.881287
56.660458 203.564529 299.117218
56.448830 203.289795 298.000000
56.448830 203.775375 298.000000
56.448830 204.260956 298.000000
56.448830 204.746552 298.000000
56.448830 205.232132 298.000000
56.448830 205.717728 298.000000
56.259407 205.511353 297.000000
56.069981 205.301727 296.000000
56.069981 205.784042 296.000000
56.069981 206.266373 296.000000
56.069981 206.748703 296.000000
56.069981 207.231033 296.000000
55.880550 207.011627 295.000000
59.862629 188.728455 313.327728
59.862629 189.239014 313.327728
59.929283 189.960876 313.676636
59.929283 190.472015 313.676636
59.929283 190.983139 313.676636
59.879730 191.335938 313.417267
59.879730 191.846634 313.417267
59.879730 192.357361 313.417267
59.642239 192.103104 312.174194
59.472691 192.064255 311.286774
59.472691 192.571487 311.286774
59.375034 192.761688 310.775635
59.271984 192.932663 310.236267
59.271984 193.438187 310.236267
59.203285 193.718918 309.876678
59.226845 194.301147 310.000000
59.226845 194.806290 310.000000
59.226845 195.311432 310.000000
59.012470 195.107803 308.877930
58.966164 195.457626 308.635559
58.966164 195.960541 308.635559
58.916965 196.299530 308.378021
58.844742 196.560776 308.000000
58.844742 197.062653 308.000000
58.844742 197.564529 308.000000
58.653687 197.423355 307.000000
58.653687 197.923599 307.000000
58.653687 198.423859 307.000000
58.462627 198.276154 306.000000
58.462627 198.774765 306.000000
58.462627 199.273392 306.000000
58.271576 199.119171 305.000000
58.271576 199.616165 305.000000
58.271576 200.113159 305.000000
58.271576 200.610153 305.000000
58.271576 201.107147 305.000000
58.080524 200.943130 304.000000
57.889465 200.775879 303.000000
57.889465 201.269608 303.000000
57.889465 201.763336 303.000000
57.698410 201.589554 302.000000
57.698410 202.081665 302.000000
57.620697 202.300919 301.593231
57.486874 202.321365 300.892761
57.486874 202.811676 300.892761
57.381050 202.927719 300.338867
57.293625 203.107208 299.881287
57.293625 203.595871 299.881287
57.147644 203.564529 299.117218
56.934196 203.289795 298.000000
56.934196 203.775375 298.000000
56.934196 204.260956 298.000000
56.934196 204.746552 298.000000
56.934196 205.232132 298.000000
56.934196 205.717728 298.000000
56.743141 205.511353 297.000000
56.552090 205.301727 296.000000
56.552090 205.784042 296.000000
56.552090 206.266373 296.000000
56.552090 206.748703 296.000000
56.552090 207.231033 296.000000
56.361031 207.011627 295.000000
60.390205 191.335938 313.417267
60.390205 191.846634 313.417267
60.390205 192.357361 313.417267
60.150684 192.103104 312.174194
59.979698 192.064255 311.286774
59.979698 192.571487 311.286774
59.881210 192.761688 310.775635
59.777283 192.932663 310.236267
59.777283 193.438187 310.236267
59.708000 193.718918 309.876678
59.731754 194.301147 310.000000
59.731754 194.806290 310.000000
59.731754 195.311432 310.000000
59.515553 195.107803 308.877930
59.468853 195.457626 308.635559
59.468853 195.960541 308.635559
59.419228 196.299530 308.378021
59.346394 196.560776 308.000000
59.346394 197.062653 308.000000
59.346394 197.564529 308.000000
59.153709 197.423355 307.000000
59.153709 197.923599 307.000000
59.153709 198.423859 307.000000
59.153709 198.924118 307.000000
59.153709 199.424362 307.000000
58.961025 199.273392 306.000000
58.961025 199.772018 306.000000
58.961025 200.270645 306.000000
58.768341 200.113159 305.000000
58.768341 200.610153 305.000000
58.768341 201.107147 305.000000
58.768341 201.604141 305.000000
58.575661 201.438507 304.000000
58.575661 201.933868 304.000000
58.382973 201.763336 303.000000
58.382973 202.257080 303.000000
58.382973 202.750809 303.000000
58.190292 202.573776 302.000000
58.190292 203.065872 302.000000
58.190292 203.557983 302.000000
57.997612 203.374420 301.000000
57.997612 203.864899 301.000000
57.997612 204.355377 301.000000
57.804928 204.165314 300.000000
57.612240 203.971970 299.000000
57.612240 204.459183 299.000000
57.612240 204.946411 299.000000
57.612240 205.433624 299.000000
57.419559 205.232132 298.000000
57.419559 205.717728 298.000000
57.226879 205.511353 297.000000
57.226879 205.995316 297.000000
57.226879 206.479263 297.000000
57.034195 206.266373 296.000000
57.034195 206.748703 296.000000
57.034195 207.231033 296.000000
57.034195 207.713364 296.000000
60.478069 191.529663 311.242340
60.478069 192.036835 311.242340
60.478069 192.544006 311.242340
60.376736 192.727707 310.720856
60.249912 192.828110 310.068146
60.249912 193.333359 310.068146
60.195953 193.665024 309.790466
60.002922 193.547180 308.797058
60.002922 194.050369 308.797058
59.942532 194.357727 308.486267
59.898613 194.717636 308.260254
59.849884 195.061127 308.009460
59.849884 195.563019 308.009460
59.810894 195.937210 307.808838
59.848045 196.560776 308.000000
59.848045 197.062653 308.000000
59.848045 197.564529 308.000000
59.848045 198.066422 308.000000
59.848045 198.568298 308.000000
59.848045 199.070175 308.000000
59.653736 198.924118 307.000000
59.653736 199.424362 307.000000
59.459419 199.273392 306.000000
59.459419 199.772018 306.000000
59.459419 200.270645 306.000000
59.265110 200.113159 305.000000
59.265110 200.610153 305.000000
59.265110 201.107147 305.000000
59.265110 201.604141 305.000000
59.070797 201.438507 304.000000
59.070797 201.933868 304.000000
58.876480 201.763336 303.000000
58.876480 202.257080 303.000000
58.876480 202.750809 303.000000
58.682171 202.573776 302.000000
58.682171 203.065872 302.000000
58.682171 203.557983 302.000000
58.487862 203.374420 301.000000
58.487862 203.864899 301.000000
58.487862 204.355377 301.000000
58.293552 204.165314 300.000000
58.293552 204.654160 300.000000
58.099236 204.459183 299.000000
58.099236 204.946411 299.000000
58.099236 205.433624 299.000000
58.099236 205.920837 299.000000
58.099236 206.408051 299.000000
57.904926 206.203308 298.000000
57.710613 205.995316 297.000000
57.710613 206.479263 297.000000
57.516304 206.266373 296.000000
57.516304 206.748703 296.000000
57.516304 207.231033 296.000000
57.516304 207.713364 296.000000
60.882824 191.715088 310.720856
60.882824 192.221390 310.720856
60.882824 192.727707 310.720856
60.754929 192.828110 310.068146
60.754929 193.333359 310.068146
60.722939 193.736557 309.904877
60.594849 193.831802 309.251160
60.594849 194.335724 309.251160
60.458004 194.399628 308.552765
60.400692 194.717636 308.260254
60.351547 195.061127 308.009460
60.351547 195.563019 308.009460
60.312244 195.937210 307.808838
60.349697 196.560776 308.000000
60.349697 197.062653 308.000000
60.349697 197.564529 308.000000
60.349697 198.066422 308.000000
60.349697 198.568298 308.000000
60.349697 199.070175 308.000000
60.153759 198.924118 307.000000
60.153759 199.424362 307.000000
60.153759 199.924622 307.000000
59.957813 199.772018 306.000000
59.957813 200.270645 306.000000
59.957813 200.769272 306.000000
59.761875 200.610153 305.000000
59.761875 201.107147 305.000000
59.761875 201.604141 305.000000
59.761875 202.101135 305.000000
59.761875 202.598129 305.000000
59.565937 202.429230 304.000000
59.565937 202.924591 304.000000
59.565937 203.419952 304.000000
59.369991 203.244537 303.000000
59.369991 203.738281 303.000000
59.369991 204.232010 303.000000
59.174053 204.050079 302.000000
58.978111 203.864899 301.000000
58.978111 204.355377 301.000000
58.782173 204.165314 300.000000
58.782173 204.654160 300.000000
58.586227 204.459183 299.000000
58.586227 204.946411 299.000000
58.586227 205.433624 299.000000
58.586227 205.920837 299.000000
58.586227 206.408051 299.000000
58.390289 206.203308 298.000000
58.194351 205.995316 297.000000
58.194351 206.479263 297.000000
57.998413 206.266373 296.000000
57.998413 206.748703 296.000000
57.998413 207.231033 296.000000
57.998413 207.713364 296.000000
61.388905 191.715088 310.720856
61.388905 192.221390 310.720856
61.388905 192.727707 310.720856
61.259949 192.828110 310.068146
61.259949 193.333359 310.068146
61.227692 193.736557 309.904877
61.098537 193.831802 309.251160
61.098537 194.335724 309.251160
60.960560 194.399628 308.552765
60.902771 194.717636 308.260254
60.853222 195.061127 308.009460
60.853222 195.563019 308.009460
60.813583 195.937210 307.808838
60.851349 196.560776 308.000000
60.851349 197.062653 308.000000
60.851349 197.564529 308.000000
60.851349 198.066422 308.000000
60.851349 198.568298 308.000000
60.851349 199.070175 308.000000
60.851349 199.572067 308.000000
60.851349 200.073944 308.000000
60.653782 199.924622 307.000000
60.653782 200.424866 307.000000
60.653782 200.925125 307.000000
60.456207 200.769272 306.000000
60.456207 201.267883 306.000000
60.456207 201.766510 306.000000
60.258640 201.604141 305.000000
60.258640 202.101135 305.000000
60.258640 202.598129 305.000000
60.258640 203.095123 305.000000
60.061073 202.924591 304.000000
60.061073 203.419952 304.000000
59.863499 203.244537 303.000000
59.863499 203.738281 303.000000
59.863499 204.232010 303.000000
59.665932 204.050079 302.000000
59.665932 204.542191 302.000000
59.665932 205.034302 302.000000
59.468365 204.845840 301.000000
59.270798 204.654160 300.000000
59.270798 205.143005 300.000000
59.270798 205.631851 300.000000
59.073223 205.433624 299.000000
59.073223 205.920837 299.000000
59.073223 206.408051 299.000000
59.073223 206.895264 299.000000
58.875656 206.688904 298.000000
58.875656 207.174484 298.000000
58.622330 206.766556 296.717773
58.622330 207.250061 296.717773
58.622330 207.733551 296.717773
58.282944 207.011627 295.000000
61.732449 192.726578 309.904877
61.732449 193.231567 309.904877
61.732449 193.736557 309.904877
61.602230 193.831802 309.251160
61.602230 194.335724 309.251160
61.463108 194.399628 308.552765
61.340069 194.512222 307.935059
61.306068 194.905914 307.764374
61.306068 195.407410 307.764374
61.260181 195.762283 307.534027
61.224129 196.147888 307.353027
61.224129 196.648712 307.353027
61.353001 197.564529 308.000000
61.353001 198.066422 308.000000
61.353001 198.568298 308.000000
61.353001 199.070175 308.000000
61.353001 199.572067 308.000000
61.353001 200.073944 308.000000
61.153805 199.924622 307.000000
61.153805 200.424866 307.000000
61.153805 200.925125 307.000000
60.954605 200.769272 306.000000
60.954605 201.267883 306.000000
60.954605 201.766510 306.000000
60.755405 201.604141 305.000000
60.755405 202.101135 305.000000
60.755405 202.598129 305.000000
60.755405 203.095123 305.000000
60.556210 202.924591 304.000000
60.556210 203.419952 304.000000
60.357006 203.244537 303.000000
60.357006 203.738281 303.000000
60.357006 204.232010 303.000000
60.157810 204.050079 302.000000
60.157810 204.542191 302.000000
60.157810 205.034302 302.000000
59.958614 204.845840 301.000000
59.759418 204.654160 300.000000
59.759418 205.143005 300.000000
59.759418 205.631851 300.000000
59.759418 206.120697 300.000000
59.560215 205.920837 299.000000
59.560215 206.408051 299.000000
59.560215 206.895264 299.000000
59.361019 206.688904 298.000000
59.361019 207.174484 298.000000
59.241497 207.241959 297.399994
59.139473 207.368805 296.887787
59.139473 207.852585 296.887787
58.962627 207.713364 296.000000
61.826786 193.462280 307.861237
61.826786 193.963943 307.861237
61.826786 194.465591 307.861237
61.792419 194.858871 307.690094
61.792419 195.360245 307.690094
61.773643 195.802109 307.596619
61.664806 195.957474 307.054657
61.664806 196.457825 307.054657
61.620140 196.815521 306.832275
61.854656 198.066422 308.000000
61.854656 198.568298 308.000000
61.854656 199.070175 308.000000
61.854656 199.572067 308.000000
61.854656 200.073944 308.000000
61.653831 199.924622 307.000000
61.653831 200.424866 307.000000
61.653831 200.925125 307.000000
61.653831 201.425369 307.000000
61.653831 201.925629 307.000000
61.653831 202.425873 307.000000
61.452999 202.265137 306.000000
61.452999 202.763763 306.000000
61.452999 203.262375 306.000000
61.252174 203.095123 305.000000
61.252174 203.592102 305.000000
61.252174 204.089096 305.000000
61.051350 203.915314 304.000000
60.850517 203.738281 303.000000
60.850517 204.232010 303.000000
60.850517 204.725754 303.000000
60.649693 204.542191 302.000000
60.649693 205.034302 302.000000
60.448868 204.845840 301.000000
60.248039 204.654160 300.000000
60.248039 205.143005 300.000000
60.248039 205.631851 300.000000
60.248039 206.120697 300.000000
60.047211 205.920837 299.000000
60.047211 206.408051 299.000000
60.047211 206.895264 299.000000
59.846386 206.688904 298.000000
59.846386 207.174484 298.000000
59.725891 207.241959 297.399994
59.645561 207.447189 297.000000
59.645561 207.931137 297.000000
59.645561 208.415100 297.000000
62.274639 194.799683 307.596619
62.274639 195.300903 307.596619
62.274639 195.802109 307.596619
62.164917 195.957474 307.054657
62.164917 196.457825 307.054657
62.132603 196.855789 306.895050
62.079147 197.186066 306.631012
62.079147 197.685715 306.631012
62.048431 198.087296 306.479279
61.964989 198.319641 306.067139
61.964989 198.818390 306.067139
62.153854 199.924622 307.000000
62.153854 200.424866 307.000000
62.153854 200.925125 307.000000
62.153854 201.425369 307.000000
62.153854 201.925629 307.000000
62.153854 202.425873 307.000000
61.951393 202.265137 306.000000
61.951393 202.763763 306.000000
61.951393 203.262375 306.000000
61.951393 203.761002 306.000000
61.748940 203.592102 305.000000
61.748940 204.089096 305.000000
61.748940 204.586090 305.000000
61.344025 203.738281 303.000000
61.344025 204.232010 303.000000
61.344025 204.725754 303.000000
61.141571 204.542191 302.000000
60.939117 204.355377 301.000000
60.939117 204.845840 301.000000
60.736664 204.654160 300.000000
60.736664 205.143005 300.000000
60.736664 205.631851 300.000000
60.736664 206.120697 300.000000
60.534203 205.920837 299.000000
60.534203 206.408051 299.000000
60.534203 206.895264 299.000000
60.534203 207.382492 299.000000
60.534203 207.869705 299.000000
60.331749 207.660080 298.000000
60.129295 207.447189 297.000000
60.129295 207.931137 297.000000
60.129295 208.415100 297.000000
62.775631 194.799683 307.596619
62.775631 195.300903 307.596619
62.775631 195.802109 307.596619
62.665031 195.957474 307.054657
62.665031 196.457825 307.054657
62.632454 196.855789 306.895050
62.578568 197.186066 306.631012
62.578568 197.685715 306.631012
62.547600 198.087296 306.479279
62.463493 198.319641 306.067139
62.463493 198.818390 306.067139
62.653877 199.924622 307.000000
62.653877 200.424866 307.000000
62.653877 200.925125 307.000000
62.653877 201.425369 307.000000
62.653877 201.925629 307.000000
62.653877 202.425873 307.000000
62.449787 202.265137 306.000000
62.449787 202.763763 306.000000
62.449787 203.262375 306.000000
62.449787 203.761002 306.000000
62.245705 203.592102 305.000000
62.245705 204.089096 305.000000
62.245705 204.586090 305.000000
61.837532 203.738281 303.000000
61.837532 204.232010 303.000000
61.837532 204.725754 303.000000
61.633450 204.542191 302.000000
61.429367 204.355377 301.000000
61.429367 204.845840 301.000000
61.225285 204.654160 300.000000
61.225285 205.143005 300.000000
61.225285 205.631851 300.000000
61.225285 206.120697 300.000000
61.225285 206.609543 300.000000
61.225285 207.098389 300.000000
61.021198 206.895264 299.000000
61.021198 207.382492 299.000000
61.021198 207.869705 299.000000
60.817116 207.660080 298.000000
60.817116 208.145660 298.000000
60.817116 208.631241 298.000000
60.613033 208.415100 297.000000
63.132305 195.855606 306.895050
63.132305 196.355698 306.895050
63.132305 196.855789 306.895050
63.077991 197.186066 306.631012
63.077991 197.685715 306.631012
63.044254 198.079361 306.467010
62.970207 198.345520 306.107056
62.970207 198.844299 306.107056
62.882595 199.065750 305.681152
62.948181 202.265137 306.000000
62.948181 202.763763 306.000000
62.948181 203.262375 306.000000
62.948181 203.761002 306.000000
62.742470 203.592102 305.000000
62.742470 204.089096 305.000000
62.742470 204.586090 305.000000
62.125332 203.557983 302.000000
62.125332 204.050079 302.000000
62.125332 204.542191 302.000000
61.919621 204.355377 301.000000
61.919621 204.845840 301.000000
61.713909 204.654160 300.000000
61.713909 205.143005 300.000000
61.713909 205.631851 300.000000
61.713909 206.120697 300.000000
61.713909 206.609543 300.000000
61.713909 207.098389 300.000000
61.508190 206.895264 299.000000
61.508190 207.382492 299.000000
61.508190 207.869705 299.000000
61.302479 207.660080 298.000000
61.302479 208.145660 298.000000
61.302479 208.631241 298.000000
61.096767 208.415100 297.000000
63.468777 197.846710 306.107056
63.468777 198.345520 306.107056
63.468777 198.844299 306.107056
63.409386 199.156570 305.820618
63.350292 199.468842 305.535614
63.350292 199.966705 305.535614
62.202530 203.676468 300.000000
62.202530 204.165314 300.000000
62.202530 204.654160 300.000000
62.202530 205.143005 300.000000
62.202530 205.631851 300.000000
62.202530 206.120697 300.000000
62.202530 206.609543 300.000000
62.202530 207.098389 300.000000
61.995186 206.895264 299.000000
61.995186 207.382492 299.000000
61.995186 207.869705 299.000000
61.787846 207.660080 298.000000
61.787846 208.145660 298.000000
61.787846 208.631241 298.000000
61.580505 208.415100 297.000000
63.967350 197.846710 306.107056
63.967350 198.345520 306.107056
63.967350 198.844299 306.107056
63.907486 199.156570 305.820618
63.847927 199.468842 305.535614
63.847927 199.966705 305.535614
62.691154 204.654160 300.000000
62.691154 205.143005 300.000000
62.691154 205.631851 300.000000
62.691154 206.120697 300.000000
62.691154 206.609543 300.000000
62.691154 207.098389 300.000000
