44.861282 165.241455 343.000000
44.861282 165.800369 343.000000
44.730492 165.874283 342.000000
44.730492 166.431580 342.000000
44.599701 166.500580 341.000000
44.468910 166.566330 340.000000
44.338120 166.628830 339.000000
44.338120 167.181229 339.000000
44.338120 167.733627 339.000000
44.207329 167.789597 338.000000
44.207329 168.340363 338.000000
44.076538 168.391449 337.000000
43.945744 168.439285 336.000000
43.945744 168.986786 336.000000
43.945744 169.534302 336.000000
43.814957 169.575623 335.000000
43.814957 170.121490 335.000000
43.814957 170.667374 335.000000
43.684162 170.702164 334.000000
43.684162 171.246414 334.000000
43.553371 171.276321 333.000000
43.160999 170.271011 330.000000
43.160999 170.808746 330.000000
43.160999 171.346481 330.000000
43.030209 171.363342 329.000000
43.030209 171.899445 329.000000
43.030209 172.435547 329.000000
42.899418 172.445908 328.000000
42.899418 172.980377 328.000000
42.768627 172.985840 327.000000
42.768627 173.518692 327.000000
42.768627 174.051529 327.000000
42.637836 174.050476 326.000000
42.637836 174.581680 326.000000
42.637836 175.112900 326.000000
42.507046 175.105316 325.000000
42.245464 174.554077 323.000000
42.245464 175.080399 323.000000
42.245464 175.606720 323.000000
42.245464 176.133041 323.000000
42.114674 176.112442 322.000000
42.114674 176.637131 322.000000
41.983883 176.611649 321.000000
41.853092 176.582886 320.000000
41.853092 177.104324 320.000000
41.853092 177.625763 320.000000
41.853092 178.147186 320.000000
41.853092 178.668625 320.000000
41.722298 178.630096 319.000000
41.722298 179.149902 319.000000
41.722298 179.669708 319.000000
41.591511 179.624649 318.000000
41.591511 180.142838 318.000000
41.591511 180.661011 318.000000
41.460716 180.609436 317.000000
41.460716 181.125992 317.000000
41.460716 181.642532 317.000000
41.329929 181.584442 316.000000
41.199135 181.523102 315.000000
41.199135 182.036392 315.000000
41.068348 181.970169 314.000000
41.068348 182.481827 314.000000
41.068348 182.993484 314.000000
41.068348 183.505142 314.000000
41.068348 184.016800 314.000000
41.068348 184.528458 314.000000
40.937553 184.450821 313.000000
40.937553 184.960846 313.000000
40.937553 185.470871 313.000000
40.806767 185.386719 312.000000
40.675972 185.299286 311.000000
40.675972 185.806061 311.000000
40.675972 186.312836 311.000000
40.675972 186.819611 311.000000
40.675972 187.326370 311.000000
40.675972 187.833145 311.000000
40.675972 188.339920 311.000000
40.545181 188.239456 310.000000
40.545181 188.744598 310.000000
40.283600 188.028778 308.000000
40.283600 188.530655 308.000000
40.283600 189.032532 308.000000
40.283600 189.534424 308.000000
40.283600 190.036301 308.000000
40.283600 190.538177 308.000000
40.152809 190.419815 307.000000
40.152809 190.920074 307.000000
40.152809 191.420319 307.000000
40.152809 191.920578 307.000000
40.152809 192.420822 307.000000
40.152809 192.921082 307.000000
40.022018 192.791290 306.000000
40.022018 193.289917 306.000000
40.022018 193.788544 306.000000
40.022018 194.287170 306.000000
39.891228 194.149231 305.000000
39.891228 194.646225 305.000000
39.891228 195.143219 305.000000
39.760437 194.998764 304.000000
39.760437 195.494125 304.000000
39.760437 195.989487 304.000000
39.760437 196.484863 304.000000
39.629646 196.332260 303.000000
39.629646 196.825989 303.000000
39.629646 197.319733 303.000000
39.498852 197.160614 302.000000
39.498852 197.652710 302.000000
39.498852 198.144821 302.000000
39.368065 197.979187 301.000000
39.368065 198.469666 301.000000
39.368065 198.960144 301.000000
39.368065 199.450607 301.000000
39.368065 199.941086 301.000000
39.368065 200.431564 301.000000
39.237270 200.254532 300.000000
39.237270 200.743378 300.000000
39.237270 201.232224 300.000000
39.237270 201.721069 300.000000
39.237270 202.209915 300.000000
39.237270 202.698761 300.000000
39.106483 202.510315 299.000000
39.106483 202.997543 299.000000
39.106483 203.484756 299.000000
39.106483 203.971970 299.000000
39.106483 204.459183 299.000000
38.975689 204.260956 298.000000
38.844902 204.059479 297.000000
38.844902 204.543442 297.000000
38.844902 205.027390 297.000000
38.844902 205.511353 297.000000
38.844902 205.995316 297.000000
38.714108 205.784042 296.000000
38.714108 206.266373 296.000000
38.583321 206.050232 295.000000
38.583321 206.530930 295.000000
38.583321 207.011627 295.000000
50.253029 59.147114 379.498291
50.253029 59.765503 379.498291
50.584309 60.781952 382.000000
50.584309 61.404419 382.000000
50.584309 62.026882 382.000000
50.584309 62.649345 382.000000
50.584309 63.271809 382.000000
50.584309 63.894276 382.000000
50.584309 64.516739 382.000000
50.584309 65.139206 382.000000
50.584309 65.761665 382.000000
50.584309 66.384132 382.000000
50.451885 66.831184 381.000000
50.451885 67.452019 381.000000
50.451885 68.072853 381.000000
49.628601 67.572731 374.782745
49.532318 68.051147 374.055634
49.532318 68.660667 374.055634
49.330811 68.988380 372.533905
49.242195 69.470406 371.864716
49.242195 70.076355 371.864716
49.141247 70.537399 371.102386
49.115192 71.104385 370.905609
49.115192 71.708771 370.905609
49.093777 72.281624 370.743896
46.290958 94.927711 349.577698
46.290958 95.497345 349.577698
46.290958 96.066971 349.577698
46.305271 96.666489 349.685791
46.335472 97.299728 349.913879
46.335472 97.869904 349.913879
46.491783 98.772156 351.094269
46.519817 99.404167 351.306000
46.519817 99.976624 351.306000
46.540207 100.593140 351.459991
46.555897 101.199951 351.578461
46.555897 101.772842 351.578461
46.555897 102.345734 351.578461
46.555897 102.918625 351.578461
46.555897 103.491516 351.578461
46.403431 103.723610 350.427094
46.744137 105.060379 353.000000
46.744137 105.635590 353.000000
46.744137 106.210800 353.000000
46.744137 106.786011 353.000000
46.744137 107.361221 353.000000
46.744137 107.936424 353.000000
46.744137 108.511635 353.000000
46.744137 109.086845 353.000000
46.744137 109.662056 353.000000
46.744137 110.237267 353.000000
46.341064 109.856941 349.956116
46.341064 110.427200 349.956116
46.341064 110.997444 349.956116
46.324730 111.528366 349.832764
46.324730 112.098419 349.832764
46.308914 112.629997 349.713318
46.292034 113.158592 349.585846
46.292034 113.728233 349.585846
46.269024 114.241051 349.412048
46.237534 114.732285 349.174255
46.237534 115.301262 349.174255
45.269108 156.893921 341.860962
45.269108 157.450974 341.860962
45.269108 158.008041 341.860962
45.265743 158.553314 341.835541
45.265419 159.109177 341.833099
45.265419 159.666199 341.833099
45.247028 160.158112 341.694214
45.552361 161.799408 344.000000
45.552361 162.359955 344.000000
45.552361 162.920502 344.000000
45.552361 163.481049 344.000000
45.552361 164.041580 344.000000
45.552361 164.602127 344.000000
45.419941 164.682541 343.000000
45.419941 165.241455 343.000000
45.419941 165.800369 343.000000
45.287521 165.874283 342.000000
45.287521 166.431580 342.000000
45.155102 166.500580 341.000000
45.031044 166.597275 340.063141
44.962238 166.895996 339.543549
44.962238 167.449280 339.543549
44.890919 167.736084 339.004974
44.809895 167.984726 338.393066
44.809895 168.536133 338.393066
44.757843 168.891129 338.000000
44.625423 168.940582 337.000000
44.625423 169.489731 337.000000
44.625423 170.038864 337.000000
44.493000 170.081802 336.000000
44.493000 170.629318 336.000000
44.493000 171.176819 336.000000
44.360584 171.213257 335.000000
44.360584 171.759125 335.000000
44.095745 171.276321 333.000000
43.963322 171.302963 332.000000
43.963322 171.843948 332.000000
43.698483 171.346481 330.000000
43.566067 171.363342 329.000000
43.566067 171.899445 329.000000
43.566067 172.435547 329.000000
43.433643 172.445908 328.000000
43.433643 172.980377 328.000000
43.301228 172.985840 327.000000
43.301228 173.518692 327.000000
43.301228 174.051529 327.000000
43.168804 174.050476 326.000000
43.168804 174.581680 326.000000
43.168804 175.112900 326.000000
43.036388 175.105316 325.000000
42.771549 174.554077 323.000000
42.771549 175.080399 323.000000
42.771549 175.606720 323.000000
42.771549 176.133041 323.000000
42.639126 176.112442 322.000000
42.639126 176.637131 322.000000
42.506710 176.611649 321.000000
42.506710 177.134705 321.000000
42.506710 177.657776 321.000000
42.374287 177.625763 320.000000
42.374287 178.147186 320.000000
42.374287 178.668625 320.000000
42.374287 179.190063 320.000000
42.241867 179.149902 319.000000
42.241867 179.669708 319.000000
42.241867 180.189514 319.000000
42.109447 180.142838 318.000000
42.109447 180.661011 318.000000
42.109447 181.179184 318.000000
41.977028 181.125992 317.000000
41.977028 181.642532 317.000000
41.844612 181.584442 316.000000
41.712189 181.523102 315.000000
41.712189 182.036392 315.000000
41.579773 181.970169 314.000000
41.579773 182.481827 314.000000
41.579773 182.993484 314.000000
41.579773 183.505142 314.000000
41.579773 184.016800 314.000000
41.579773 184.528458 314.000000
41.579773 185.040115 314.000000
41.447350 184.960846 313.000000
41.447350 185.470871 313.000000
41.314934 185.386719 312.000000
41.182510 185.299286 311.000000
41.182510 185.806061 311.000000
41.182510 186.312836 311.000000
41.182510 186.819611 311.000000
41.182510 187.326370 311.000000
41.182510 187.833145 311.000000
41.050095 187.734314 310.000000
41.050095 188.239456 310.000000
41.050095 188.744598 310.000000
40.785255 188.028778 308.000000
40.785255 188.530655 308.000000
40.785255 189.032532 308.000000
40.785255 189.534424 308.000000
40.785255 190.036301 308.000000
40.785255 190.538177 308.000000
40.652832 190.419815 307.000000
40.652832 190.920074 307.000000
40.652832 191.420319 307.000000
40.652832 191.920578 307.000000
40.652832 192.420822 307.000000
40.652832 192.921082 307.000000
40.520416 192.791290 306.000000
40.520416 193.289917 306.000000
40.520416 193.788544 306.000000
40.520416 194.287170 306.000000
40.387993 194.149231 305.000000
40.387993 194.646225 305.000000
40.387993 195.143219 305.000000
40.255577 194.998764 304.000000
40.255577 195.494125 304.000000
40.255577 195.989487 304.000000
40.123154 195.838531 303.000000
40.123154 196.332260 303.000000
40.123154 196.825989 303.000000
40.123154 197.319733 303.000000
39.990734 197.160614 302.000000
39.990734 197.652710 302.000000
39.990734 198.144821 302.000000
39.858315 197.979187 301.000000
39.858315 198.469666 301.000000
39.858315 198.960144 301.000000
39.858315 199.450607 301.000000
39.858315 199.941086 301.000000
39.725895 199.765686 300.000000
39.725895 200.254532 300.000000
39.725895 200.743378 300.000000
39.725895 201.232224 300.000000
39.725895 201.721069 300.000000
39.725895 202.209915 300.000000
39.593475 202.023102 299.000000
39.593475 202.510315 299.000000
39.593475 202.997543 299.000000
39.593475 203.484756 299.000000
39.461056 203.289795 298.000000
39.461056 203.775375 298.000000
39.328636 203.575516 297.000000
39.328636 204.059479 297.000000
39.328636 204.543442 297.000000
39.328636 205.027390 297.000000
39.328636 205.511353 297.000000
39.328636 205.995316 297.000000
39.196217 205.784042 296.000000
39.196217 206.266373 296.000000
39.063797 206.050232 295.000000
39.063797 206.530930 295.000000
39.063797 207.011627 295.000000
51.206486 63.271809 382.000000
51.206486 63.894276 382.000000
51.206486 64.516739 382.000000
51.206486 65.139206 382.000000
51.206486 65.761665 382.000000
51.206486 66.384132 382.000000
46.890507 98.408844 349.802826
46.890507 98.978844 349.802826
46.890507 99.548836 349.802826
46.870514 100.076157 349.653687
46.853485 100.609344 349.526642
46.853485 101.178894 349.526642
46.853485 101.748436 349.526642
46.834785 102.277153 349.387146
46.834785 102.846474 349.387146
46.821381 103.386200 349.287140
46.849041 104.016769 349.493500
46.849041 104.586266 349.493500
46.849041 105.155762 349.493500
46.849041 105.725258 349.493500
46.849041 106.294754 349.493500
46.849041 106.864250 349.493500
46.849041 107.433746 349.493500
46.833565 107.967552 349.378021
46.833565 108.536858 349.378021
45.825912 156.893921 341.860962
45.825912 157.450974 341.860962
45.825912 158.008041 341.860962
45.822506 158.553314 341.835541
45.822178 159.109177 341.833099
45.822178 159.666199 341.833099
45.803558 160.158112 341.694214
46.112648 161.799408 344.000000
46.112648 162.359955 344.000000
46.112648 162.920502 344.000000
46.112648 163.481049 344.000000
46.112648 164.041580 344.000000
46.112648 164.602127 344.000000
45.978600 164.682541 343.000000
45.978600 165.241455 343.000000
45.978600 165.800369 343.000000
45.844551 165.874283 342.000000
45.844551 166.431580 342.000000
45.710503 166.500580 341.000000
45.584915 166.597275 340.063141
45.515266 166.895996 339.543549
45.515266 167.449280 339.543549
45.443073 167.736084 339.004974
45.361046 167.984726 338.393066
45.361046 168.536133 338.393066
45.308357 168.891129 338.000000
45.308357 169.441895 338.000000
45.308357 169.992661 338.000000
45.308357 170.543427 338.000000
45.174309 170.587997 337.000000
45.174309 171.137146 337.000000
45.174309 171.686279 337.000000
45.040260 171.724319 336.000000
45.040260 172.271835 336.000000
44.906212 172.305008 335.000000
44.504066 171.302963 332.000000
44.504066 171.843948 332.000000
44.324112 171.687897 330.657532
44.101921 171.363342 329.000000
44.101921 171.899445 329.000000
44.101921 172.435547 329.000000
44.101921 172.971649 329.000000
44.101921 173.507751 329.000000
43.967873 173.514847 328.000000
43.833824 173.518692 327.000000
43.833824 174.051529 327.000000
43.833824 174.584366 327.000000
43.699776 174.581680 326.000000
43.699776 175.112900 326.000000
43.565727 175.105316 325.000000
43.431679 175.094482 324.000000
43.297634 175.080399 323.000000
43.297634 175.606720 323.000000
43.297634 176.133041 323.000000
43.163582 176.112442 322.000000
43.163582 176.637131 322.000000
43.029537 176.611649 321.000000
43.029537 177.134705 321.000000
43.029537 177.657776 321.000000
42.895485 177.625763 320.000000
42.895485 178.147186 320.000000
42.895485 178.668625 320.000000
42.895485 179.190063 320.000000
42.761436 179.149902 319.000000
42.761436 179.669708 319.000000
42.761436 180.189514 319.000000
42.627388 180.142838 318.000000
42.627388 180.661011 318.000000
42.627388 181.179184 318.000000
42.493340 181.125992 317.000000
42.493340 181.642532 317.000000
42.359291 181.584442 316.000000
42.225243 181.523102 315.000000
42.225243 182.036392 315.000000
42.091194 181.970169 314.000000
42.091194 182.481827 314.000000
42.091194 182.993484 314.000000
42.091194 183.505142 314.000000
42.091194 184.016800 314.000000
42.091194 184.528458 314.000000
42.091194 185.040115 314.000000
41.957146 184.960846 313.000000
41.957146 185.470871 313.000000
41.823101 185.386719 312.000000
41.689049 185.299286 311.000000
41.689049 185.806061 311.000000
41.689049 186.312836 311.000000
41.689049 186.819611 311.000000
41.689049 187.326370 311.000000
41.689049 187.833145 311.000000
41.555004 187.734314 310.000000
41.555004 188.239456 310.000000
41.555004 188.744598 310.000000
41.286907 188.028778 308.000000
41.286907 188.530655 308.000000
41.286907 189.032532 308.000000
41.286907 189.534424 308.000000
41.286907 190.036301 308.000000
41.286907 190.538177 308.000000
41.152855 190.419815 307.000000
41.152855 190.920074 307.000000
41.152855 191.420319 307.000000
41.152855 191.920578 307.000000
41.018810 191.794052 306.000000
41.018810 192.292679 306.000000
41.018810 192.791290 306.000000
41.018810 193.289917 306.000000
41.018810 193.788544 306.000000
40.884758 193.652237 305.000000
40.884758 194.149231 305.000000
40.884758 194.646225 305.000000
40.884758 195.143219 305.000000
40.750713 194.998764 304.000000
40.750713 195.494125 304.000000
40.750713 195.989487 304.000000
40.616665 195.838531 303.000000
40.616665 196.332260 303.000000
40.616665 196.825989 303.000000
40.616665 197.319733 303.000000
40.482613 197.160614 302.000000
40.482613 197.652710 302.000000
40.482613 198.144821 302.000000
40.348568 197.979187 301.000000
40.348568 198.469666 301.000000
40.348568 198.960144 301.000000
40.348568 199.450607 301.000000
40.348568 199.941086 301.000000
40.214516 199.765686 300.000000
40.214516 200.254532 300.000000
40.214516 200.743378 300.000000
40.214516 201.232224 300.000000
40.214516 201.721069 300.000000
40.214516 202.209915 300.000000
40.080471 202.023102 299.000000
40.080471 202.510315 299.000000
40.080471 202.997543 299.000000
39.946419 202.804199 298.000000
39.946419 203.289795 298.000000
39.946419 203.775375 298.000000
39.812374 203.575516 297.000000
39.812374 204.059479 297.000000
39.812374 204.543442 297.000000
39.812374 205.027390 297.000000
39.678322 204.819397 296.000000
39.678322 205.301727 296.000000
39.678322 205.784042 296.000000
39.678322 206.266373 296.000000
39.544277 206.050232 295.000000
39.544277 206.530930 295.000000
39.544277 207.011627 295.000000
51.828667 63.271809 382.000000
51.828667 63.894276 382.000000
51.828667 64.516739 382.000000
51.828667 65.139206 382.000000
51.828667 65.761665 382.000000
51.828667 66.384132 382.000000
46.379265 157.439270 341.835541
46.379265 157.996292 341.835541
46.379265 158.553314 341.835541
46.378933 159.109177 341.833099
46.378933 159.666199 341.833099
46.360092 160.158112 341.694214
46.350922 160.683105 341.626617
46.350922 161.239777 341.626617
46.672935 162.920502 344.000000
46.672935 163.481049 344.000000
46.672935 164.041580 344.000000
46.672935 164.602127 344.000000
46.537258 164.682541 343.000000
46.537258 165.241455 343.000000
46.537258 165.800369 343.000000
46.240273 165.297653 340.811096
46.240273 165.852997 340.811096
46.196758 166.251740 340.490356
46.138794 166.597275 340.063141
46.068298 166.895996 339.543549
46.068298 167.449280 339.543549
46.020317 167.827606 339.189941
46.001633 168.311935 339.052216
46.001633 168.864426 339.052216
45.994549 169.390808 339.000000
45.994549 169.943207 339.000000
45.994549 170.495605 339.000000
45.858871 170.543427 338.000000
45.723194 170.587997 337.000000
45.723194 171.137146 337.000000
45.723194 171.686279 337.000000
45.587517 171.724319 336.000000
45.587517 172.271835 336.000000
45.451839 172.305008 335.000000
45.044807 171.302963 332.000000
45.044807 171.843948 332.000000
44.882088 171.762207 330.800659
44.882088 172.301239 330.800659
44.882088 172.840286 330.800659
44.787327 173.013245 330.102234
44.695827 173.196594 329.427856
44.695827 173.733398 329.427856
44.502098 173.514847 328.000000
44.366425 173.518692 327.000000
44.366425 174.051529 327.000000
44.366425 174.584366 327.000000
44.230743 174.581680 326.000000
44.230743 175.112900 326.000000
44.230743 175.644104 326.000000
43.959393 175.094482 324.000000
43.959393 175.622437 324.000000
43.959393 176.150391 324.000000
43.823715 176.133041 323.000000
43.688038 176.112442 322.000000
43.688038 176.637131 322.000000
43.688038 177.161819 322.000000
43.552361 177.134705 321.000000
43.552361 177.657776 321.000000
43.416683 177.625763 320.000000
43.416683 178.147186 320.000000
43.416683 178.668625 320.000000
43.416683 179.190063 320.000000
43.416683 179.711502 320.000000
43.416683 180.232941 320.000000
43.281006 180.189514 319.000000
43.281006 180.709320 319.000000
43.281006 181.229126 319.000000
43.145329 181.179184 318.000000
43.009651 181.125992 317.000000
43.009651 181.642532 317.000000
42.873974 181.584442 316.000000
42.738297 181.523102 315.000000
42.738297 182.036392 315.000000
42.602619 181.970169 314.000000
42.602619 182.481827 314.000000
42.602619 182.993484 314.000000
42.602619 183.505142 314.000000
42.602619 184.016800 314.000000
42.602619 184.528458 314.000000
42.602619 185.040115 314.000000
42.466942 184.960846 313.000000
42.466942 185.470871 313.000000
42.331268 185.386719 312.000000
42.195587 185.299286 311.000000
42.195587 185.806061 311.000000
42.195587 186.312836 311.000000
42.195587 186.819611 311.000000
42.195587 187.326370 311.000000
42.195587 187.833145 311.000000
42.059914 187.734314 310.000000
42.059914 188.239456 310.000000
42.059914 188.744598 310.000000
41.924232 188.639252 309.000000
41.788559 188.530655 308.000000
41.788559 189.032532 308.000000
41.788559 189.534424 308.000000
41.788559 190.036301 308.000000
41.788559 190.538177 308.000000
41.652882 190.419815 307.000000
41.652882 190.920074 307.000000
41.652882 191.420319 307.000000
41.652882 191.920578 307.000000
41.517204 191.794052 306.000000
41.517204 192.292679 306.000000
41.517204 192.791290 306.000000
41.517204 193.289917 306.000000
41.517204 193.788544 306.000000
41.381527 193.652237 305.000000
41.381527 194.149231 305.000000
41.381527 194.646225 305.000000
41.381527 195.143219 305.000000
41.245850 194.998764 304.000000
41.245850 195.494125 304.000000
41.245850 195.989487 304.000000
41.110172 195.838531 303.000000
41.110172 196.332260 303.000000
41.110172 196.825989 303.000000
41.110172 197.319733 303.000000
40.974495 197.160614 302.000000
40.974495 197.652710 302.000000
40.974495 198.144821 302.000000
40.838818 197.979187 301.000000
40.838818 198.469666 301.000000
40.838818 198.960144 301.000000
40.838818 199.450607 301.000000
40.838818 199.941086 301.000000
40.703140 199.765686 300.000000
40.703140 200.254532 300.000000
40.703140 200.743378 300.000000
40.703140 201.232224 300.000000
40.703140 201.721069 300.000000
40.703140 202.209915 300.000000
40.567463 202.023102 299.000000
40.567463 202.510315 299.000000
40.567463 202.997543 299.000000
40.431786 202.804199 298.000000
40.431786 203.289795 298.000000
40.431786 203.775375 298.000000
40.296108 203.575516 297.000000
40.296108 204.059479 297.000000
40.296108 204.543442 297.000000
40.296108 205.027390 297.000000
40.160431 204.819397 296.000000
40.160431 205.301727 296.000000
40.160431 205.784042 296.000000
40.160431 206.266373 296.000000
40.024757 206.050232 295.000000
40.024757 206.530930 295.000000
40.024757 207.011627 295.000000
46.878059 158.913788 341.413330
46.878059 159.470123 341.413330
46.878059 160.026459 341.413330
46.875343 160.573486 341.393585
46.875343 161.129791 341.393585
46.906948 161.795090 341.623749
46.906948 162.351776 341.623749
46.906948 162.908447 341.623749
46.839188 163.228973 341.130249
46.801472 163.652954 340.855560
46.801472 164.208374 340.855560
46.752464 164.591263 340.498627
46.704426 164.976410 340.148773
46.704426 165.530685 340.148773
46.668392 165.956818 339.886353
46.640903 166.412582 339.686157
46.623096 166.902344 339.556458
46.623096 167.455658 339.556458
46.623096 168.008957 339.556458
46.623096 168.562256 339.556458
46.623096 169.115555 339.556458
46.623096 169.668854 339.556458
46.546692 169.943207 339.000000
46.546692 170.495605 339.000000
46.546692 171.048004 339.000000
46.546692 171.600403 339.000000
46.546692 172.152786 339.000000
46.409386 172.195740 338.000000
46.409386 172.746506 338.000000
46.409386 173.297272 338.000000
46.409386 173.848038 338.000000
45.981224 172.789841 334.881714
45.981224 173.335541 334.881714
45.533844 172.189407 331.623413
45.420876 172.301239 330.800659
45.420876 172.840286 330.800659
45.324978 173.013245 330.102234
45.232380 173.196594 329.427856
45.232380 173.733398 329.427856
45.036327 173.514847 328.000000
44.899021 173.518692 327.000000
44.899021 174.051529 327.000000
44.899021 174.584366 327.000000
44.761715 174.581680 326.000000
44.761715 175.112900 326.000000
44.761715 175.644104 326.000000
44.487103 175.094482 324.000000
44.487103 175.622437 324.000000
44.487103 176.150391 324.000000
44.487103 176.678345 324.000000
44.349800 176.659363 323.000000
44.349800 177.185699 323.000000
44.212490 177.161819 322.000000
44.212490 177.686523 322.000000
44.212490 178.211212 322.000000
44.075188 178.180847 321.000000
43.937881 178.147186 320.000000
43.937881 178.668625 320.000000
43.937881 179.190063 320.000000
43.937881 179.711502 320.000000
43.937881 180.232941 320.000000
43.800571 180.189514 319.000000
43.800571 180.709320 319.000000
43.800571 181.229126 319.000000
43.663269 181.179184 318.000000
43.525963 181.125992 317.000000
43.525963 181.642532 317.000000
43.525963 182.159073 317.000000
43.388657 182.099365 316.000000
43.388657 182.614273 316.000000
43.251350 182.549667 315.000000
43.114044 182.481827 314.000000
43.114044 182.993484 314.000000
43.114044 183.505142 314.000000
43.114044 184.016800 314.000000
43.114044 184.528458 314.000000
43.114044 185.040115 314.000000
42.976738 184.960846 313.000000
42.976738 185.470871 313.000000
42.839436 185.386719 312.000000
42.702126 185.299286 311.000000
42.702126 185.806061 311.000000
42.702126 186.312836 311.000000
42.702126 186.819611 311.000000
42.702126 187.326370 311.000000
42.702126 187.833145 311.000000
42.564823 187.734314 310.000000
42.564823 188.239456 310.000000
42.564823 188.744598 310.000000
42.427517 188.639252 309.000000
42.290211 188.530655 308.000000
42.290211 189.032532 308.000000
42.290211 189.534424 308.000000
42.290211 190.036301 308.000000
42.290211 190.538177 308.000000
42.152905 190.419815 307.000000
42.152905 190.920074 307.000000
42.152905 191.420319 307.000000
42.152905 191.920578 307.000000
42.015598 191.794052 306.000000
42.015598 192.292679 306.000000
42.015598 192.791290 306.000000
42.015598 193.289917 306.000000
42.015598 193.788544 306.000000
41.878292 193.652237 305.000000
41.878292 194.149231 305.000000
41.878292 194.646225 305.000000
41.878292 195.143219 305.000000
41.740990 194.998764 304.000000
41.740990 195.494125 304.000000
41.603680 195.344788 303.000000
41.603680 195.838531 303.000000
41.603680 196.332260 303.000000
41.603680 196.825989 303.000000
41.603680 197.319733 303.000000
41.466373 197.160614 302.000000
41.466373 197.652710 302.000000
41.466373 198.144821 302.000000
41.329067 197.979187 301.000000
41.329067 198.469666 301.000000
41.329067 198.960144 301.000000
41.191761 198.787994 300.000000
41.191761 199.276840 300.000000
41.191761 199.765686 300.000000
41.191761 200.254532 300.000000
41.191761 200.743378 300.000000
41.191761 201.232224 300.000000
41.054459 201.048676 299.000000
41.054459 201.535889 299.000000
41.054459 202.023102 299.000000
40.917149 201.833023 298.000000
40.917149 202.318619 298.000000
40.917149 202.804199 298.000000
40.917149 203.289795 298.000000
40.917149 203.775375 298.000000
40.779846 203.575516 297.000000
40.779846 204.059479 297.000000
40.779846 204.543442 297.000000
40.779846 205.027390 297.000000
40.642540 204.819397 296.000000
40.642540 205.301727 296.000000
40.642540 205.784042 296.000000
40.642540 206.266373 296.000000
40.505234 206.050232 295.000000
40.505234 206.530930 295.000000
40.505234 207.011627 295.000000
47.434132 158.913788 341.413330
47.434132 159.470123 341.413330
47.434132 160.026459 341.413330
47.431389 160.573486 341.393585
47.431389 161.129791 341.393585
47.463364 161.795090 341.623749
47.463364 162.351776 341.623749
47.463364 162.908447 341.623749
47.394802 163.228973 341.130249
47.356636 163.652954 340.855560
47.356636 164.208374 340.855560
47.307045 164.591263 340.498627
47.258438 164.976410 340.148773
47.258438 165.530685 340.148773
47.221981 165.956818 339.886353
47.194168 166.412582 339.686157
47.176147 166.902344 339.556458
47.176147 167.455658 339.556458
47.176147 168.008957 339.556458
47.176147 168.562256 339.556458
47.176147 169.115555 339.556458
47.176147 169.668854 339.556458
47.098835 169.943207 339.000000
47.098835 170.495605 339.000000
47.098835 171.048004 339.000000
47.098835 171.600403 339.000000
47.098835 172.152786 339.000000
47.098835 172.705185 339.000000
47.098835 173.257584 339.000000
47.098835 173.809982 339.000000
47.098835 174.362381 339.000000
46.655659 173.268921 335.810181
46.655659 173.816116 335.810181
46.521648 173.862488 334.845612
46.387325 173.904526 333.878815
46.387325 174.448593 333.878815
45.974873 173.436691 330.910126
45.884850 173.635239 330.262177
45.884850 174.173401 330.262177
45.755993 174.220932 329.334717
45.570553 174.049332 328.000000
45.570553 174.583801 328.000000
45.570553 175.118271 328.000000
45.431622 175.117218 327.000000
45.431622 175.650055 327.000000
45.292686 175.644104 326.000000
45.153751 175.634903 325.000000
45.014816 175.622437 324.000000
45.014816 176.150391 324.000000
45.014816 176.678345 324.000000
44.875881 176.659363 323.000000
44.875881 177.185699 323.000000
44.736946 177.161819 322.000000
44.736946 177.686523 322.000000
44.736946 178.211212 322.000000
44.598015 178.180847 321.000000
44.459076 178.147186 320.000000
44.459076 178.668625 320.000000
44.459076 179.190063 320.000000
44.459076 179.711502 320.000000
44.459076 180.232941 320.000000
44.320141 180.189514 319.000000
44.320141 180.709320 319.000000
44.320141 181.229126 319.000000
44.181210 181.179184 318.000000
44.181210 181.697357 318.000000
44.181210 182.215546 318.000000
44.042271 182.159073 317.000000
43.903339 182.099365 316.000000
43.903339 182.614273 316.000000
43.764404 182.549667 315.000000
43.764404 183.062958 315.000000
43.764404 183.576248 315.000000
43.625469 183.505142 314.000000
43.625469 184.016800 314.000000
43.625469 184.528458 314.000000
43.625469 185.040115 314.000000
43.625469 185.551773 314.000000
43.486534 185.470871 313.000000
43.486534 185.980896 313.000000
43.208664 185.299286 311.000000
43.208664 185.806061 311.000000
43.208664 186.312836 311.000000
43.208664 186.819611 311.000000
43.208664 187.326370 311.000000
43.208664 187.833145 311.000000
43.069733 187.734314 310.000000
43.069733 188.239456 310.000000
43.069733 188.744598 310.000000
42.930798 188.639252 309.000000
42.791862 188.530655 308.000000
42.791862 189.032532 308.000000
42.791862 189.534424 308.000000
42.791862 190.036301 308.000000
42.791862 190.538177 308.000000
42.791862 191.040070 308.000000
42.652927 190.920074 307.000000
42.652927 191.420319 307.000000
42.652927 191.920578 307.000000
42.513996 191.794052 306.000000
42.513996 192.292679 306.000000
42.513996 192.791290 306.000000
42.513996 193.289917 306.000000
42.513996 193.788544 306.000000
42.375057 193.652237 305.000000
42.375057 194.149231 305.000000
42.375057 194.646225 305.000000
42.375057 195.143219 305.000000
42.236126 194.998764 304.000000
42.236126 195.494125 304.000000
42.097191 195.344788 303.000000
42.097191 195.838531 303.000000
42.097191 196.332260 303.000000
42.097191 196.825989 303.000000
42.097191 197.319733 303.000000
41.958252 197.160614 302.000000
41.958252 197.652710 302.000000
41.958252 198.144821 302.000000
41.819321 197.979187 301.000000
41.819321 198.469666 301.000000
41.819321 198.960144 301.000000
41.680386 198.787994 300.000000
41.680386 199.276840 300.000000
41.680386 199.765686 300.000000
41.680386 200.254532 300.000000
41.680386 200.743378 300.000000
41.680386 201.232224 300.000000
41.541451 201.048676 299.000000
41.541451 201.535889 299.000000
41.541451 202.023102 299.000000
41.402515 201.833023 298.000000
41.402515 202.318619 298.000000
41.402515 202.804199 298.000000
41.263580 202.607605 297.000000
41.263580 203.091568 297.000000
41.263580 203.575516 297.000000
41.263580 204.059479 297.000000
41.263580 204.543442 297.000000
41.263580 205.027390 297.000000
41.124645 204.819397 296.000000
41.124645 205.301727 296.000000
41.124645 205.784042 296.000000
41.124645 206.266373 296.000000
40.985714 206.050232 295.000000
40.985714 206.530930 295.000000
40.985714 207.011627 295.000000
48.019779 161.795090 341.623749
48.019779 162.351776 341.623749
48.019779 162.908447 341.623749
47.950413 163.228973 341.130249
47.910179 163.647415 340.844025
47.910179 164.202820 340.844025
47.829178 164.479645 340.267731
47.803722 164.946289 340.086639
47.803722 165.500443 340.086639
47.771126 165.941391 339.854767
47.747429 166.412582 339.686157
47.729195 166.902344 339.556458
47.729195 167.455658 339.556458
47.729195 168.008957 339.556458
47.729195 168.562256 339.556458
47.729195 169.115555 339.556458
47.729195 169.668854 339.556458
47.716827 170.178055 339.468475
47.716827 170.731216 339.468475
47.650978 171.048004 339.000000
47.650978 171.600403 339.000000
47.650978 172.152786 339.000000
47.650978 172.705185 339.000000
47.650978 173.257584 339.000000
47.650978 173.809982 339.000000
47.650978 174.362381 339.000000
47.202606 173.268921 335.810181
47.202606 173.816116 335.810181
47.067024 173.862488 334.845612
46.931129 173.904526 333.878815
46.931129 174.448593 333.878815
46.513840 173.436691 330.910126
46.601826 174.304993 331.536072
46.601826 174.845230 331.536072
46.601826 175.385468 331.536072
46.259010 174.631546 329.097229
46.259010 175.167816 329.097229
46.104782 175.118271 328.000000
46.104782 175.652740 328.000000
46.104782 176.187210 328.000000
45.823654 175.644104 326.000000
45.683094 175.634903 325.000000
45.683094 176.164490 325.000000
45.683094 176.694077 325.000000
45.542526 176.678345 324.000000
45.542526 177.206299 324.000000
45.542526 177.734253 324.000000
45.401966 177.712021 323.000000
45.261402 177.686523 322.000000
45.261402 178.211212 322.000000
45.261402 178.735916 322.000000
45.120838 178.703903 321.000000
45.120838 179.226974 321.000000
44.980274 179.190063 320.000000
44.980274 179.711502 320.000000
44.980274 180.232941 320.000000
44.980274 180.754379 320.000000
44.839710 180.709320 319.000000
44.839710 181.229126 319.000000
44.839710 181.748932 319.000000
44.699150 181.697357 318.000000
44.699150 182.215546 318.000000
44.558582 182.159073 317.000000
44.418022 182.099365 316.000000
44.418022 182.614273 316.000000
44.277458 182.549667 315.000000
44.277458 183.062958 315.000000
44.277458 183.576248 315.000000
44.136894 183.505142 314.000000
44.136894 184.016800 314.000000
44.136894 184.528458 314.000000
44.136894 185.040115 314.000000
44.136894 185.551773 314.000000
43.996330 185.470871 313.000000
43.996330 185.980896 313.000000
43.855770 185.895111 312.000000
43.715202 185.806061 311.000000
43.715202 186.312836 311.000000
43.715202 186.819611 311.000000
43.715202 187.326370 311.000000
43.715202 187.833145 311.000000
43.574642 187.734314 310.000000
43.574642 188.239456 310.000000
43.574642 188.744598 310.000000
43.434078 188.639252 309.000000
43.434078 189.142776 309.000000
43.434078 189.646286 309.000000
43.293514 189.534424 308.000000
43.293514 190.036301 308.000000
43.293514 190.538177 308.000000
43.293514 191.040070 308.000000
43.152950 190.920074 307.000000
43.152950 191.420319 307.000000
43.152950 191.920578 307.000000
43.012390 191.794052 306.000000
43.012390 192.292679 306.000000
43.012390 192.791290 306.000000
43.012390 193.289917 306.000000
43.012390 193.788544 306.000000
43.012390 194.287170 306.000000
42.871826 194.149231 305.000000
42.871826 194.646225 305.000000
42.871826 195.143219 305.000000
42.731262 194.998764 304.000000
42.731262 195.494125 304.000000
42.590698 195.344788 303.000000
42.590698 195.838531 303.000000
42.590698 196.332260 303.000000
42.590698 196.825989 303.000000
42.590698 197.319733 303.000000
42.450134 197.160614 302.000000
42.450134 197.652710 302.000000
42.450134 198.144821 302.000000
42.309570 197.979187 301.000000
42.309570 198.469666 301.000000
42.309570 198.960144 301.000000
42.169006 198.787994 300.000000
42.169006 199.276840 300.000000
42.169006 199.765686 300.000000
42.169006 200.254532 300.000000
42.169006 200.743378 300.000000
42.169006 201.232224 300.000000
42.028446 201.048676 299.000000
42.028446 201.535889 299.000000
42.028446 202.023102 299.000000
41.887878 201.833023 298.000000
41.887878 202.318619 298.000000
41.887878 202.804199 298.000000
41.747318 202.607605 297.000000
41.747318 203.091568 297.000000
41.747318 203.575516 297.000000
41.747318 204.059479 297.000000
41.747318 204.543442 297.000000
41.747318 205.027390 297.000000
41.606754 204.819397 296.000000
41.606754 205.301727 296.000000
41.606754 205.784042 296.000000
41.606754 206.266373 296.000000
41.466190 206.050232 295.000000
41.466190 206.530930 295.000000
41.466190 207.011627 295.000000
48.465328 163.092010 340.844025
48.465328 163.647415 340.844025
48.465328 164.202820 340.844025
48.376247 164.455383 340.217529
48.287708 164.707764 339.594879
48.287708 165.261124 339.594879
48.287708 165.814514 339.594879
48.277134 166.331436 339.520508
48.269733 166.859100 339.468475
48.269733 167.412262 339.468475
48.269733 167.965424 339.468475
48.269733 168.518585 339.468475
48.269733 169.071732 339.468475
48.269733 169.624893 339.468475
48.269733 170.178055 339.468475
48.269733 170.731216 339.468475
48.203121 171.048004 339.000000
48.203121 171.600403 339.000000
48.203121 172.152786 339.000000
48.203121 172.705185 339.000000
48.203121 173.257584 339.000000
48.203121 173.809982 339.000000
48.203121 174.362381 339.000000
47.797123 173.441528 336.144714
47.797123 173.989258 336.144714
47.658703 174.031555 335.171234
47.526257 174.092545 334.239777
47.526257 174.637192 334.239777
47.393200 174.691391 333.304047
47.267975 174.771500 332.423370
47.267975 175.313171 332.423370
47.141808 175.385468 331.536072
46.795029 174.631546 329.097229
46.795029 175.167816 329.097229
46.639008 175.118271 328.000000
46.639008 175.652740 328.000000
46.639008 176.187210 328.000000
46.354626 175.644104 326.000000
46.212433 175.634903 325.000000
46.212433 176.164490 325.000000
46.212433 176.694077 325.000000
46.212433 177.223663 325.000000
46.070240 177.206299 324.000000
46.070240 177.734253 324.000000
45.928051 177.712021 323.000000
45.928051 178.238342 323.000000
45.928051 178.764664 323.000000
45.785858 178.735916 322.000000
45.785858 179.260605 322.000000
45.785858 179.785294 322.000000
45.643665 179.750031 321.000000
45.501472 179.711502 320.000000
45.501472 180.232941 320.000000
45.501472 180.754379 320.000000
45.501472 181.275803 320.000000
45.501472 181.797241 320.000000
45.359280 181.748932 319.000000
45.217087 181.697357 318.000000
45.217087 182.215546 318.000000
45.074894 182.159073 317.000000
44.932705 182.099365 316.000000
44.932705 182.614273 316.000000
44.790512 182.549667 315.000000
44.790512 183.062958 315.000000
44.790512 183.576248 315.000000
44.790512 184.089539 315.000000
44.648319 184.016800 314.000000
44.648319 184.528458 314.000000
44.648319 185.040115 314.000000
44.648319 185.551773 314.000000
44.506126 185.470871 313.000000
44.506126 185.980896 313.000000
44.363937 185.895111 312.000000
44.221745 185.806061 311.000000
44.221745 186.312836 311.000000
44.221745 186.819611 311.000000
44.221745 187.326370 311.000000
44.221745 187.833145 311.000000
44.079552 187.734314 310.000000
44.079552 188.239456 310.000000
44.079552 188.744598 310.000000
43.937359 188.639252 309.000000
43.937359 189.142776 309.000000
43.937359 189.646286 309.000000
43.795170 189.534424 308.000000
43.795170 190.036301 308.000000
43.795170 190.538177 308.000000
43.795170 191.040070 308.000000
43.652973 190.920074 307.000000
43.652973 191.420319 307.000000
43.652973 191.920578 307.000000
43.510784 191.794052 306.000000
43.510784 192.292679 306.000000
43.510784 192.791290 306.000000
43.510784 193.289917 306.000000
43.510784 193.788544 306.000000
43.510784 194.287170 306.000000
43.368591 194.149231 305.000000
43.368591 194.646225 305.000000
43.368591 195.143219 305.000000
43.226398 194.998764 304.000000
43.084206 194.851059 303.000000
43.084206 195.344788 303.000000
43.084206 195.838531 303.000000
43.084206 196.332260 303.000000
43.084206 196.825989 303.000000
42.942013 196.668503 302.000000
42.942013 197.160614 302.000000
42.942013 197.652710 302.000000
42.942013 198.144821 302.000000
42.799824 197.979187 301.000000
42.799824 198.469666 301.000000
42.799824 198.960144 301.000000
42.657631 198.787994 300.000000
42.657631 199.276840 300.000000
42.657631 199.765686 300.000000
42.657631 200.254532 300.000000
42.657631 200.743378 300.000000
42.515438 200.561447 299.000000
42.515438 201.048676 299.000000
42.515438 201.535889 299.000000
42.373245 201.347443 298.000000
42.373245 201.833023 298.000000
42.373245 202.318619 298.000000
42.231056 202.123642 297.000000
42.231056 202.607605 297.000000
42.231056 203.091568 297.000000
42.231056 203.575516 297.000000
42.231056 204.059479 297.000000
42.231056 204.543442 297.000000
42.231056 205.027390 297.000000
42.088860 204.819397 296.000000
42.088860 205.301727 296.000000
42.088860 205.784042 296.000000
42.088860 206.266373 296.000000
41.946671 206.050232 295.000000
41.946671 206.530930 295.000000
41.946671 207.011627 295.000000
49.020473 163.092010 340.844025
49.020473 163.647415 340.844025
49.020473 164.202820 340.844025
48.930370 164.455383 340.217529
48.840820 164.707764 339.594879
48.840820 165.261124 339.594879
48.840820 165.814514 339.594879
48.830128 166.331436 339.520508
48.822643 166.859100 339.468475
48.822643 167.412262 339.468475
48.822643 167.965424 339.468475
48.822643 168.518585 339.468475
48.822643 169.071732 339.468475
48.822643 169.624893 339.468475
48.822643 170.178055 339.468475
48.822643 170.731216 339.468475
48.755264 171.048004 339.000000
48.755264 171.600403 339.000000
48.755264 172.152786 339.000000
48.755264 172.705185 339.000000
48.755264 173.257584 339.000000
48.755264 173.809982 339.000000
48.755264 174.362381 339.000000
48.344616 173.441528 336.144714
48.344616 173.989258 336.144714
48.204609 174.031555 335.171234
48.070648 174.092545 334.239777
48.070648 174.637192 334.239777
47.936069 174.691391 333.304047
47.809410 174.771500 332.423370
47.809410 175.313171 332.423370
47.681797 175.385468 331.536072
47.517700 175.320267 330.395111
47.517700 175.858627 330.395111
47.403084 175.971512 329.598145
47.173237 175.652740 328.000000
47.173237 176.187210 328.000000
46.885593 175.644104 326.000000
46.741776 175.634903 325.000000
46.741776 176.164490 325.000000
46.741776 176.694077 325.000000
46.741776 177.223663 325.000000
46.597954 177.206299 324.000000
46.597954 177.734253 324.000000
46.454132 177.712021 323.000000
46.454132 178.238342 323.000000
46.454132 178.764664 323.000000
46.310310 178.735916 322.000000
46.310310 179.260605 322.000000
46.310310 179.785294 322.000000
46.166492 179.750031 321.000000
46.022671 179.711502 320.000000
46.022671 180.232941 320.000000
46.022671 180.754379 320.000000
46.022671 181.275803 320.000000
46.022671 181.797241 320.000000
45.878849 181.748932 319.000000
45.845009 182.134293 318.764709
45.845009 182.653717 318.764709
45.749130 182.790054 318.098053
45.665863 182.974762 317.519104
45.665863 183.492172 317.519104
45.447388 183.129196 316.000000
45.303566 183.062958 315.000000
45.303566 183.576248 315.000000
45.303566 184.089539 315.000000
45.303566 184.602829 315.000000
45.303566 185.116119 315.000000
45.159744 185.040115 314.000000
45.159744 185.551773 314.000000
45.015923 185.470871 313.000000
45.015923 185.980896 313.000000
44.872105 185.895111 312.000000
44.872105 186.403519 312.000000
44.872105 186.911911 312.000000
44.728283 186.819611 311.000000
44.728283 187.326370 311.000000
44.728283 187.833145 311.000000
44.584461 187.734314 310.000000
44.584461 188.239456 310.000000
44.584461 188.744598 310.000000
44.440639 188.639252 309.000000
44.440639 189.142776 309.000000
44.440639 189.646286 309.000000
44.296822 189.534424 308.000000
44.296822 190.036301 308.000000
44.296822 190.538177 308.000000
44.296822 191.040070 308.000000
44.153000 190.920074 307.000000
44.153000 191.420319 307.000000
44.153000 191.920578 307.000000
44.009178 191.794052 306.000000
44.009178 192.292679 306.000000
44.009178 192.791290 306.000000
44.009178 193.289917 306.000000
44.009178 193.788544 306.000000
44.009178 194.287170 306.000000
43.865356 194.149231 305.000000
43.865356 194.646225 305.000000
43.865356 195.143219 305.000000
43.721539 194.998764 304.000000
43.577717 194.851059 303.000000
43.577717 195.344788 303.000000
43.577717 195.838531 303.000000
43.577717 196.332260 303.000000
43.577717 196.825989 303.000000
43.433891 196.668503 302.000000
43.433891 197.160614 302.000000
43.433891 197.652710 302.000000
43.433891 198.144821 302.000000
43.290073 197.979187 301.000000
43.290073 198.469666 301.000000
43.290073 198.960144 301.000000
43.146252 198.787994 300.000000
43.146252 199.276840 300.000000
43.146252 199.765686 300.000000
43.146252 200.254532 300.000000
43.146252 200.743378 300.000000
43.002434 200.561447 299.000000
43.002434 201.048676 299.000000
43.002434 201.535889 299.000000
42.858608 201.347443 298.000000
42.858608 201.833023 298.000000
42.858608 202.318619 298.000000
42.714790 202.123642 297.000000
42.714790 202.607605 297.000000
42.714790 203.091568 297.000000
42.714790 203.575516 297.000000
42.714790 204.059479 297.000000
42.714790 204.543442 297.000000
42.714790 205.027390 297.000000
42.570969 204.819397 296.000000
42.570969 205.301727 296.000000
42.570969 205.784042 296.000000
42.570969 206.266373 296.000000
42.427151 206.050232 295.000000
42.427151 206.530930 295.000000
42.427151 207.011627 295.000000
49.341667 164.533493 339.235535
49.341667 165.086273 339.235535
49.341667 165.639038 339.235535
49.298203 166.045425 338.936707
49.303276 166.614868 338.971588
49.303276 167.167206 338.971588
49.303276 167.719574 338.971588
49.303276 168.271912 338.971588
49.303276 168.824265 338.971588
49.303276 169.376617 338.971588
49.303276 169.928970 338.971588
49.303276 170.481323 338.971588
49.307407 171.048004 339.000000
49.307407 171.600403 339.000000
49.307407 172.152786 339.000000
49.307407 172.705185 339.000000
49.307407 173.257584 339.000000
49.307407 173.809982 339.000000
49.307407 174.362381 339.000000
48.892109 173.441528 336.144714
48.892109 173.989258 336.144714
48.750515 174.031555 335.171234
48.615036 174.092545 334.239777
48.615036 174.637192 334.239777
48.478935 174.691391 333.304047
48.350842 174.771500 332.423370
48.350842 175.313171 332.423370
48.243515 175.464493 331.685486
48.159294 175.697723 331.106445
48.159294 176.237259 331.106445
48.029896 176.301819 330.216797
47.910637 176.400787 329.396851
47.803070 176.540283 328.657318
47.803070 177.075836 328.657318
47.485081 176.429886 326.471069
47.271114 176.164490 325.000000
47.271114 176.694077 325.000000
47.271114 177.223663 325.000000
47.125664 177.206299 324.000000
47.125664 177.734253 324.000000
46.980217 177.712021 323.000000
46.980217 178.238342 323.000000
46.980217 178.764664 323.000000
46.834766 178.735916 322.000000
46.834766 179.260605 322.000000
46.834766 179.785294 322.000000
46.834766 180.309998 322.000000
46.689320 180.273102 321.000000
46.689320 180.796173 321.000000
46.543865 180.754379 320.000000
46.543865 181.275803 320.000000
46.543865 181.797241 320.000000
46.543865 182.318680 320.000000
46.364193 182.134293 318.764709
46.364193 182.653717 318.764709
46.267227 182.790054 318.098053
46.183022 182.974762 317.519104
46.183022 183.492172 317.519104
45.962070 183.129196 316.000000
45.816616 183.062958 315.000000
45.816616 183.576248 315.000000
45.816616 184.089539 315.000000
45.816616 184.602829 315.000000
45.816616 185.116119 315.000000
45.671169 185.040115 314.000000
45.671169 185.551773 314.000000
45.525719 185.470871 313.000000
45.525719 185.980896 313.000000
45.380272 185.895111 312.000000
45.380272 186.403519 312.000000
45.380272 186.911911 312.000000
45.234821 186.819611 311.000000
45.234821 187.326370 311.000000
45.234821 187.833145 311.000000
45.234821 188.339920 311.000000
45.089371 188.239456 310.000000
45.089371 188.744598 310.000000
44.943920 188.639252 309.000000
44.943920 189.142776 309.000000
44.943920 189.646286 309.000000
44.943920 190.149796 309.000000
44.798473 190.036301 308.000000
44.798473 190.538177 308.000000
44.798473 191.040070 308.000000
44.653023 190.920074 307.000000
44.653023 191.420319 307.000000
44.653023 191.920578 307.000000
44.507576 191.794052 306.000000
44.507576 192.292679 306.000000
44.507576 192.791290 306.000000
44.507576 193.289917 306.000000
44.507576 193.788544 306.000000
44.507576 194.287170 306.000000
44.362122 194.149231 305.000000
44.362122 194.646225 305.000000
44.362122 195.143219 305.000000
44.216675 194.998764 304.000000
44.071224 194.851059 303.000000
44.071224 195.344788 303.000000
44.071224 195.838531 303.000000
44.071224 196.332260 303.000000
44.071224 196.825989 303.000000
43.925774 196.668503 302.000000
43.925774 197.160614 302.000000
43.925774 197.652710 302.000000
43.925774 198.144821 302.000000
43.780327 197.979187 301.000000
43.780327 198.469666 301.000000
43.634872 198.299149 300.000000
43.634872 198.787994 300.000000
43.634872 199.276840 300.000000
43.634872 199.765686 300.000000
43.634872 200.254532 300.000000
43.634872 200.743378 300.000000
