37.119564 98.182983 349.000000
37.119564 98.751678 349.000000
37.119564 99.320366 349.000000
37.013206 99.602844 348.000000
37.013206 100.169899 348.000000
37.013206 100.736961 348.000000
37.013206 101.304024 348.000000
36.906845 101.578362 347.000000
36.906845 102.143791 347.000000
36.906845 102.709221 347.000000
36.906845 103.274658 347.000000
36.906845 103.840088 347.000000
36.800488 104.104637 346.000000
36.800488 104.668442 346.000000
36.800488 105.232239 346.000000
36.800488 105.796043 346.000000
36.800488 106.359848 346.000000
36.800488 106.923653 346.000000
36.800488 107.487450 346.000000
36.800488 108.051254 346.000000
36.694126 108.301140 345.000000
36.694126 108.863312 345.000000
36.800488 109.742661 346.000000
36.800488 110.306465 346.000000
36.800488 110.870270 346.000000
36.800488 111.434074 346.000000
36.800488 111.997871 346.000000
36.800488 112.561676 346.000000
36.694126 112.798523 345.000000
36.694126 113.360695 345.000000
36.694126 113.922874 345.000000
36.587769 114.153198 344.000000
36.587769 114.713745 344.000000
36.587769 115.274292 344.000000
36.587769 115.834831 344.000000
36.587769 116.395378 344.000000
36.587769 116.955917 344.000000
36.587769 117.516464 344.000000
36.587769 118.077011 344.000000
36.587769 118.637550 344.000000
36.587769 119.198097 344.000000
36.587769 119.758636 344.000000
36.587769 120.319183 344.000000
36.587769 120.879723 344.000000
36.587769 121.440269 344.000000
36.587769 122.000816 344.000000
36.587769 122.561356 344.000000
36.481407 122.763985 343.000000
36.481407 123.322899 343.000000
36.481407 123.881813 343.000000
36.481407 124.440727 343.000000
36.375050 124.635223 342.000000
36.375050 125.192505 342.000000
36.375050 125.749794 342.000000
36.375050 126.307076 342.000000
36.375050 126.864365 342.000000
36.481407 127.794212 343.000000
36.481407 128.353134 343.000000
36.481407 128.912048 343.000000
36.481407 129.470963 343.000000
36.481407 130.029877 343.000000
36.481407 130.588791 343.000000
36.481407 131.147705 343.000000
36.375050 131.322632 342.000000
36.375050 131.879929 342.000000
36.375050 132.437210 342.000000
36.375050 132.994492 342.000000
36.375050 133.551773 342.000000
36.375050 134.109070 342.000000
36.375050 134.666351 342.000000
36.375050 135.223633 342.000000
36.375050 135.780914 342.000000
36.375050 136.338196 342.000000
36.375050 136.895493 342.000000
36.375050 137.452774 342.000000
36.375050 138.010056 342.000000
36.481407 138.972504 343.000000
36.481407 139.531418 343.000000
36.481407 140.090332 343.000000
36.481407 140.649246 343.000000
36.481407 141.208160 343.000000
36.481407 141.767075 343.000000
36.481407 142.325989 343.000000
36.481407 142.884903 343.000000
36.481407 143.443817 343.000000
36.481407 144.002731 343.000000
36.481407 144.561646 343.000000
36.481407 145.120560 343.000000
36.375050 145.254761 342.000000
36.375050 145.812042 342.000000
36.375050 146.369324 342.000000
36.375050 146.926605 342.000000
36.375050 147.483902 342.000000
36.375050 148.041183 342.000000
36.375050 148.598465 342.000000
36.375050 149.155746 342.000000
36.375050 149.713028 342.000000
36.375050 150.270325 342.000000
36.375050 150.827606 342.000000
36.375050 151.384888 342.000000
36.268688 151.497894 341.000000
36.162327 151.607651 340.000000
36.162327 152.161667 340.000000
36.162327 152.715698 340.000000
36.162327 153.269714 340.000000
36.162327 153.823746 340.000000
36.055965 153.923721 339.000000
36.055965 154.476120 339.000000
36.055965 155.028503 339.000000
36.055965 155.580902 339.000000
36.055965 156.133301 339.000000
36.055965 156.685699 339.000000
35.949608 156.774261 338.000000
35.949608 157.325027 338.000000
35.949608 157.875793 338.000000
35.843246 157.957840 337.000000
35.843246 158.506989 337.000000
35.843246 159.056122 337.000000
35.843246 159.605255 337.000000
35.736885 159.679153 336.000000
35.736885 160.226669 336.000000
35.630527 160.295685 335.000000
35.630527 160.841568 335.000000
35.630527 161.387451 335.000000
35.630527 161.933319 335.000000
35.524166 161.994186 334.000000
35.524166 162.538437 334.000000
35.417809 162.594406 333.000000
35.311447 162.647125 332.000000
35.311447 163.188110 332.000000
35.311447 163.729111 332.000000
35.098728 163.280518 330.000000
35.098728 163.818253 330.000000
35.098728 164.355972 330.000000
35.098728 164.893707 330.000000
34.992371 164.930130 329.000000
34.992371 165.466232 329.000000
34.992371 166.002335 329.000000
34.992371 166.538437 329.000000
34.992371 167.074539 329.000000
34.886009 167.101196 328.000000
34.886009 167.635666 328.000000
34.886009 168.170135 328.000000
34.779652 168.190262 327.000000
34.673290 168.207123 326.000000
34.673290 168.738342 326.000000
34.673290 169.269562 326.000000
34.673290 169.800766 326.000000
34.673290 170.331985 326.000000
34.566933 170.339066 325.000000
34.566933 170.868652 325.000000
34.566933 171.398239 325.000000
34.354214 170.869797 323.000000
34.354214 171.396118 323.000000
34.354214 171.922455 323.000000
34.354214 172.448776 323.000000
34.247852 172.439575 322.000000
34.247852 172.964264 322.000000
34.247852 173.488953 322.000000
34.247852 174.013657 322.000000
34.247852 174.538345 322.000000
34.141495 174.519379 321.000000
34.035133 174.497147 320.000000
34.035133 175.018585 320.000000
34.035133 175.540009 320.000000
34.035133 176.061447 320.000000
34.035133 176.582886 320.000000
34.035133 177.104324 320.000000
33.928772 177.070679 319.000000
33.928772 177.590485 319.000000
33.928772 178.110291 319.000000
33.822411 178.070129 318.000000
33.716049 178.026703 317.000000
33.716049 178.543243 317.000000
33.716049 179.059799 317.000000
33.716049 179.576340 317.000000
33.716049 180.092896 317.000000
33.716049 180.609436 317.000000
33.609692 180.554611 316.000000
33.609692 181.069519 316.000000
33.609692 181.584442 316.000000
33.609692 182.099365 316.000000
33.609692 182.614273 316.000000
33.503330 182.549667 315.000000
33.503330 183.062958 315.000000
33.503330 183.576248 315.000000
33.503330 184.089539 315.000000
33.396973 184.016800 314.000000
33.396973 184.528458 314.000000
33.396973 185.040115 314.000000
33.290611 184.960846 313.000000
33.290611 185.470871 313.000000
33.184254 185.386719 312.000000
33.184254 185.895111 312.000000
33.184254 186.403519 312.000000
33.184254 186.911911 312.000000
33.184254 187.420319 312.000000
33.077892 187.326370 311.000000
33.077892 187.833145 311.000000
33.077892 188.339920 311.000000
33.077892 188.846695 311.000000
33.077892 189.353455 311.000000
32.971535 189.249741 310.000000
32.971535 189.754883 310.000000
32.971535 190.260025 310.000000
32.865173 190.149796 309.000000
32.865173 190.653305 309.000000
32.865173 191.156815 309.000000
32.758816 191.040070 308.000000
32.758816 191.541946 308.000000
32.758816 192.043823 308.000000
32.758816 192.545715 308.000000
32.758816 193.047592 308.000000
32.758816 193.549484 308.000000
32.758816 194.051361 308.000000
32.652454 193.921585 307.000000
32.652454 194.421844 307.000000
32.652454 194.922089 307.000000
32.546097 194.785782 306.000000
32.546097 195.284409 306.000000
32.546097 195.783035 306.000000
32.439735 195.640213 305.000000
32.439735 196.137207 305.000000
32.439735 196.634201 305.000000
32.506214 197.535172 305.625031
32.506214 198.033173 305.625031
32.506214 198.531189 305.625031
32.469677 198.805496 305.281525
32.402573 198.891068 304.650604
32.402573 199.387482 304.650604
32.354851 199.589539 304.201935
32.300541 199.749359 303.691284
32.300541 200.244217 303.691284
32.261810 200.498383 303.327148
32.227016 200.775879 303.000000
32.227016 201.269608 303.000000
32.227016 201.763336 303.000000
32.120655 201.589554 302.000000
32.120655 202.081665 302.000000
32.120655 202.573776 302.000000
32.014297 202.393463 301.000000
32.014297 202.883942 301.000000
32.014297 203.374420 301.000000
31.907934 203.187622 300.000000
31.907934 203.676468 300.000000
31.907934 204.165314 300.000000
31.916618 204.709839 300.081635
31.916618 205.198822 300.081635
31.916618 205.687790 300.081635
31.904514 206.098587 299.967834
31.904514 206.587387 299.967834
31.870840 206.857605 299.651215
31.830954 207.086395 299.276215
31.830954 207.574066 299.276215
31.804462 207.888565 299.027130
31.733978 207.914032 298.364441
31.695215 208.145660 298.000000
31.695215 208.631241 298.000000
31.695215 209.116837 298.000000
43.409672 15.489649 401.984100
43.493736 16.175943 402.762573
43.493736 16.832239 402.762573
45.247196 18.193588 419.000000
45.247196 18.876345 419.000000
45.247196 19.559099 419.000000
45.355183 20.290163 420.000000
45.355183 20.974548 420.000000
45.355183 21.658934 420.000000
45.355183 22.343317 420.000000
45.247196 22.972876 419.000000
45.247196 23.655630 419.000000
45.031219 24.222212 417.000000
44.923229 24.841991 416.000000
44.923229 25.519857 416.000000
44.923229 26.197725 416.000000
44.923229 26.875593 416.000000
44.923229 27.553459 416.000000
44.923229 28.231327 416.000000
44.923229 28.909193 416.000000
44.923229 29.587061 416.000000
44.923229 30.264927 416.000000
44.955624 30.965107 416.299988
44.955624 31.643461 416.299988
44.955624 32.321815 416.299988
44.926468 32.978771 416.029999
43.314259 32.448895 401.100525
43.314259 33.102486 401.100525
43.192307 33.661034 399.971222
43.065681 34.212193 398.798676
43.065681 34.862026 398.798676
42.921078 35.392624 397.459595
42.723686 35.874531 395.631714
42.723686 36.519211 395.631714
43.524319 37.860329 403.045746
43.524319 38.517086 403.045746
43.524319 39.173843 403.045746
43.227348 39.558834 400.295746
42.953224 39.956116 397.757294
42.953224 40.604256 397.757294
42.008026 40.344624 389.004517
41.932426 40.904758 388.304443
41.932426 41.537491 388.304443
41.862171 42.099579 387.653870
41.924435 42.794811 388.230438
41.924435 43.427425 388.230438
41.924435 44.060043 388.230438
41.825687 44.587391 387.316010
41.401318 44.759724 383.386230
41.359604 45.338726 383.000000
41.359604 45.962818 383.000000
41.251617 46.465275 382.000000
41.251617 47.087738 382.000000
41.251617 47.710201 382.000000
41.251617 48.332668 382.000000
41.251617 48.955132 382.000000
41.251617 49.577595 382.000000
41.143627 50.068645 381.000000
41.143627 50.689480 381.000000
41.143627 51.310318 381.000000
41.143627 51.931152 381.000000
41.143627 52.551987 381.000000
41.035641 53.033257 380.000000
41.035641 53.652462 380.000000
41.035641 54.271667 380.000000
41.035641 54.890873 380.000000
41.035641 55.510078 380.000000
41.035641 56.129284 380.000000
41.035641 56.748489 380.000000
41.035641 57.367695 380.000000
41.035641 57.986900 380.000000
39.895180 56.977329 369.439056
39.895180 57.579323 369.439056
39.895180 58.181316 369.439056
39.801983 58.646000 368.576050
39.734310 59.145851 367.949371
39.734310 59.745422 367.949371
39.650208 60.217266 367.170563
39.650208 60.815563 367.170563
39.604485 61.343037 366.747131
39.604485 61.940647 366.747131
39.480846 62.343021 365.602203
39.217373 62.518757 363.162415
39.217373 63.110523 363.162415
38.689747 62.845245 358.276459
38.907902 63.786697 360.296600
38.907902 64.373795 360.296600
38.907902 64.960892 360.296600
38.778271 65.329613 359.096191
38.778271 65.914749 359.096191
38.649353 66.278816 357.902405
38.119953 65.946167 353.000000
38.119953 66.521378 353.000000
38.119953 67.096588 353.000000
38.119953 67.671799 353.000000
38.119953 68.247002 353.000000
38.119953 68.822212 353.000000
38.119953 69.397423 353.000000
38.119953 69.972633 353.000000
38.119953 70.547844 353.000000
38.119953 71.123047 353.000000
38.119953 71.698257 353.000000
38.011963 72.068726 352.000000
37.903973 72.435936 351.000000
37.903973 73.007889 351.000000
37.903973 73.579842 351.000000
37.903973 74.151787 351.000000
37.903973 74.723740 351.000000
37.903973 75.295692 351.000000
38.011963 76.083778 352.000000
38.011963 76.657364 352.000000
38.011963 77.230942 352.000000
38.011963 77.804520 352.000000
38.011963 78.378098 352.000000
38.011963 78.951683 352.000000
38.011963 79.525261 352.000000
38.011963 80.098839 352.000000
38.011963 80.672417 352.000000
38.011963 81.245995 352.000000
37.903973 81.587143 351.000000
37.903973 82.159088 351.000000
37.903973 82.731041 351.000000
37.903973 83.302994 351.000000
37.903973 83.874939 351.000000
37.903973 84.446892 351.000000
37.903973 85.018837 351.000000
37.903973 85.590790 351.000000
37.903973 86.162743 351.000000
37.903973 86.734688 351.000000
37.903973 87.306641 351.000000
37.903973 87.878593 351.000000
37.903973 88.450539 351.000000
37.903973 89.022491 351.000000
37.903973 89.594444 351.000000
37.903973 90.166389 351.000000
37.903973 90.738342 351.000000
37.795986 91.050148 350.000000
37.795986 91.620468 350.000000
37.795986 92.190788 350.000000
37.795986 92.761108 350.000000
37.795986 93.331429 350.000000
37.795986 93.901749 350.000000
37.795986 94.472069 350.000000
37.795986 95.042389 350.000000
37.795986 95.612709 350.000000
37.795986 96.183029 350.000000
37.795986 96.753349 350.000000
37.687996 97.045601 349.000000
37.687996 97.614296 349.000000
37.687996 98.182983 349.000000
37.687996 98.751678 349.000000
37.687996 99.320366 349.000000
37.687996 99.889061 349.000000
37.580009 100.169899 348.000000
37.580009 100.736961 348.000000
37.580009 101.304024 348.000000
37.580009 101.871086 348.000000
37.580009 102.438148 348.000000
37.580009 103.005211 348.000000
37.580009 103.572273 348.000000
37.580009 104.139336 348.000000
37.580009 104.706398 348.000000
37.580009 105.273460 348.000000
37.580009 105.840515 348.000000
37.472019 106.101814 347.000000
37.472019 106.667252 347.000000
37.472019 107.232681 347.000000
37.472019 107.798111 347.000000
37.472019 108.363541 347.000000
37.472019 108.928978 347.000000
37.472019 109.494408 347.000000
37.472019 110.059837 347.000000
37.364033 110.306465 346.000000
37.364033 110.870270 346.000000
37.364033 111.434074 346.000000
37.364033 111.997871 346.000000
37.364033 112.561676 346.000000
37.256042 112.798523 345.000000
37.256042 113.360695 345.000000
37.256042 113.922874 345.000000
37.148056 114.153198 344.000000
37.148056 114.713745 344.000000
37.148056 115.274292 344.000000
37.148056 115.834831 344.000000
37.148056 116.395378 344.000000
37.148056 116.955917 344.000000
37.148056 117.516464 344.000000
37.148056 118.077011 344.000000
37.148056 118.637550 344.000000
37.148056 119.198097 344.000000
37.148056 119.758636 344.000000
37.148056 120.319183 344.000000
37.148056 120.879723 344.000000
37.148056 121.440269 344.000000
37.148056 122.000816 344.000000
37.148056 122.561356 344.000000
37.040066 122.763985 343.000000
37.040066 123.322899 343.000000
37.040066 123.881813 343.000000
37.040066 124.440727 343.000000
36.932079 124.635223 342.000000
36.932079 125.192505 342.000000
36.932079 125.749794 342.000000
36.932079 126.307076 342.000000
36.932079 126.864365 342.000000
37.040066 127.794212 343.000000
37.040066 128.353134 343.000000
37.040066 128.912048 343.000000
37.040066 129.470963 343.000000
37.040066 130.029877 343.000000
37.040066 130.588791 343.000000
37.040066 131.147705 343.000000
36.932079 131.322632 342.000000
36.932079 131.879929 342.000000
36.932079 132.437210 342.000000
36.932079 132.994492 342.000000
36.932079 133.551773 342.000000
36.932079 134.109070 342.000000
36.932079 134.666351 342.000000
36.932079 135.223633 342.000000
36.932079 135.780914 342.000000
36.932079 136.338196 342.000000
36.932079 136.895493 342.000000
36.932079 137.452774 342.000000
36.932079 138.010056 342.000000
37.040066 138.972504 343.000000
37.040066 139.531418 343.000000
37.040066 140.090332 343.000000
37.040066 140.649246 343.000000
37.040066 141.208160 343.000000
37.040066 141.767075 343.000000
37.040066 142.325989 343.000000
37.040066 142.884903 343.000000
37.040066 143.443817 343.000000
37.040066 144.002731 343.000000
37.040066 144.561646 343.000000
37.040066 145.120560 343.000000
36.932079 145.254761 342.000000
36.932079 145.812042 342.000000
36.932079 146.369324 342.000000
36.932079 146.926605 342.000000
36.932079 147.483902 342.000000
36.932079 148.041183 342.000000
36.932079 148.598465 342.000000
36.932079 149.155746 342.000000
36.932079 149.713028 342.000000
36.932079 150.270325 342.000000
36.932079 150.827606 342.000000
36.932079 151.384888 342.000000
36.824089 151.497894 341.000000
36.716103 151.607651 340.000000
36.716103 152.161667 340.000000
36.716103 152.715698 340.000000
36.716103 153.269714 340.000000
36.716103 153.823746 340.000000
36.716103 154.377777 340.000000
36.716103 154.931793 340.000000
36.716103 155.485825 340.000000
36.716103 156.039856 340.000000
36.608112 156.133301 339.000000
36.608112 156.685699 339.000000
36.608112 157.238098 339.000000
36.608112 157.790497 339.000000
36.608112 158.342880 339.000000
36.500122 158.426559 338.000000
36.392136 158.506989 337.000000
36.392136 159.056122 337.000000
36.392136 159.605255 337.000000
36.392136 160.154388 337.000000
36.392136 160.703537 337.000000
36.284145 160.774170 336.000000
36.176155 160.841568 335.000000
36.176155 161.387451 335.000000
36.176155 161.933319 335.000000
36.176155 162.479202 335.000000
36.176155 163.025085 335.000000
36.068169 163.082687 334.000000
35.960178 163.137024 333.000000
35.960178 163.679657 333.000000
35.960178 164.222275 333.000000
35.744202 163.775299 331.000000
35.636211 163.818253 330.000000
35.636211 164.355972 330.000000
35.636211 164.893707 330.000000
35.636211 165.431442 330.000000
35.636211 165.969162 330.000000
35.528225 166.002335 329.000000
35.528225 166.538437 329.000000
35.528225 167.074539 329.000000
35.528225 167.610641 329.000000
35.420235 167.635666 328.000000
35.420235 168.170135 328.000000
35.312248 168.190262 327.000000
35.312248 168.723099 327.000000
35.312248 169.255951 327.000000
35.204258 169.269562 326.000000
35.204258 169.800766 326.000000
35.204258 170.331985 326.000000
35.096272 170.339066 325.000000
35.096272 170.868652 325.000000
35.096272 171.398239 325.000000
34.880295 170.869797 323.000000
34.880295 171.396118 323.000000
34.880295 171.922455 323.000000
34.880295 172.448776 323.000000
34.772305 172.439575 322.000000
34.772305 172.964264 322.000000
34.772305 173.488953 322.000000
34.772305 174.013657 322.000000
34.772305 174.538345 322.000000
34.664318 174.519379 321.000000
34.556328 174.497147 320.000000
34.556328 175.018585 320.000000
34.556328 175.540009 320.000000
34.556328 176.061447 320.000000
34.556328 176.582886 320.000000
34.556328 177.104324 320.000000
34.448338 177.070679 319.000000
34.448338 177.590485 319.000000
34.448338 178.110291 319.000000
34.340351 178.070129 318.000000
34.232361 178.026703 317.000000
34.232361 178.543243 317.000000
34.232361 179.059799 317.000000
34.232361 179.576340 317.000000
34.232361 180.092896 317.000000
34.232361 180.609436 317.000000
34.124374 180.554611 316.000000
34.124374 181.069519 316.000000
34.124374 181.584442 316.000000
34.124374 182.099365 316.000000
34.124374 182.614273 316.000000
34.016384 182.549667 315.000000
34.016384 183.062958 315.000000
34.016384 183.576248 315.000000
33.908398 183.505142 314.000000
33.908398 184.016800 314.000000
33.908398 184.528458 314.000000
33.908398 185.040115 314.000000
33.800407 184.960846 313.000000
33.800407 185.470871 313.000000
33.692421 185.386719 312.000000
33.692421 185.895111 312.000000
33.692421 186.403519 312.000000
33.584431 186.312836 311.000000
33.584431 186.819611 311.000000
33.584431 187.326370 311.000000
33.584431 187.833145 311.000000
33.584431 188.339920 311.000000
33.476444 188.239456 310.000000
33.476444 188.744598 310.000000
33.476444 189.249741 310.000000
33.368454 189.142776 309.000000
33.368454 189.646286 309.000000
33.368454 190.149796 309.000000
33.260468 190.036301 308.000000
33.260468 190.538177 308.000000
33.260468 191.040070 308.000000
33.260468 191.541946 308.000000
33.260468 192.043823 308.000000
33.260468 192.545715 308.000000
33.260468 193.047592 308.000000
33.260468 193.549484 308.000000
33.152477 193.421326 307.000000
33.152477 193.921585 307.000000
33.152477 194.421844 307.000000
33.152477 194.922089 307.000000
33.044491 194.785782 306.000000
33.044491 195.284409 306.000000
33.044491 195.783035 306.000000
32.936501 195.640213 305.000000
32.936501 196.137207 305.000000
32.936501 196.634201 305.000000
33.003998 197.535172 305.625031
33.003998 198.033173 305.625031
33.003998 198.531189 305.625031
32.966904 198.805496 305.281525
32.898769 198.891068 304.650604
32.898769 199.387482 304.650604
32.850319 199.589539 304.201935
32.795177 199.749359 303.691284
32.795177 200.244217 303.691284
32.755856 200.498383 303.327148
32.720524 200.775879 303.000000
32.720524 201.269608 303.000000
32.720524 201.763336 303.000000
32.612534 201.589554 302.000000
32.612534 202.081665 302.000000
32.612534 202.573776 302.000000
32.504547 202.393463 301.000000
32.504547 202.883942 301.000000
32.396557 202.698761 300.000000
32.396557 203.187622 300.000000
32.396557 203.676468 300.000000
32.396557 204.165314 300.000000
32.405376 204.709839 300.081635
32.405376 205.198822 300.081635
32.405376 205.687790 300.081635
32.359753 205.886505 299.659149
32.359753 206.374786 299.659149
32.323204 206.629456 299.320709
32.288025 206.891785 298.994965
32.288025 207.378983 298.994965
32.256119 207.660782 298.699493
32.219936 207.914032 298.364441
32.072594 207.447189 297.000000
32.072594 207.931137 297.000000
32.072594 208.415100 297.000000
44.064400 15.489649 401.984100
44.149734 16.175943 402.762573
44.149734 16.832239 402.762573
45.929638 18.193588 419.000000
45.929638 18.876345 419.000000
45.929638 19.559099 419.000000
45.929638 20.241856 419.000000
45.929638 20.924610 419.000000
45.929638 21.607365 419.000000
45.929638 22.290121 419.000000
45.929638 22.972876 419.000000
45.929638 23.655630 419.000000
45.710403 24.222212 417.000000
45.600784 24.841991 416.000000
45.600784 25.519857 416.000000
45.600784 26.197725 416.000000
45.600784 26.875593 416.000000
45.600784 27.553459 416.000000
45.600784 28.231327 416.000000
45.600784 28.909193 416.000000
45.600784 29.587061 416.000000
45.600784 30.264927 416.000000
45.633667 30.965107 416.299988
45.633667 31.643461 416.299988
45.633667 32.321815 416.299988
45.604073 32.978771 416.029999
43.967545 32.448895 401.100525
43.967545 33.102486 401.100525
43.989254 33.772739 401.298553
43.989254 34.426651 401.298553
43.989254 35.080563 401.298553
43.855526 35.625843 400.078644
43.674202 36.127773 398.424469
43.674202 36.776997 398.424469
44.579826 38.202293 406.686157
44.579826 38.864983 406.686157
44.579826 39.527672 406.686157
44.278381 39.918594 403.936157
44.000118 40.321808 401.397705
44.000118 40.975880 401.397705
43.738373 41.382305 399.009857
43.492771 41.796467 396.769348
43.492771 42.442997 396.769348
43.261181 42.860081 394.656616
43.036888 43.277622 392.610474
43.036888 43.917377 392.610474
42.556763 44.060043 388.230438
42.456524 44.587391 387.316010
42.025749 44.759724 383.386230
41.983414 45.338726 383.000000
41.983414 45.962818 383.000000
41.873798 46.465275 382.000000
41.873798 47.087738 382.000000
41.873798 47.710201 382.000000
41.873798 48.332668 382.000000
41.873798 48.955132 382.000000
41.873798 49.577595 382.000000
41.764179 50.068645 381.000000
41.764179 50.689480 381.000000
41.764179 51.310318 381.000000
41.764179 51.931152 381.000000
41.764179 52.551987 381.000000
41.654564 53.033257 380.000000
41.654564 53.652462 380.000000
41.654564 54.271667 380.000000
41.654564 54.890873 380.000000
41.654564 55.510078 380.000000
41.654564 56.129284 380.000000
41.654564 56.748489 380.000000
41.654564 57.367695 380.000000
41.654564 57.986900 380.000000
40.496899 56.977329 369.439056
40.496899 57.579323 369.439056
40.496899 58.181316 369.439056
40.402298 58.646000 368.576050
40.333607 59.145851 367.949371
40.333607 59.745422 367.949371
40.248234 60.217266 367.170563
41.544945 62.774906 379.000000
41.544945 63.392483 379.000000
41.544945 64.010056 379.000000
40.493332 62.991741 369.406525
40.250591 63.212460 367.192047
40.250591 63.810795 367.192047
39.760498 63.624886 362.721130
39.621960 63.992184 361.457275
39.621960 64.581177 361.457275
39.494732 64.960892 360.296600
39.363144 65.329613 359.096191
39.363144 65.914749 359.096191
39.232285 66.278816 357.902405
38.694897 65.946167 353.000000
38.694897 66.521378 353.000000
38.694897 67.096588 353.000000
38.694897 67.671799 353.000000
38.694897 68.247002 353.000000
38.694897 68.822212 353.000000
38.694897 69.397423 353.000000
38.694897 69.972633 353.000000
38.694897 70.547844 353.000000
38.694897 71.123047 353.000000
38.694897 71.698257 353.000000
38.585278 72.068726 352.000000
38.475658 72.435936 351.000000
38.475658 73.007889 351.000000
38.475658 73.579842 351.000000
38.585278 74.363045 352.000000
38.585278 74.936623 352.000000
38.585278 75.510201 352.000000
38.694897 76.299934 353.000000
38.694897 76.875137 353.000000
38.694897 77.450348 353.000000
38.694897 78.025558 353.000000
38.694897 78.600769 353.000000
38.694897 79.175980 353.000000
38.694897 79.751183 353.000000
38.694897 80.326393 353.000000
38.694897 80.901604 353.000000
38.585278 81.245995 352.000000
38.585278 81.819580 352.000000
38.585278 82.393158 352.000000
38.585278 82.966736 352.000000
38.585278 83.540314 352.000000
38.585278 84.113899 352.000000
38.585278 84.687477 352.000000
38.585278 85.261055 352.000000
38.585278 85.834633 352.000000
38.585278 86.408211 352.000000
38.585278 86.981796 352.000000
38.585278 87.555374 352.000000
38.585278 88.128952 352.000000
38.475658 88.450539 351.000000
38.475658 89.022491 351.000000
38.475658 89.594444 351.000000
38.475658 90.166389 351.000000
38.475658 90.738342 351.000000
38.475658 91.310287 351.000000
38.366043 91.620468 350.000000
38.366043 92.190788 350.000000
38.366043 92.761108 350.000000
38.366043 93.331429 350.000000
38.366043 93.901749 350.000000
38.366043 94.472069 350.000000
38.366043 95.042389 350.000000
38.366043 95.612709 350.000000
38.366043 96.183029 350.000000
38.366043 96.753349 350.000000
38.366043 97.323669 350.000000
38.366043 97.893990 350.000000
38.366043 98.464310 350.000000
38.366043 99.034637 350.000000
38.366043 99.604958 350.000000
38.366043 100.175278 350.000000
38.256424 100.457748 349.000000
38.256424 101.026443 349.000000
38.256424 101.595131 349.000000
38.256424 102.163826 349.000000
38.256424 102.732513 349.000000
38.256424 103.301201 349.000000
38.256424 103.869896 349.000000
38.256424 104.438583 349.000000
38.256424 105.007278 349.000000
38.256424 105.575966 349.000000
38.256424 106.144661 349.000000
38.256424 106.713348 349.000000
38.256424 107.282051 349.000000
38.256424 107.850739 349.000000
38.256424 108.419434 349.000000
38.256424 108.988121 349.000000
38.146809 109.242897 348.000000
38.146809 109.809959 348.000000
38.146809 110.377014 348.000000
38.037193 110.625275 347.000000
38.037193 111.190704 347.000000
38.037193 111.756134 347.000000
37.927574 111.997871 346.000000
37.927574 112.561676 346.000000
37.927574 113.125481 346.000000
37.927574 113.689285 346.000000
37.927574 114.253082 346.000000
37.927574 114.816887 346.000000
37.927574 115.380692 346.000000
37.927574 115.944496 346.000000
37.927574 116.508293 346.000000
37.927574 117.072098 346.000000
37.927574 117.635902 346.000000
37.817959 117.858086 345.000000
37.817959 118.420258 345.000000
37.817959 118.982430 345.000000
37.817959 119.544601 345.000000
37.817959 120.106773 345.000000
37.817959 120.668945 345.000000
37.817959 121.231125 345.000000
37.817959 121.793297 345.000000
37.817959 122.355469 345.000000
37.817959 122.917641 345.000000
37.708340 123.121902 344.000000
37.708340 123.682442 344.000000
37.708340 124.242989 344.000000
37.598724 124.440727 343.000000
37.598724 124.999641 343.000000
37.598724 125.558556 343.000000
37.598724 126.117470 343.000000
37.598724 126.676384 343.000000
37.598724 127.235298 343.000000
37.598724 127.794212 343.000000
37.598724 128.353134 343.000000
37.598724 128.912048 343.000000
37.598724 129.470963 343.000000
37.598724 130.029877 343.000000
37.598724 130.588791 343.000000
37.598724 131.147705 343.000000
37.598724 131.706619 343.000000
37.598724 132.265533 343.000000
37.598724 132.824448 343.000000
37.598724 133.383362 343.000000
37.598724 133.942276 343.000000
37.598724 134.501190 343.000000
37.598724 135.060104 343.000000
37.598724 135.619019 343.000000
37.598724 136.177933 343.000000
37.598724 136.736847 343.000000
37.598724 137.295761 343.000000
37.598724 137.854675 343.000000
37.598724 138.413589 343.000000
37.708340 139.377670 344.000000
37.708340 139.938217 344.000000
37.817959 140.907181 345.000000
37.817959 141.469360 345.000000
37.817959 142.031525 345.000000
37.817959 142.593704 345.000000
37.817959 143.155869 345.000000
37.817959 143.718048 345.000000
37.708340 143.862015 344.000000
37.708340 144.422562 344.000000
37.708340 144.983109 344.000000
37.598724 145.120560 343.000000
37.598724 145.679474 343.000000
37.598724 146.238388 343.000000
37.598724 146.797302 343.000000
37.598724 147.356216 343.000000
37.598724 147.915131 343.000000
37.598724 148.474045 343.000000
37.598724 149.032959 343.000000
37.598724 149.591873 343.000000
37.598724 150.150787 343.000000
37.598724 150.709702 343.000000
37.598724 151.268616 343.000000
37.489109 151.384888 342.000000
37.489109 151.942169 342.000000
37.489109 152.499451 342.000000
37.489109 153.056747 342.000000
37.489109 153.614029 342.000000
37.379490 153.720520 341.000000
37.379490 154.276169 341.000000
37.379490 154.831833 341.000000
37.269875 154.931793 340.000000
37.269875 155.485825 340.000000
37.269875 156.039856 340.000000
37.160255 156.133301 339.000000
37.160255 156.685699 339.000000
37.160255 157.238098 339.000000
37.160255 157.790497 339.000000
37.160255 158.342880 339.000000
37.050640 158.426559 338.000000
36.941021 158.506989 337.000000
36.941021 159.056122 337.000000
36.941021 159.605255 337.000000
36.941021 160.154388 337.000000
36.941021 160.703537 337.000000
36.831402 160.774170 336.000000
36.721786 160.841568 335.000000
36.721786 161.387451 335.000000
36.721786 161.933319 335.000000
36.721786 162.479202 335.000000
36.721786 163.025085 335.000000
36.612167 163.082687 334.000000
36.502552 163.137024 333.000000
36.502552 163.679657 333.000000
36.502552 164.222275 333.000000
36.502552 164.764893 333.000000
36.392933 164.811081 332.000000
36.392933 165.352081 332.000000
36.173698 164.893707 330.000000
36.173698 165.431442 330.000000
36.173698 165.969162 330.000000
36.173698 166.506897 330.000000
36.064083 166.538437 329.000000
36.064083 167.074539 329.000000
36.064083 167.610641 329.000000
35.954464 167.635666 328.000000
35.954464 168.170135 328.000000
35.954464 168.704605 328.000000
35.844849 168.723099 327.000000
35.844849 169.255951 327.000000
35.735229 169.269562 326.000000
35.735229 169.800766 326.000000
35.735229 170.331985 326.000000
35.735229 170.863190 326.000000
35.625614 170.868652 325.000000
35.625614 171.398239 325.000000
35.406380 170.869797 323.000000
35.406380 171.396118 323.000000
35.406380 171.922455 323.000000
35.406380 172.448776 323.000000
35.406380 172.975098 323.000000
35.406380 173.501419 323.000000
35.296761 173.488953 322.000000
35.296761 174.013657 322.000000
35.296761 174.538345 322.000000
35.187145 174.519379 321.000000
35.077526 174.497147 320.000000
35.077526 175.018585 320.000000
35.077526 175.540009 320.000000
35.077526 176.061447 320.000000
35.077526 176.582886 320.000000
35.077526 177.104324 320.000000
34.967907 177.070679 319.000000
34.967907 177.590485 319.000000
34.967907 178.110291 319.000000
34.858292 178.070129 318.000000
34.748672 178.026703 317.000000
34.748672 178.543243 317.000000
34.748672 179.059799 317.000000
34.748672 179.576340 317.000000
34.748672 180.092896 317.000000
34.748672 180.609436 317.000000
34.639057 180.554611 316.000000
34.639057 181.069519 316.000000
34.639057 181.584442 316.000000
34.639057 182.099365 316.000000
34.639057 182.614273 316.000000
34.529438 182.549667 315.000000
34.529438 183.062958 315.000000
34.529438 183.576248 315.000000
34.419823 183.505142 314.000000
34.419823 184.016800 314.000000
34.419823 184.528458 314.000000
34.419823 185.040115 314.000000
34.310204 184.960846 313.000000
34.310204 185.470871 313.000000
34.200588 185.386719 312.000000
34.090969 185.299286 311.000000
34.090969 185.806061 311.000000
34.090969 186.312836 311.000000
34.090969 186.819611 311.000000
34.090969 187.326370 311.000000
34.090969 187.833145 311.000000
34.090969 188.339920 311.000000
33.981354 188.239456 310.000000
33.981354 188.744598 310.000000
33.981354 189.249741 310.000000
33.871735 189.142776 309.000000
33.871735 189.646286 309.000000
33.762119 189.534424 308.000000
33.762119 190.036301 308.000000
33.762119 190.538177 308.000000
33.762119 191.040070 308.000000
33.762119 191.541946 308.000000
33.762119 192.043823 308.000000
33.762119 192.545715 308.000000
33.652500 192.420822 307.000000
33.652500 192.921082 307.000000
33.652500 193.421326 307.000000
33.652500 193.921585 307.000000
33.652500 194.421844 307.000000
33.652500 194.922089 307.000000
33.542885 194.785782 306.000000
33.542885 195.284409 306.000000
33.433266 195.143219 305.000000
33.433266 195.640213 305.000000
33.433266 196.137207 305.000000
33.433266 196.634201 305.000000
33.433266 197.131195 305.000000
33.433266 197.628189 305.000000
33.433266 198.125183 305.000000
33.422638 198.559036 304.903046
33.355637 198.656830 304.291809
33.355637 199.152664 304.291809
33.304932 199.344986 303.829224
33.250725 199.514832 303.334717
33.250725 200.009109 303.334717
33.213074 200.276367 302.991272
33.181416 200.578720 302.702454
33.181416 201.071960 302.702454
33.104416 201.097458 302.000000
33.104416 201.589554 302.000000
33.104416 202.081665 302.000000
32.994797 201.903000 301.000000
32.994797 202.393463 301.000000
32.994797 202.883942 301.000000
32.885181 202.698761 300.000000
32.885181 203.187622 300.000000
32.885181 203.676468 300.000000
32.885181 204.165314 300.000000
32.894127 204.709839 300.081635
32.894127 205.198822 300.081635
32.894127 205.687790 300.081635
32.847816 205.886505 299.659149
32.847816 206.374786 299.659149
32.810719 206.629456 299.320709
32.775009 206.891785 298.994965
32.775009 207.378983 298.994965
32.742622 207.660782 298.699493
32.705894 207.914032 298.364441
32.556332 207.447189 297.000000
32.556332 207.931137 297.000000
32.556332 208.415100 297.000000
44.719128 15.489649 401.984100
44.805729 16.175943 402.762573
44.805729 16.832239 402.762573
46.612080 18.193588 419.000000
46.612080 18.876345 419.000000
46.612080 19.559099 419.000000
46.612080 20.241856 419.000000
46.612080 20.924610 419.000000
46.612080 21.607365 419.000000
46.612080 22.290121 419.000000
46.389587 22.863220 417.000000
46.389587 23.542715 417.000000
46.278339 24.164125 416.000000
46.278339 24.841991 416.000000
46.278339 25.519857 416.000000
46.278339 26.197725 416.000000
46.278339 26.875593 416.000000
46.278339 27.553459 416.000000
46.278339 28.231327 416.000000
46.278339 28.909193 416.000000
46.278339 29.587061 416.000000
46.278339 30.264927 416.000000
46.311714 30.965107 416.299988
46.311714 31.643461 416.299988
46.311714 32.321815 416.299988
46.281677 32.978771 416.029999
44.620831 32.448895 401.100525
44.620831 33.102486 401.100525
44.642864 33.772739 401.298553
44.642864 34.426651 401.298553
44.642864 35.080563 401.298553
44.507153 35.625843 400.078644
44.323132 36.127773 398.424469
44.323132 36.776997 398.424469
45.242214 38.202293 406.686157
45.242214 38.864983 406.686157
45.242214 39.527672 406.686157
44.936287 39.918594 403.936157
44.653893 40.321808 401.397705
44.653893 40.975880 401.397705
44.388256 41.382305 399.009857
44.139008 41.796467 396.769348
44.139008 42.442997 396.769348
43.903976 42.860081 394.656616
43.676350 43.277622 392.610474
43.676350 43.917377 392.610474
43.166157 44.036648 388.024292
43.097652 44.598045 387.408539
42.650188 44.759724 383.386230
42.607220 45.338726 383.000000
42.607220 45.962818 383.000000
42.495975 46.465275 382.000000
42.495975 47.087738 382.000000
42.495975 47.710201 382.000000
42.495975 48.332668 382.000000
42.495975 48.955132 382.000000
42.495975 49.577595 382.000000
42.495975 50.200058 382.000000
42.495975 50.822525 382.000000
42.384727 51.310318 381.000000
42.384727 51.931152 381.000000
42.384727 52.551987 381.000000
42.273483 53.033257 380.000000
42.273483 53.652462 380.000000
42.273483 54.271667 380.000000
42.273483 54.890873 380.000000
42.273483 55.510078 380.000000
42.273483 56.129284 380.000000
42.384727 56.897827 381.000000
42.384727 57.518661 381.000000
42.384727 58.139500 381.000000
42.384727 58.760334 381.000000
42.384727 59.381168 381.000000
42.384727 60.002003 381.000000
42.384727 60.622837 381.000000
42.384727 61.243671 381.000000
42.384727 61.864506 381.000000
42.273483 62.321335 380.000000
42.273483 62.940540 380.000000
42.162235 63.392483 379.000000
42.162235 64.010056 379.000000
41.095001 62.991741 369.406525
40.959072 63.383335 368.184631
40.959072 63.983284 368.184631
40.468338 63.809464 363.773407
40.326614 64.176682 362.499420
40.326614 64.767372 362.499420
40.192711 65.141045 361.295746
40.054401 65.503578 360.052460
40.054401 66.090279 360.052460
39.917015 66.448288 358.817505
39.381088 66.132988 354.000000
39.381088 66.709824 354.000000
39.381088 67.286667 354.000000
39.381088 67.863503 354.000000
39.381088 68.440338 354.000000
39.381088 69.017181 354.000000
39.381088 69.594017 354.000000
39.381088 70.170853 354.000000
39.381088 70.747696 354.000000
39.269844 71.123047 353.000000
39.269844 71.698257 353.000000
39.158596 72.068726 352.000000
39.047348 72.435936 351.000000
39.047348 73.007889 351.000000
39.047348 73.579842 351.000000
39.158596 74.363045 352.000000
39.158596 74.936623 352.000000
39.158596 75.510201 352.000000
39.269844 76.299934 353.000000
39.269844 76.875137 353.000000
39.269844 77.450348 353.000000
39.269844 78.025558 353.000000
39.269844 78.600769 353.000000
39.269844 79.175980 353.000000
39.269844 79.751183 353.000000
39.269844 80.326393 353.000000
39.269844 80.901604 353.000000
39.158596 81.245995 352.000000
39.158596 81.819580 352.000000
39.158596 82.393158 352.000000
39.158596 82.966736 352.000000
39.158596 83.540314 352.000000
39.158596 84.113899 352.000000
39.158596 84.687477 352.000000
39.158596 85.261055 352.000000
39.158596 85.834633 352.000000
39.158596 86.408211 352.000000
39.158596 86.981796 352.000000
39.158596 87.555374 352.000000
39.158596 88.128952 352.000000
39.047348 88.450539 351.000000
39.047348 89.022491 351.000000
39.047348 89.594444 351.000000
39.047348 90.166389 351.000000
39.047348 90.738342 351.000000
39.047348 91.310287 351.000000
38.936104 91.620468 350.000000
38.936104 92.190788 350.000000
38.936104 92.761108 350.000000
38.936104 93.331429 350.000000
38.936104 93.901749 350.000000
38.936104 94.472069 350.000000
38.936104 95.042389 350.000000
38.936104 95.612709 350.000000
38.936104 96.183029 350.000000
38.936104 96.753349 350.000000
38.936104 97.323669 350.000000
38.936104 97.893990 350.000000
38.936104 98.464310 350.000000
38.936104 99.034637 350.000000
38.936104 99.604958 350.000000
38.936104 100.175278 350.000000
38.824856 100.457748 349.000000
38.824856 101.026443 349.000000
38.824856 101.595131 349.000000
38.824856 102.163826 349.000000
38.824856 102.732513 349.000000
38.824856 103.301201 349.000000
38.824856 103.869896 349.000000
38.824856 104.438583 349.000000
38.824856 105.007278 349.000000
38.824856 105.575966 349.000000
38.824856 106.144661 349.000000
38.824856 106.713348 349.000000
38.824856 107.282051 349.000000
38.824856 107.850739 349.000000
38.824856 108.419434 349.000000
38.824856 108.988121 349.000000
38.713612 109.242897 348.000000
38.713612 109.809959 348.000000
38.713612 110.377014 348.000000
38.602364 110.625275 347.000000
38.602364 111.190704 347.000000
38.602364 111.756134 347.000000
38.602364 112.321571 347.000000
38.602364 112.887001 347.000000
38.602364 113.452431 347.000000
38.602364 114.017868 347.000000
38.602364 114.583298 347.000000
38.491119 114.816887 346.000000
38.602364 115.714165 347.000000
38.602364 116.279594 347.000000
38.602364 116.845024 347.000000
38.491119 117.072098 346.000000
38.491119 117.635902 346.000000
38.491119 118.199699 346.000000
38.491119 118.763504 346.000000
38.491119 119.327309 346.000000
38.491119 119.891113 346.000000
38.491119 120.454910 346.000000
38.491119 121.018715 346.000000
38.491119 121.582520 346.000000
38.491119 122.146324 346.000000
38.491119 122.710121 346.000000
38.491119 123.273926 346.000000
38.379871 123.479813 345.000000
38.379871 124.041985 345.000000
38.379871 124.604164 345.000000
38.268627 124.803528 344.000000
38.268627 125.364075 344.000000
38.268627 125.924622 344.000000
38.157383 126.117470 343.000000
38.157383 126.676384 343.000000
38.157383 127.235298 343.000000
38.157383 127.794212 343.000000
38.268627 128.727341 344.000000
38.268627 129.287888 344.000000
38.268627 129.848419 344.000000
38.268627 130.408966 344.000000
38.268627 130.969513 344.000000
38.268627 131.530060 344.000000
38.268627 132.090591 344.000000
38.268627 132.651138 344.000000
38.157383 132.824448 343.000000
38.157383 133.383362 343.000000
38.157383 133.942276 343.000000
38.157383 134.501190 343.000000
38.157383 135.060104 343.000000
38.157383 135.619019 343.000000
38.157383 136.177933 343.000000
38.157383 136.736847 343.000000
38.268627 137.696030 344.000000
38.268627 138.256577 344.000000
38.268627 138.817123 344.000000
38.491119 140.188004 346.000000
38.491119 140.751801 346.000000
38.491119 141.315613 346.000000
38.491119 141.879410 346.000000
38.491119 142.443222 346.000000
38.491119 143.007019 346.000000
38.491119 143.570816 346.000000
38.491119 144.134628 346.000000
38.491119 144.698425 346.000000
38.379871 144.842392 345.000000
38.379871 145.404572 345.000000
38.268627 145.543640 344.000000
38.268627 146.104187 344.000000
38.268627 146.664734 344.000000
38.157383 146.797302 343.000000
38.157383 147.356216 343.000000
38.157383 147.915131 343.000000
38.157383 148.474045 343.000000
38.157383 149.032959 343.000000
38.157383 149.591873 343.000000
38.157383 150.150787 343.000000
38.157383 150.709702 343.000000
38.157383 151.268616 343.000000
38.157383 151.827530 343.000000
38.157383 152.386444 343.000000
38.157383 152.945358 343.000000
38.157383 153.504272 343.000000
38.157383 154.063187 343.000000
38.046135 154.171310 342.000000
38.046135 154.728592 342.000000
38.046135 155.285873 342.000000
38.046135 155.843170 342.000000
38.046135 156.400452 342.000000
37.934891 156.498795 341.000000
37.823647 156.593872 340.000000
37.823647 157.147903 340.000000
37.823647 157.701920 340.000000
37.823647 158.255951 340.000000
37.823647 158.809982 340.000000
37.712399 158.895279 339.000000
37.712399 159.447678 339.000000
37.712399 160.000076 339.000000
37.712399 160.552475 339.000000
37.489906 160.154388 337.000000
37.489906 160.703537 337.000000
37.489906 161.252670 337.000000
37.378658 161.321686 336.000000
37.378658 161.869186 336.000000
37.378658 162.416702 336.000000
37.378658 162.964203 336.000000
37.378658 163.511703 336.000000
37.267414 163.570953 335.000000
37.156166 163.626938 334.000000
37.156166 164.171188 334.000000
37.044922 164.222275 333.000000
37.044922 164.764893 333.000000
36.933674 164.811081 332.000000
36.933674 165.352081 332.000000
36.711182 164.893707 330.000000
36.711182 165.431442 330.000000
36.711182 165.969162 330.000000
36.711182 166.506897 330.000000
36.599937 166.538437 329.000000
36.599937 167.074539 329.000000
36.599937 167.610641 329.000000
36.488689 167.635666 328.000000
36.488689 168.170135 328.000000
36.488689 168.704605 328.000000
36.377445 168.723099 327.000000
36.377445 169.255951 327.000000
36.266197 169.269562 326.000000
36.266197 169.800766 326.000000
36.266197 170.331985 326.000000
36.266197 170.863190 326.000000
36.154953 170.868652 325.000000
36.154953 171.398239 325.000000
36.043709 171.398819 324.000000
35.932465 171.396118 323.000000
35.932465 171.922455 323.000000
35.932465 172.448776 323.000000
35.932465 172.975098 323.000000
35.932465 173.501419 323.000000
35.821217 173.488953 322.000000
35.821217 174.013657 322.000000
35.821217 174.538345 322.000000
35.709972 174.519379 321.000000
35.598724 174.497147 320.000000
35.598724 175.018585 320.000000
35.598724 175.540009 320.000000
35.598724 176.061447 320.000000
35.598724 176.582886 320.000000
35.598724 177.104324 320.000000
35.487476 177.070679 319.000000
35.487476 177.590485 319.000000
35.487476 178.110291 319.000000
35.376232 178.070129 318.000000
35.264984 178.026703 317.000000
35.264984 178.543243 317.000000
35.264984 179.059799 317.000000
35.264984 179.576340 317.000000
35.264984 180.092896 317.000000
35.264984 180.609436 317.000000
35.153740 180.554611 316.000000
35.153740 181.069519 316.000000
35.153740 181.584442 316.000000
35.042492 181.523102 315.000000
35.042492 182.036392 315.000000
35.042492 182.549667 315.000000
35.042492 183.062958 315.000000
35.042492 183.576248 315.000000
34.931248 183.505142 314.000000
34.931248 184.016800 314.000000
34.931248 184.528458 314.000000
34.820000 184.450821 313.000000
34.820000 184.960846 313.000000
34.820000 185.470871 313.000000
34.708755 185.386719 312.000000
34.597507 185.299286 311.000000
34.597507 185.806061 311.000000
34.597507 186.312836 311.000000
34.597507 186.819611 311.000000
34.597507 187.326370 311.000000
34.597507 187.833145 311.000000
34.597507 188.339920 311.000000
34.486263 188.239456 310.000000
34.486263 188.744598 310.000000
34.486263 189.249741 310.000000
34.375015 189.142776 309.000000
34.375015 189.646286 309.000000
34.263771 189.534424 308.000000
34.263771 190.036301 308.000000
34.263771 190.538177 308.000000
34.263771 191.040070 308.000000
34.263771 191.541946 308.000000
34.263771 192.043823 308.000000
34.263771 192.545715 308.000000
34.152527 192.420822 307.000000
34.152527 192.921082 307.000000
34.152527 193.421326 307.000000
34.152527 193.921585 307.000000
34.152527 194.421844 307.000000
34.041283 194.287170 306.000000
34.041283 194.785782 306.000000
34.041283 195.284409 306.000000
33.930035 195.143219 305.000000
33.930035 195.640213 305.000000
33.930035 196.137207 305.000000
33.930035 196.634201 305.000000
33.818790 196.484863 304.000000
33.818790 196.980225 304.000000
33.818790 197.475586 304.000000
33.818790 197.970947 304.000000
33.757847 198.108688 303.452209
33.757847 198.603165 303.452209
33.757847 199.097641 303.452209
33.707542 199.294662 303.000000
33.707542 199.788406 303.000000
33.707542 200.282135 303.000000
33.624748 200.282715 302.255768
33.624748 200.775253 302.255768
33.596294 201.097458 302.000000
33.485050 200.922043 301.000000
33.485050 201.412521 301.000000
33.485050 201.903000 301.000000
33.373802 201.721069 300.000000
33.373802 202.209915 300.000000
33.373802 202.698761 300.000000
33.373802 203.187622 300.000000
33.373802 203.676468 300.000000
33.373802 204.165314 300.000000
33.373802 204.654160 300.000000
33.373802 205.143005 300.000000
33.301437 205.185959 299.349487
33.301437 205.673737 299.349487
33.301437 206.161530 299.349487
33.263206 206.412079 299.005829
33.223694 206.653549 298.650665
33.223694 207.140198 298.650665
33.196243 207.455276 298.403900
33.156796 207.694427 298.049286
33.040066 207.447189 297.000000
33.040066 207.931137 297.000000
33.040066 208.415100 297.000000
45.110004 15.399577 399.646545
45.234074 16.094940 400.745697
45.234074 16.747952 400.745697
45.234074 17.400959 400.745697
44.292038 17.677982 392.399841
44.292038 18.317392 392.399841
44.292038 18.956802 392.399841
44.292038 19.596214 392.399841
44.292038 20.235622 392.399841
44.292038 20.875034 392.399841
44.292038 21.514444 392.399841
44.292038 22.153856 392.399841
44.811596 23.060637 397.002808
44.811596 23.707548 397.002808
44.811596 24.354460 397.002808
44.752960 24.968658 396.483368
44.747303 25.611486 396.433258
44.747303 26.257471 396.433258
44.672405 26.858419 395.769684
44.491810 27.392134 394.169708
44.511787 28.047016 394.346710
44.511787 28.689602 394.346710
44.533760 29.346663 394.541382
44.557934 30.005842 394.755554
44.557934 30.649092 394.755554
44.584526 31.311014 394.991119
44.613773 31.975613 395.250244
44.613773 32.619667 395.250244
45.296474 33.772739 401.298553
45.296474 34.426651 401.298553
45.296474 35.080563 401.298553
45.158779 35.625843 400.078644
