-20.797289 155.098206 368.000000
-20.797289 155.697861 368.000000
-20.797289 156.297516 368.000000
-20.797289 156.897156 368.000000
-20.853802 157.924789 369.000000
-20.853802 158.526077 369.000000
-20.853802 159.127365 369.000000
-20.853802 159.728638 369.000000
-20.853802 160.329926 369.000000
-20.853802 160.931198 369.000000
-20.853802 161.532486 369.000000
-20.797289 161.694366 368.000000
-20.797289 162.294022 368.000000
-20.797289 162.893677 368.000000
-20.740774 163.049057 367.000000
-20.740774 163.647079 367.000000
-20.740774 164.245102 367.000000
-20.684259 164.393951 366.000000
-20.636618 164.610321 365.156982
-20.636618 165.205338 365.156982
-20.627281 165.725342 364.991791
-20.624165 166.294968 364.936646
-20.624165 166.889618 364.936646
-20.613918 167.401077 364.755341
-20.552414 167.494217 363.667053
-20.552414 168.086807 363.667053
-24.551641 117.826065 447.323700
-24.551641 118.554970 447.323700
-24.551641 119.283882 447.323700
-24.535629 119.934509 447.031921
-24.535629 120.662941 447.031921
-24.698532 122.197357 450.000000
-24.698532 122.930626 450.000000
-24.698532 123.663895 450.000000
-24.698532 124.397163 450.000000
-24.588762 124.574295 448.000000
-24.588762 125.304306 448.000000
-24.588762 126.034317 448.000000
-24.478991 126.198425 446.000000
-24.478991 126.925179 446.000000
-24.369219 127.079491 444.000000
-24.369219 127.802986 444.000000
-24.314333 128.237000 443.000000
-24.314333 128.958862 443.000000
-24.259447 129.387985 442.000000
-24.259447 130.108231 442.000000
-24.259447 130.828461 442.000000
-24.204561 131.251068 441.000000
-24.094791 131.371185 439.000000
-24.094791 132.086533 439.000000
-24.039906 132.499359 438.000000
-23.985020 132.908936 437.000000
-23.985020 133.621017 437.000000
-23.930134 134.025711 436.000000
-23.875248 134.427124 435.000000
-23.875248 135.135956 435.000000
-23.765476 135.220215 433.000000
-23.655706 135.297958 431.000000
-23.655706 136.000259 431.000000
-23.600821 136.385391 430.000000
-23.545935 136.767273 429.000000
-23.545935 137.466309 429.000000
-23.381277 137.199173 426.000000
-23.727057 139.932602 432.299988
-23.727057 140.637024 432.299988
-23.727057 141.341446 432.299988
-23.695774 141.858597 431.730011
-23.695774 142.562088 431.730011
-23.666847 143.090714 431.203003
-22.984892 139.649963 418.777954
-22.984892 140.332367 418.777954
-22.906620 140.534546 417.351868
-22.633913 139.533447 412.383240
-22.496227 139.352524 409.874664
-22.454454 139.760406 409.113556
-22.254026 139.173615 405.461823
-21.679823 136.226257 395.000000
-21.679823 136.869904 395.000000
-21.829388 138.462234 397.725037
-21.829388 139.110321 397.725037
-21.829388 139.758423 397.725037
-21.460281 138.032394 391.000000
-21.350510 137.960236 389.000000
-21.350510 138.594101 389.000000
-21.295624 138.870056 388.000000
-21.240738 139.142746 387.000000
-21.240738 139.773361 387.000000
-21.185852 140.041168 386.000000
-21.130966 140.305725 385.000000
-21.130966 140.933075 385.000000
-21.021196 140.825058 383.000000
-20.966311 141.079834 382.000000
-20.966311 141.702301 382.000000
-20.966311 142.324753 382.000000
-20.917322 142.613220 381.107452
-20.917322 143.234238 381.107452
-20.917322 143.855240 381.107452
-20.858494 144.069931 380.035614
-20.858494 144.689178 380.035614
-20.746767 144.530121 378.000000
-20.691881 144.762085 377.000000
-20.691881 145.376404 377.000000
-20.691881 145.990723 377.000000
-20.636995 146.216171 376.000000
-20.636995 146.828857 376.000000
-20.582111 147.049408 375.000000
-20.527225 147.266708 374.000000
-20.527225 147.876129 374.000000
-20.472340 148.088531 373.000000
-20.417454 148.297684 372.000000
-20.307682 148.103302 370.000000
-20.307682 148.706207 370.000000
-20.307682 149.309128 370.000000
-20.307682 149.912033 370.000000
-20.307682 150.514938 370.000000
-20.252796 150.709427 369.000000
-20.252796 151.310715 369.000000
-20.252796 151.911987 369.000000
-20.252796 152.513275 369.000000
-20.252796 153.114548 369.000000
-20.252796 153.715836 369.000000
-20.252796 154.317108 369.000000
-20.088140 153.658890 366.000000
-20.088140 154.255280 366.000000
-20.088140 154.851669 366.000000
-20.088140 155.448059 366.000000
-20.088140 156.044464 366.000000
-20.252796 157.924789 369.000000
-20.252796 158.526077 369.000000
-20.252796 159.127365 369.000000
-20.252796 159.728638 369.000000
-20.252796 160.329926 369.000000
-20.252796 160.931198 369.000000
-20.252796 161.532486 369.000000
-20.143026 161.254990 367.000000
-20.143026 161.853012 367.000000
-20.143026 162.451035 367.000000
-20.088140 162.604767 366.000000
-20.088140 163.201172 366.000000
-20.088140 163.797562 366.000000
-20.033255 163.944778 365.000000
-20.033255 164.539551 365.000000
-20.033255 165.134308 365.000000
-20.033255 165.729080 365.000000
-19.977358 165.859772 363.981598
-19.977358 166.452866 363.981598
-19.962273 166.919846 363.706757
-19.960094 167.494217 363.667053
-19.960094 168.086807 363.667053
-19.926643 168.396713 363.057587
-23.814190 117.782158 447.157013
-23.814190 118.510796 447.157013
-23.814190 119.239433 447.157013
-23.800316 119.898178 446.896484
-23.800316 120.626389 446.896484
-23.965599 122.197357 450.000000
-23.965599 122.930626 450.000000
-23.965599 123.663895 450.000000
-23.912342 124.120728 449.000000
-23.859085 124.574295 448.000000
-23.859085 125.304306 448.000000
-23.805828 125.752991 447.000000
-23.752571 126.198425 446.000000
-23.752571 126.925179 446.000000
-23.646057 127.079491 444.000000
-23.646057 127.802986 444.000000
-23.592800 128.237000 443.000000
-23.592800 128.958862 443.000000
-23.539543 129.387985 442.000000
-23.539543 130.108231 442.000000
-23.539543 130.828461 442.000000
-23.486286 131.251068 441.000000
-23.379774 131.371185 439.000000
-23.379774 132.086533 439.000000
-23.326517 132.499359 438.000000
-23.273260 132.908936 437.000000
-23.273260 133.621017 437.000000
-23.220003 134.025711 436.000000
-23.113489 134.118103 434.000000
-23.113489 134.825302 434.000000
-23.006975 134.907928 432.000000
-22.953718 135.297958 431.000000
-22.953718 136.000259 431.000000
-22.900461 136.385391 430.000000
-22.793947 136.448456 428.000000
-22.793947 137.145874 428.000000
-22.687433 137.199173 426.000000
-22.700235 137.971146 426.240387
-22.700235 138.665695 426.240387
-22.700235 139.360245 426.240387
-22.619753 139.558243 424.729156
-22.619753 140.250336 424.729156
-22.431305 139.768219 421.190704
-22.302811 139.649963 418.777954
-22.302811 140.332367 418.777954
-22.057575 139.464203 414.173218
-21.828650 138.684631 409.874664
-21.828650 139.352524 409.874664
-21.674032 139.028625 406.971436
-21.089727 135.925858 396.000000
-21.036470 136.226257 395.000000
-21.036470 136.869904 395.000000
-20.983213 137.165421 394.000000
-20.876699 137.107910 392.000000
-20.876699 137.746658 392.000000
-20.823442 138.032394 391.000000
-20.716928 137.960236 389.000000
-20.716928 138.594101 389.000000
-20.663671 138.870056 388.000000
-20.610415 139.142746 387.000000
-20.610415 139.773361 387.000000
-20.557158 140.041168 386.000000
-20.532536 140.501663 385.537659
-20.532536 141.129898 385.537659
-20.382406 140.721619 382.718689
-20.382406 141.345261 382.718689
-20.382406 141.968887 382.718689
-20.322086 142.170547 381.586090
-20.302135 142.652145 381.211456
-20.302135 143.273331 381.211456
-20.296597 143.855240 381.107452
-20.239513 144.069931 380.035614
-20.239513 144.689178 380.035614
-20.145113 144.630707 378.263062
-20.089046 144.842834 377.210297
-20.089046 145.457504 377.210297
-20.024590 145.603485 376.000000
-19.971333 145.827286 375.000000
-19.971333 146.438354 375.000000
-19.918076 146.657272 374.000000
-19.864819 146.872940 373.000000
-19.864819 147.480743 373.000000
-19.811562 147.691513 372.000000
-19.705048 147.500397 370.000000
-19.705048 148.103302 370.000000
-19.705048 148.706207 370.000000
-19.651791 148.905579 369.000000
-19.651791 149.506866 369.000000
-19.651791 150.108139 369.000000
-19.651791 150.709427 369.000000
-19.598534 150.900650 368.000000
-19.598534 151.500305 368.000000
-19.545277 151.686630 367.000000
-19.545277 152.284653 367.000000
-19.545277 152.882675 367.000000
-19.545277 153.480698 367.000000
-19.492020 153.658890 366.000000
-19.492020 154.255280 366.000000
-19.492020 154.851669 366.000000
-19.492020 155.448059 366.000000
-19.492020 156.044464 366.000000
-19.545277 157.068832 367.000000
-19.545277 157.666855 367.000000
-19.545277 158.264877 367.000000
-19.545277 158.862900 367.000000
-19.545277 159.460922 367.000000
-19.545277 160.058945 367.000000
-19.545277 160.656967 367.000000
-19.545277 161.254990 367.000000
-19.545277 161.853012 367.000000
-19.545277 162.451035 367.000000
-19.492020 162.604767 366.000000
-19.492020 163.201172 366.000000
-19.492020 163.797562 366.000000
-19.438763 163.944778 365.000000
-19.438763 164.539551 365.000000
-19.438763 165.134308 365.000000
-19.438763 165.729080 365.000000
-19.384527 165.859772 363.981598
-19.384527 166.452866 363.981598
-19.369890 166.919846 363.706757
-19.367775 167.494217 363.667053
-19.367775 168.086807 363.667053
-19.335316 168.396713 363.057587
-23.085888 117.782158 447.157013
-23.085888 118.510796 447.157013
-23.085888 119.239433 447.157013
-23.072437 119.898178 446.896484
-23.072437 120.626389 446.896484
-23.232666 122.197357 450.000000
-23.232666 122.930626 450.000000
-23.232666 123.663895 450.000000
-23.181038 124.120728 449.000000
-23.129410 124.574295 448.000000
-23.129410 125.304306 448.000000
-23.077782 125.752991 447.000000
-23.026152 126.198425 446.000000
-23.026152 126.925179 446.000000
-22.922895 127.079491 444.000000
-22.922895 127.802986 444.000000
-22.871267 128.237000 443.000000
-22.871267 128.958862 443.000000
-22.819639 129.387985 442.000000
-22.819639 130.108231 442.000000
-22.819639 130.828461 442.000000
-22.768011 131.251068 441.000000
-22.613129 131.071930 438.000000
-22.613129 131.785645 438.000000
-22.561501 132.196854 437.000000
-22.561501 132.908936 437.000000
-22.561501 133.621017 437.000000
-22.458244 133.718307 435.000000
-22.354986 133.809067 433.000000
-22.354986 134.514633 433.000000
-22.303358 134.907928 432.000000
-22.251730 135.297958 431.000000
-22.251730 136.000259 431.000000
-22.096846 135.751038 428.000000
-22.045218 136.129654 427.000000
-22.045218 136.825439 427.000000
-21.993589 137.199173 426.000000
-22.006001 137.971146 426.240387
-22.006001 138.665695 426.240387
-22.006001 139.360245 426.240387
-21.794056 138.705917 422.135162
-21.794056 139.393768 422.135162
-21.695301 139.446884 420.222351
-21.620728 139.649963 418.777954
-21.620728 140.332367 418.777954
-21.382996 139.464203 414.173218
-21.161068 138.684631 409.874664
-21.161068 139.352524 409.874664
-20.974970 138.789032 406.270081
-20.393116 135.582611 395.000000
-20.393116 136.226257 395.000000
-20.393116 136.869904 395.000000
-20.289860 136.817276 393.000000
-20.186605 136.758133 391.000000
-20.186605 137.395264 391.000000
-20.134977 137.679382 390.000000
-20.031721 137.605576 388.000000
-20.031721 138.237808 388.000000
-19.980093 138.512146 387.000000
-19.980093 139.142746 387.000000
-19.980093 139.773361 387.000000
-19.928465 140.041168 386.000000
-19.904594 140.501663 385.537659
-19.904594 141.129898 385.537659
-19.759056 140.721619 382.718689
-19.759056 141.345261 382.718689
-19.759056 141.968887 382.718689
-19.700583 142.170547 381.586090
-19.681240 142.652145 381.211456
-19.681240 143.273331 381.211456
-19.675871 143.855240 381.107452
-19.620533 144.069931 380.035614
-19.620533 144.689178 380.035614
-19.529020 144.630707 378.263062
-19.474667 144.842834 377.210297
-19.474667 145.457504 377.210297
-19.308928 144.828995 374.000000
-19.257299 145.049545 373.000000
-19.257299 145.657349 373.000000
-19.205671 145.873001 372.000000
-19.205671 146.479172 372.000000
-19.205671 147.085342 372.000000
-19.154041 147.294495 371.000000
-19.102413 147.500397 370.000000
-19.050785 147.703018 369.000000
-19.050785 148.304306 369.000000
-19.050785 148.905579 369.000000
-18.999157 149.101700 368.000000
-18.999157 149.701340 368.000000
-18.947529 149.892563 367.000000
-18.947529 150.490585 367.000000
-18.947529 151.088608 367.000000
-18.895901 151.273315 366.000000
-18.895901 151.869705 366.000000
-18.895901 152.466110 366.000000
-18.895901 153.062500 366.000000
-18.895901 153.658890 366.000000
-18.895901 154.255280 366.000000
-18.844273 154.428574 365.000000
-18.844273 155.023346 365.000000
-18.844273 155.618103 365.000000
-18.844273 156.212860 365.000000
-18.844273 156.807632 365.000000
-18.844273 157.402390 365.000000
-18.844273 157.997162 365.000000
-18.844273 158.591919 365.000000
-18.844273 159.186676 365.000000
-18.844273 159.781448 365.000000
-18.844273 160.376205 365.000000
-18.844273 160.970978 365.000000
-18.844273 161.565735 365.000000
-18.844273 162.160492 365.000000
-18.844273 162.755264 365.000000
-18.844273 163.350021 365.000000
-18.844273 163.944778 365.000000
-18.844273 164.539551 365.000000
-18.844273 165.134308 365.000000
-18.844273 165.729080 365.000000
-18.792645 165.868149 364.000000
-18.792645 166.461288 364.000000
-18.734890 166.541031 362.881348
-18.743990 167.213516 363.057587
-18.743990 167.805099 363.057587
-18.743990 168.396713 363.057587
-18.680815 168.418732 361.833923
-18.680815 169.008347 361.833923
-22.341574 117.697807 446.836792
-22.341574 118.425934 446.836792
-22.341574 119.154045 446.836792
-22.331200 119.826508 446.629333
-22.331200 120.554276 446.629333
-22.373959 121.514282 447.484528
-22.449732 122.657448 449.000000
-22.449732 123.389084 449.000000
-22.449732 124.120728 449.000000
-22.399733 124.574295 448.000000
-22.399733 125.304306 448.000000
-22.349733 125.752991 447.000000
-22.249735 125.915466 445.000000
-22.249735 126.640587 445.000000
-22.199736 127.079491 444.000000
-22.199736 127.802986 444.000000
-22.149734 128.237000 443.000000
-22.149734 128.958862 443.000000
-22.099735 129.387985 442.000000
-22.099735 130.108231 442.000000
-22.099735 130.828461 442.000000
-22.049736 131.251068 441.000000
-21.899740 131.071930 438.000000
-21.899740 131.785645 438.000000
-21.849739 132.196854 437.000000
-21.849739 132.908936 437.000000
-21.849739 133.621017 437.000000
-21.749741 133.718307 435.000000
-21.649742 133.809067 433.000000
-21.649742 134.514633 433.000000
-21.599743 134.907928 432.000000
-21.549744 135.297958 431.000000
-21.549744 136.000259 431.000000
-21.399744 135.751038 428.000000
-21.349745 136.129654 427.000000
-21.349745 136.825439 427.000000
-21.299746 137.199173 426.000000
-21.249746 137.569641 425.000000
-21.249746 138.262177 425.000000
-21.217018 138.740692 424.345428
-21.106506 138.705917 422.135162
-21.106506 139.393768 422.135162
-21.010866 139.446884 420.222351
-20.885080 139.292709 417.706604
-20.885080 139.973358 417.706604
-20.660975 139.144730 413.224426
-20.456556 138.434708 409.136017
-20.456556 139.101395 409.136017
-20.313263 138.789032 406.270081
-19.699764 135.239365 394.000000
-19.699764 135.881378 394.000000
-19.649765 136.176895 393.000000
-19.549767 136.121002 391.000000
-19.499767 136.408386 390.000000
-19.499767 137.043884 390.000000
-19.399769 136.973328 388.000000
-19.349770 137.250916 387.000000
-19.349770 137.881531 387.000000
-19.299770 138.154221 386.000000
-19.367949 139.273483 387.363586
-19.367949 139.904678 387.363586
-19.367949 140.535889 387.363586
-19.276653 140.501663 385.537659
-19.276653 141.129898 385.537659
-19.144625 140.787216 382.897064
-19.135706 141.345261 382.718689
-19.135706 141.968887 382.718689
-19.079077 142.170547 381.586090
-19.060345 142.652145 381.211456
-19.060345 143.273331 381.211456
-19.029217 143.659500 380.588898
-18.972565 143.850128 379.455811
-18.972565 144.468445 379.455811
-18.912928 144.630707 378.263062
-18.860291 144.842834 377.210297
-18.860291 145.457504 377.210297
-18.699778 144.828995 374.000000
-18.649778 145.049545 373.000000
-18.649778 145.657349 373.000000
-18.599779 145.873001 372.000000
-18.599779 146.479172 372.000000
-18.599779 147.085342 372.000000
-18.549780 147.294495 371.000000
-18.499779 147.500397 370.000000
-18.399780 147.302734 368.000000
-18.399780 147.902390 368.000000
-18.399780 148.502045 368.000000
-18.349781 148.696533 367.000000
-18.349781 149.294556 367.000000
-18.349781 149.892563 367.000000
-18.299782 150.080536 366.000000
-18.299782 150.676926 366.000000
-18.299782 151.273315 366.000000
-18.249783 151.454758 365.000000
-18.249783 152.049530 365.000000
-18.249783 152.644287 365.000000
-18.249783 153.239059 365.000000
-18.249783 153.833817 365.000000
-18.249783 154.428574 365.000000
-18.249783 155.023346 365.000000
-18.249783 155.618103 365.000000
-18.249783 156.212860 365.000000
-18.199783 156.378021 364.000000
-18.199783 156.971146 364.000000
-18.199783 157.564285 364.000000
-18.199783 158.157425 364.000000
-18.199783 158.750549 364.000000
-18.149782 158.905945 363.000000
-18.149782 159.497437 363.000000
-18.149782 160.088943 363.000000
-18.149782 160.680450 363.000000
-18.149782 161.271957 363.000000
-18.149782 161.863464 363.000000
-18.149782 162.454956 363.000000
-18.199783 163.495621 364.000000
-18.199783 164.088760 364.000000
-18.199783 164.681885 364.000000
-18.199783 165.275024 364.000000
-18.199783 165.868149 364.000000
-18.199783 166.461288 364.000000
-18.149782 166.595490 363.000000
-18.096262 166.693970 361.929565
-18.096262 167.283737 361.929565
-18.096262 167.873489 361.929565
-18.091480 168.418732 361.833923
-18.091480 169.008347 361.833923
-18.043102 169.144409 360.866333
-21.589565 119.020493 446.335968
-21.591713 119.759697 446.380341
-21.591713 120.487068 446.380341
-21.632748 121.444817 447.228699
-21.632748 122.173561 447.228699
-21.632748 122.902313 447.228699
-21.485126 122.787407 444.176819
-21.621685 124.296227 447.000000
-21.621685 125.024605 447.000000
-21.621685 125.752991 447.000000
-21.524944 125.915466 445.000000
-21.524944 126.640587 445.000000
-21.476574 127.079491 444.000000
-21.476574 127.802986 444.000000
-21.428204 128.237000 443.000000
-21.428204 128.958862 443.000000
-21.379831 129.387985 442.000000
-21.331461 129.813858 441.000000
-21.331461 130.532471 441.000000
-21.283091 130.953445 440.000000
-21.186350 131.071930 438.000000
-21.186350 131.785645 438.000000
-21.137980 132.196854 437.000000
-21.089609 132.604797 436.000000
-21.089609 133.315247 436.000000
-20.992868 133.410904 434.000000
-20.944496 133.809067 433.000000
-20.944496 134.514633 433.000000
-20.896126 134.907928 432.000000
-20.847755 135.297958 431.000000
-20.847755 136.000259 431.000000
-20.702642 135.751038 428.000000
-20.654272 136.129654 427.000000
-20.654272 136.825439 427.000000
-20.605902 137.199173 426.000000
-20.557531 137.569641 425.000000
-20.557531 138.262177 425.000000
-20.525869 138.740692 424.345428
-20.418957 138.705917 422.135162
-20.418957 139.393768 422.135162
-20.326433 139.446884 420.222351
-20.067150 138.344131 414.862030
-20.067150 139.020126 414.862030
-19.896420 138.507614 411.332367
-19.712849 137.893784 407.537292
-19.712849 138.557861 407.537292
-19.106411 134.938965 395.000000
-19.058041 135.239365 394.000000
-19.058041 135.881378 394.000000
-19.009670 136.176895 393.000000
-18.912930 136.121002 391.000000
-18.864559 136.408386 390.000000
-18.864559 137.043884 390.000000
-18.767817 136.973328 388.000000
-18.671076 136.896255 386.000000
-18.671076 137.525238 386.000000
-18.622705 137.796310 385.000000
-18.737034 139.273483 387.363586
-18.737034 139.904678 387.363586
-18.737034 140.535889 387.363586
-18.600857 140.141113 384.548309
-18.600857 140.767731 384.548309
-18.520985 140.787216 382.897064
-18.467495 141.002716 381.791229
-18.467495 141.624847 381.791229
-18.411366 141.814621 380.630829
-18.390139 142.270645 380.191986
-18.390139 142.890167 380.191986
-18.351864 143.210999 379.400696
-18.295712 143.389145 378.239838
-18.295712 144.005493 378.239838
-18.237656 144.162918 377.039612
-18.188313 144.385590 376.019501
-18.188313 144.998306 376.019501
-17.993887 144.054504 372.000000
-17.993887 144.660675 372.000000
-17.993887 145.266830 372.000000
-17.945517 145.480865 371.000000
-17.945517 146.085419 371.000000
-17.945517 146.689957 371.000000
-17.897144 146.897476 370.000000
-17.848774 147.101746 369.000000
-17.800404 147.302734 368.000000
-17.800404 147.902390 368.000000
-17.800404 148.502045 368.000000
-17.752033 148.696533 367.000000
-17.752033 149.294556 367.000000
-17.752033 149.892563 367.000000
-17.703663 150.080536 366.000000
-17.703663 150.676926 366.000000
-17.703663 151.273315 366.000000
-17.655291 151.454758 365.000000
-17.655291 152.049530 365.000000
-17.655291 152.644287 365.000000
-17.655291 153.239059 365.000000
-17.655291 153.833817 365.000000
-17.655291 154.428574 365.000000
-17.655291 155.023346 365.000000
-17.655291 155.618103 365.000000
-17.655291 156.212860 365.000000
-17.606920 156.378021 364.000000
-17.606920 156.971146 364.000000
-17.606920 157.564285 364.000000
-17.606920 158.157425 364.000000
-17.606920 158.750549 364.000000
-17.558550 158.905945 363.000000
-17.558550 159.497437 363.000000
-17.558550 160.088943 363.000000
-17.558550 160.680450 363.000000
-17.558550 161.271957 363.000000
-17.558550 161.863464 363.000000
-17.558550 162.454956 363.000000
-17.606920 163.495621 364.000000
-17.606920 164.088760 364.000000
-17.606920 164.681885 364.000000
-17.606920 165.275024 364.000000
-17.606920 165.868149 364.000000
-17.606920 166.461288 364.000000
-17.558550 166.595490 363.000000
-17.510180 166.726425 362.000000
-17.510180 167.316299 362.000000
-17.506773 167.873489 361.929565
-17.502146 168.418732 361.833923
-17.502146 169.008347 361.833923
-17.455343 169.144409 360.866333
-20.862600 119.020493 446.335968
-20.864674 119.759697 446.380341
-20.864674 120.487068 446.380341
-20.904329 121.444817 447.228699
-20.904329 122.173561 447.228699
-20.904329 122.902313 447.228699
-20.761677 122.787407 444.176819
-20.893639 124.296227 447.000000
-20.893639 125.024605 447.000000
-20.893639 125.752991 447.000000
-20.800154 125.915466 445.000000
-20.800154 126.640587 445.000000
-20.753412 127.079491 444.000000
-20.753412 127.802986 444.000000
-20.706671 128.237000 443.000000
-20.706671 128.958862 443.000000
-20.659927 129.387985 442.000000
-20.613186 129.813858 441.000000
-20.613186 130.532471 441.000000
-20.566444 130.953445 440.000000
-20.472961 131.071930 438.000000
-20.472961 131.785645 438.000000
-20.426220 132.196854 437.000000
-20.379478 132.604797 436.000000
-20.379478 133.315247 436.000000
-20.285994 133.410904 434.000000
-20.239252 133.809067 433.000000
-20.239252 134.514633 433.000000
-20.192509 134.907928 432.000000
-20.145767 135.297958 431.000000
-20.145767 136.000259 431.000000
-20.052284 136.068222 429.000000
-19.958799 136.129654 427.000000
-19.958799 136.825439 427.000000
-19.912058 137.199173 426.000000
-19.790529 137.051727 423.399994
-19.790529 137.741653 423.399994
-19.703581 137.823395 421.539825
-19.599247 137.776855 419.307709
-19.599247 138.460114 419.307709
-19.505917 138.480789 417.311005
-19.391449 138.344131 414.862030
-19.391449 139.020126 414.862030
-19.226465 138.507614 411.332367
-18.956209 137.221527 405.550507
-18.956209 137.882370 405.550507
-18.416317 134.597351 394.000000
-18.369574 134.896118 393.000000
-18.369574 135.536499 393.000000
-18.322834 135.830383 392.000000
-18.229349 135.772888 390.000000
-18.135866 135.708847 388.000000
-18.135866 136.341095 388.000000
-18.089123 136.620300 387.000000
-18.042381 136.896255 386.000000
-18.042381 137.525238 386.000000
-17.995640 137.796310 385.000000
-18.106119 139.273483 387.363586
-18.106119 139.904678 387.363586
-18.106119 140.535889 387.363586
-17.974525 140.141113 384.548309
-17.974525 140.767731 384.548309
-17.897345 140.787216 382.897064
-17.845655 141.002716 381.791229
-17.845655 141.624847 381.791229
-17.791416 141.814621 380.630829
-17.770903 142.270645 380.191986
-17.770903 142.890167 380.191986
-17.733917 143.210999 379.400696
-17.434736 141.402756 373.000000
-17.434736 142.010544 373.000000
-17.434736 142.618347 373.000000
-17.434736 143.226151 373.000000
-17.434736 143.833939 373.000000
-17.387995 144.054504 372.000000
-17.341253 144.271790 371.000000
-17.341253 144.876328 371.000000
-17.294510 145.088745 370.000000
-17.247768 145.297897 369.000000
-17.247768 145.899185 369.000000
-17.247768 146.500458 369.000000
-17.201027 146.703094 368.000000
-17.201027 147.302734 368.000000
-17.154285 147.500488 367.000000
-17.154285 148.098511 367.000000
-17.154285 148.696533 367.000000
-17.154285 149.294556 367.000000
-17.107542 149.484146 366.000000
-17.060801 149.670471 365.000000
-17.060801 150.265244 365.000000
-17.060801 150.860001 365.000000
-17.060801 151.454758 365.000000
-17.060801 152.049530 365.000000
-17.014059 152.226089 364.000000
-17.014059 152.819214 364.000000
-17.014059 153.412354 364.000000
-16.967316 153.582397 363.000000
-16.967316 154.173904 363.000000
-16.967316 154.765411 363.000000
-16.967316 155.356918 363.000000
-16.920574 155.518814 362.000000
-16.920574 156.108688 362.000000
-16.920574 156.698563 362.000000
-16.920574 157.288437 362.000000
-16.920574 157.878311 362.000000
-16.920574 158.468185 362.000000
-16.920574 159.058060 362.000000
-16.920574 159.647934 362.000000
-16.920574 160.237808 362.000000
-16.920574 160.827682 362.000000
-16.920574 161.417557 362.000000
-16.920574 162.007431 362.000000
-16.920574 162.597305 362.000000
-16.967316 163.637970 363.000000
-16.967316 164.229477 363.000000
-16.967316 164.820984 363.000000
-16.967316 165.412476 363.000000
-16.967316 166.003983 363.000000
-16.967316 166.595490 363.000000
-16.920574 166.726425 362.000000
-16.920574 167.316299 362.000000
-16.881552 167.518921 361.165131
-16.871347 168.005844 360.946838
-16.871347 168.593994 360.946838
-16.867584 169.144409 360.866333
-20.130701 119.718452 446.226593
-20.130701 120.445572 446.226593
-20.174316 121.435226 447.193420
-20.174316 122.163925 447.193420
-20.174316 122.892624 447.193420
-20.124714 123.317360 446.093872
-20.079414 123.765053 445.089752
-20.079414 124.490326 445.089752
-20.075365 125.190346 445.000000
-20.075365 125.915466 445.000000
-20.075365 126.640587 445.000000
-20.030251 127.079491 444.000000
-20.030251 127.802986 444.000000
-19.985138 128.237000 443.000000
-19.985138 128.958862 443.000000
-19.940025 129.387985 442.000000
-19.894911 129.813858 441.000000
-19.894911 130.532471 441.000000
-19.849798 130.953445 440.000000
-19.759573 131.071930 438.000000
-19.759573 131.785645 438.000000
-19.714460 132.196854 437.000000
-19.669346 132.604797 436.000000
-19.669346 133.315247 436.000000
-19.579121 133.410904 434.000000
-19.534006 133.809067 433.000000
-19.534006 134.514633 433.000000
-19.488894 134.907928 432.000000
-19.443781 135.297958 431.000000
-19.443781 136.000259 431.000000
-19.353554 136.068222 429.000000
-19.146784 135.306076 424.416656
-19.146784 135.997650 424.416656
-19.019024 135.777145 421.584656
-19.019024 136.464111 421.584656
-19.019024 137.151093 421.584656
-18.935104 137.229858 419.724487
-18.831186 137.156906 417.420959
-18.831186 137.837082 417.420959
-18.733101 137.795776 415.246765
-18.619537 137.632965 412.729431
-18.619537 138.305496 412.729431
-18.463947 137.816711 409.280579
-18.295673 137.221527 405.550507
-18.295673 137.882370 405.550507
-17.729479 134.255722 393.000000
-17.684366 134.552872 392.000000
-17.684366 135.191635 392.000000
-17.639254 135.483871 391.000000
-17.549026 135.424744 389.000000
-17.503914 135.708847 388.000000
-17.503914 136.341095 388.000000
-17.413687 136.267273 386.000000
-17.368574 136.541611 385.000000
-17.368574 137.168961 385.000000
-17.323462 137.438400 384.000000
-17.278347 137.704590 383.000000
-17.278347 138.328690 383.000000
-17.234634 138.601227 382.031036
-17.234634 139.223740 382.031036
-17.234634 139.846252 382.031036
-17.171741 139.956177 380.636902
-17.128593 140.223190 379.680481
-17.128593 140.841873 379.680481
-17.081945 141.075302 378.646454
-16.917442 140.327774 375.000000
-16.917442 140.938828 375.000000
-16.872330 141.172424 374.000000
-16.827217 141.402756 373.000000
-16.827217 142.010544 373.000000
-16.827217 142.618347 373.000000
-16.827217 143.226151 373.000000
-16.827217 143.833939 373.000000
-16.782103 144.054504 372.000000
-16.736990 144.271790 371.000000
-16.736990 144.876328 371.000000
-16.646763 144.696625 369.000000
-16.646763 145.297897 369.000000
-16.646763 145.899185 369.000000
-16.601650 146.103439 368.000000
-16.556536 146.304443 367.000000
-16.556536 146.902466 367.000000
-16.511423 147.098572 366.000000
-16.511423 147.694962 366.000000
-16.511423 148.291351 366.000000
-16.511423 148.887756 366.000000
-16.466311 149.075714 365.000000
-16.466311 149.670471 365.000000
-16.466311 150.265244 365.000000
-16.421196 150.446686 364.000000
-16.421196 151.039825 364.000000
-16.421196 151.632950 364.000000
-16.376083 151.807892 363.000000
-16.330971 151.979568 362.000000
-16.330971 152.569443 362.000000
-16.330971 153.159317 362.000000
-16.330971 153.749191 362.000000
-16.330971 154.339066 362.000000
-16.330971 154.928940 362.000000
-16.330971 155.518814 362.000000
-16.330971 156.108688 362.000000
-16.330971 156.698563 362.000000
-16.285856 156.853928 361.000000
-16.285856 157.442169 361.000000
-16.285856 158.030426 361.000000
-16.285856 158.618668 361.000000
-16.285856 159.206909 361.000000
-16.285856 159.795151 361.000000
-16.285856 160.383408 361.000000
-16.285856 160.971649 361.000000
-16.285856 161.559891 361.000000
-16.330971 162.597305 362.000000
-16.330971 163.187180 362.000000
-16.330971 163.777054 362.000000
-16.330971 164.366928 362.000000
-16.330971 164.956802 362.000000
-16.330971 165.546677 362.000000
-16.330971 166.136551 362.000000
-16.330971 166.726425 362.000000
-16.330971 167.316299 362.000000
-16.330971 167.906174 362.000000
-16.254177 167.703720 360.297760
-16.254177 168.290817 360.297760
-16.245987 168.792816 360.116180
-16.221010 169.119217 359.562561
-16.221010 169.705124 359.562561
-19.429586 121.333015 446.816986
-19.429586 122.061089 446.816986
-19.429586 122.789177 446.816986
-19.398140 123.317360 446.093872
-19.354477 123.765053 445.089752
-19.354477 124.490326 445.089752
-19.338072 125.109451 444.712494
-19.307089 125.632507 444.000000
-19.307089 126.356003 444.000000
-19.307089 127.079491 444.000000
-19.307089 127.802986 444.000000
-19.220121 127.947525 442.000000
-19.220121 128.667755 442.000000
-19.176636 129.095261 441.000000
-19.133152 129.519501 440.000000
-19.133152 130.236465 440.000000
-19.089668 130.655838 439.000000
-19.046185 131.071930 438.000000
-19.046185 131.785645 438.000000
-19.002699 132.196854 437.000000
-18.959215 132.604797 436.000000
-18.959215 133.315247 436.000000
-18.872246 133.410904 434.000000
-18.828762 133.809067 433.000000
-18.828762 134.514633 433.000000
-18.785276 134.907928 432.000000
-18.741793 135.297958 431.000000
-18.741793 136.000259 431.000000
-18.654823 136.068222 429.000000
-18.455519 135.306076 424.416656
-18.455519 135.997650 424.416656
-18.332373 135.777145 421.584656
-18.332373 136.464111 421.584656
-18.332373 137.151093 421.584656
-18.132818 136.337646 416.995575
-18.034538 136.274506 414.735474
-18.034538 136.950317 414.735474
-17.941643 136.917206 412.599182
-17.829231 136.727478 410.014069
-17.829231 137.395584 410.014069
-17.688246 136.971954 406.771881
-17.132868 133.313309 394.000000
-17.132868 133.955338 394.000000
-17.089384 134.255722 393.000000
-17.045900 134.552872 392.000000
-17.045900 135.191635 392.000000
-17.002417 135.483871 391.000000
-16.915447 135.424744 389.000000
-16.828478 135.359085 387.000000
-16.828478 135.989700 387.000000
-16.784992 136.267273 386.000000
-16.698025 136.186951 384.000000
-16.698025 136.812668 384.000000
-16.654539 137.080490 383.000000
-16.611055 137.345047 382.000000
-16.611055 137.967514 382.000000
-16.567570 138.227173 381.000000
-16.480600 138.119141 379.000000
-16.480600 138.736725 379.000000
-16.437117 138.986603 378.000000
-16.393633 139.233246 377.000000
-16.393633 139.847549 377.000000
-16.350147 140.089294 376.000000
-16.306665 140.327774 375.000000
-16.306665 140.938828 375.000000
-16.263180 141.172424 374.000000
-16.219696 141.402756 373.000000
-16.219696 142.010544 373.000000
-16.219696 142.618347 373.000000
-16.176210 142.842163 372.000000
-16.176210 143.448334 372.000000
-16.176210 144.054504 372.000000
-16.089243 143.882935 370.000000
-16.089243 144.485840 370.000000
-16.045757 144.696625 369.000000
-16.045757 145.297897 369.000000
-16.045757 145.899185 369.000000
-16.002274 146.103439 368.000000
-15.958788 146.304443 367.000000
-15.958788 146.902466 367.000000
-15.915304 147.098572 366.000000
-15.915304 147.694962 366.000000
-15.915304 148.291351 366.000000
-15.915304 148.887756 366.000000
-15.871819 149.075714 365.000000
-15.871819 149.670471 365.000000
-15.871819 150.265244 365.000000
-15.828335 150.446686 364.000000
-15.828335 151.039825 364.000000
-15.828335 151.632950 364.000000
-15.784850 151.807892 363.000000
-15.741365 151.979568 362.000000
-15.741365 152.569443 362.000000
-15.741365 153.159317 362.000000
-15.697881 153.324463 361.000000
-15.697881 153.912704 361.000000
-15.697881 154.500946 361.000000
-15.697881 155.089203 361.000000
-15.697881 155.677444 361.000000
-15.697881 156.265686 361.000000
-15.654398 156.419434 360.000000
-15.654398 157.006042 360.000000
-15.654398 157.592667 360.000000
-15.654398 158.179276 360.000000
-15.654398 158.765900 360.000000
-15.654398 159.352509 360.000000
-15.654398 159.939117 360.000000
-15.697881 160.971649 361.000000
-15.697881 161.559891 361.000000
-15.697881 162.148132 361.000000
-15.697881 162.736374 361.000000
-15.697881 163.324631 361.000000
-15.741365 164.366928 362.000000
-15.741365 164.956802 362.000000
-15.741365 165.546677 362.000000
-15.741365 166.136551 362.000000
-15.741365 166.726425 362.000000
-15.741365 167.316299 362.000000
-15.741365 167.906174 362.000000
-15.697881 168.030579 361.000000
-15.697881 168.618835 361.000000
-15.638504 168.567032 359.634491
-15.635375 169.119217 359.562561
-15.635375 169.705124 359.562561
-18.701836 121.333015 446.816986
-18.701836 122.061089 446.816986
-18.701836 122.789177 446.816986
-18.671568 123.317360 446.093872
-18.629541 123.765053 445.089752
-18.629541 124.490326 445.089752
-18.613750 125.109451 444.712494
-18.583929 125.632507 444.000000
-18.583929 126.356003 444.000000
-18.583929 127.079491 444.000000
-18.583929 127.802986 444.000000
-18.500217 127.947525 442.000000
-18.500217 128.667755 442.000000
-18.458361 129.095261 441.000000
-18.416506 129.519501 440.000000
-18.416506 130.236465 440.000000
-18.374651 130.655838 439.000000
-18.332796 131.071930 438.000000
-18.332796 131.785645 438.000000
-18.290939 132.196854 437.000000
-18.249084 132.604797 436.000000
-18.249084 133.315247 436.000000
-18.165373 133.410904 434.000000
-18.123516 133.809067 433.000000
-18.123516 134.514633 433.000000
-18.081661 134.907928 432.000000
-18.039804 135.297958 431.000000
-18.039804 136.000259 431.000000
-17.781694 134.746643 424.833344
-17.645128 134.398712 421.570526
-17.645128 135.085663 421.570526
-17.538033 134.948547 419.011871
-17.530256 135.571182 418.826080
-17.530256 136.253662 418.826080
-17.453640 136.337646 416.995575
-17.359041 136.274506 414.735474
-17.359041 136.950317 414.735474
-17.269627 136.917206 412.599182
-17.161425 136.727478 410.014069
-17.161425 137.395584 410.014069
-16.940540 136.286682 404.736786
-16.407434 132.636597 392.000000
-16.407434 133.275345 392.000000
-16.407434 133.914108 392.000000
-16.407434 134.552872 392.000000
-16.407434 135.191635 392.000000
-16.323723 135.137390 390.000000
-16.240011 135.076614 388.000000
-16.198154 135.359085 387.000000
-16.198154 135.989700 387.000000
-16.156300 136.267273 386.000000
-16.072588 136.186951 384.000000
-16.072588 136.812668 384.000000
-16.030731 137.080490 383.000000
-15.988875 137.345047 382.000000
-15.988875 137.967514 382.000000
-15.947020 138.227173 381.000000
-15.863308 138.119141 379.000000
-15.863308 138.736725 379.000000
-15.821452 138.986603 378.000000
-15.779596 139.233246 377.000000
-15.779596 139.847549 377.000000
-15.695887 139.716721 375.000000
-15.654031 139.953568 374.000000
-15.654031 140.562988 374.000000
-15.654031 141.172424 374.000000
-15.612175 141.402756 373.000000
-15.612175 142.010544 373.000000
-15.570319 142.235992 372.000000
-15.528463 142.458176 371.000000
-15.528463 143.062714 371.000000
-15.486608 143.280014 370.000000
-15.444752 143.494064 369.000000
-15.444752 144.095337 369.000000
-15.444752 144.696625 369.000000
-15.402896 144.904129 368.000000
-15.402896 145.503784 368.000000
-15.361040 145.706421 367.000000
-15.319184 145.905792 366.000000
-15.319184 146.502182 366.000000
-15.319184 147.098572 366.000000
-15.319184 147.694962 366.000000
-15.277328 147.886185 365.000000
-15.277328 148.480957 365.000000
-15.235473 148.667282 364.000000
-15.235473 149.260422 364.000000
-15.235473 149.853546 364.000000
-15.193617 150.033386 363.000000
-15.151761 150.209946 362.000000
-15.151761 150.799820 362.000000
-15.151761 151.389694 362.000000
-15.151761 151.979568 362.000000
-15.151761 152.569443 362.000000
-15.151761 153.159317 362.000000
-15.109905 153.324463 361.000000
-15.109905 153.912704 361.000000
-15.109905 154.500946 361.000000
-15.109905 155.089203 361.000000
-15.109905 155.677444 361.000000
-15.109905 156.265686 361.000000
-15.068051 156.419434 360.000000
-15.068051 157.006042 360.000000
-15.068051 157.592667 360.000000
-15.068051 158.179276 360.000000
-15.068051 158.765900 360.000000
-15.068051 159.352509 360.000000
-15.068051 159.939117 360.000000
-15.109905 160.971649 361.000000
-15.109905 161.559891 361.000000
-15.109905 162.148132 361.000000
-15.109905 162.736374 361.000000
-15.109905 163.324631 361.000000
-15.151761 164.366928 362.000000
-15.151761 164.956802 362.000000
-15.151761 165.546677 362.000000
-15.151761 166.136551 362.000000
-15.151761 166.726425 362.000000
-15.151761 167.316299 362.000000
-15.151761 167.906174 362.000000
-15.109905 168.030579 361.000000
-15.109905 168.618835 361.000000
-15.052752 168.567032 359.634491
-15.049741 169.119217 359.562561
-15.049741 169.705124 359.562561
-17.892639 122.957550 444.792297
-17.892639 123.682343 444.792297
-17.892639 124.407120 444.792297
-17.873701 124.999466 444.321533
-17.828764 125.407387 443.204407
-17.828764 126.129578 443.204407
-17.779007 126.497765 441.967529
-17.780313 127.227295 442.000000
-17.780313 127.947525 442.000000
-17.780313 128.667755 442.000000
-17.740086 129.095261 441.000000
-17.699860 129.519501 440.000000
-17.699860 130.236465 440.000000
-17.659634 130.655838 439.000000
-17.619406 131.071930 438.000000
-17.619406 131.785645 438.000000
-17.579180 132.196854 437.000000
-17.538952 132.604797 436.000000
-17.538952 133.315247 436.000000
-17.458498 133.410904 434.000000
-17.418272 133.809067 433.000000
-17.418272 134.514633 433.000000
-17.282961 134.169785 429.636353
-17.119923 133.597565 425.583344
-17.119923 134.291061 425.583344
-16.975258 133.843933 421.987183
-16.923445 134.120895 420.699097
-16.923445 134.806427 420.699097
-16.855572 134.948547 419.011871
-16.774679 134.980423 417.000977
-16.774679 135.659912 417.000977
-16.699703 135.730026 415.137146
-16.606192 135.642670 412.812531
-16.606192 136.315338 412.812531
-16.520252 136.279083 410.676208
-16.409781 136.032501 407.929993
-16.409781 136.697205 407.929993
-16.281328 136.286682 404.736786
-15.768967 132.636597 392.000000
-15.768967 133.275345 392.000000
-15.768967 133.914108 392.000000
-15.728740 134.209625 391.000000
-15.728740 134.846756 391.000000
-15.608059 134.444366 388.000000
-15.567832 134.728470 387.000000
-15.527604 135.009323 386.000000
-15.527604 135.638306 386.000000
-15.487377 135.914261 385.000000
-15.406923 135.832306 383.000000
-15.406923 136.456406 383.000000
-15.366696 136.722580 382.000000
-15.326469 136.985504 381.000000
-15.326469 137.606339 381.000000
-15.286242 137.864365 380.000000
-15.246016 138.119141 379.000000
-15.246016 138.736725 379.000000
-15.205788 138.986603 378.000000
-15.165561 139.233246 377.000000
-15.165561 139.847549 377.000000
-15.085109 139.716721 375.000000
-15.044882 139.953568 374.000000
-15.044882 140.562988 374.000000
-15.044882 141.172424 374.000000
-15.004654 141.402756 373.000000
-15.004654 142.010544 373.000000
-14.964427 142.235992 372.000000
-14.924200 142.458176 371.000000
-14.924200 143.062714 371.000000
-14.883973 143.280014 370.000000
-14.843746 143.494064 369.000000
-14.843746 144.095337 369.000000
-14.803519 144.304489 368.000000
-14.803519 144.904129 368.000000
-14.803519 145.503784 368.000000
-14.763292 145.706421 367.000000
-14.723065 145.905792 366.000000
-14.723065 146.502182 366.000000
-14.682838 146.696655 365.000000
-14.682838 147.291428 365.000000
-14.642611 147.481018 364.000000
-14.642611 148.074158 364.000000
-14.642611 148.667282 364.000000
-14.602384 148.850372 363.000000
-14.602384 149.441879 363.000000
-14.602384 150.033386 363.000000
-14.562157 150.209946 362.000000
-14.562157 150.799820 362.000000
-14.562157 151.389694 362.000000
-14.562157 151.979568 362.000000
-14.562157 152.569443 362.000000
-14.521930 152.736221 361.000000
-14.521930 153.324463 361.000000
-14.521930 153.912704 361.000000
-14.521930 154.500946 361.000000
-14.521930 155.089203 361.000000
-14.521930 155.677444 361.000000
-14.481705 155.832809 360.000000
-14.481705 156.419434 360.000000
-14.481705 157.006042 360.000000
-14.481705 157.592667 360.000000
-14.441477 157.739883 359.000000
-14.441477 158.324875 359.000000
-14.441477 158.909866 359.000000
-14.481705 159.939117 360.000000
-14.481705 160.525742 360.000000
-14.481705 161.112350 360.000000
-14.481705 161.698975 360.000000
-14.481705 162.285583 360.000000
-14.481705 162.872208 360.000000
-14.521930 163.912872 361.000000
-14.521930 164.501114 361.000000
-14.521930 165.089355 361.000000
-14.521930 165.677612 361.000000
-14.521930 166.265854 361.000000
-14.521930 166.854095 361.000000
-14.521930 167.442337 361.000000
-14.521930 168.030579 361.000000
-14.521930 168.618835 361.000000
-14.440664 168.260178 358.979828
-17.091223 124.570946 442.798309
-17.091223 125.292480 442.798309
-17.091223 126.014008 442.798309
-17.042130 126.371490 441.526367
-17.042130 127.090965 441.526367
-17.019060 127.637413 440.928680
-17.019060 128.355896 440.928680
-17.001368 128.940216 440.470337
-16.985315 129.535522 440.054443
-16.985315 130.252594 440.054443
-16.963871 130.804306 439.498871
-16.906017 131.071930 438.000000
-16.906017 131.785645 438.000000
-16.906017 132.499359 438.000000
-16.828821 132.604797 436.000000
-16.828821 133.315247 436.000000
-16.790222 133.718307 435.000000
-16.713026 133.809067 433.000000
-16.713026 134.514633 433.000000
-16.583197 134.169785 429.636353
-16.426756 133.597565 425.583344
-16.426756 134.291061 425.583344
-16.287952 133.843933 421.987183
-16.238234 134.120895 420.699097
-16.238234 134.806427 420.699097
-16.117645 134.485748 417.574890
-16.035526 134.477524 415.447388
-16.035526 135.154495 415.447388
-15.961097 135.200989 413.519043
-15.867750 135.080170 411.100677
-15.867750 135.750061 411.100677
-15.782954 135.690918 408.903748
-15.669409 135.376236 405.962006
-15.669409 136.037735 405.962006
-15.551299 135.668884 402.902069
-15.130500 132.636597 392.000000
-15.130500 133.275345 392.000000
-15.130500 133.914108 392.000000
-15.091902 134.209625 391.000000
-15.091902 134.846756 391.000000
-14.937509 134.097855 387.000000
-14.937509 134.728470 387.000000
-14.860312 134.659546 385.000000
-14.860312 135.286896 385.000000
-14.821713 135.561234 384.000000
-14.744517 135.477661 382.000000
-14.744517 136.100113 382.000000
-14.705918 136.364670 381.000000
-14.705918 136.985504 381.000000
-14.705918 137.606339 381.000000
-14.667320 137.864365 380.000000
-14.590124 137.754715 378.000000
-14.590124 138.370651 378.000000
-14.551525 138.618927 377.000000
-14.512927 138.863922 376.000000
-14.512927 139.476608 376.000000
-14.474330 139.716721 375.000000
-14.435732 139.953568 374.000000
-14.435732 140.562988 374.000000
-14.397134 140.794952 373.000000
-14.358536 141.023651 372.000000
-14.358536 141.629822 372.000000
-14.319937 141.853638 371.000000
-14.281339 142.074203 370.000000
-14.281339 142.677109 370.000000
-14.281339 143.280014 370.000000
-14.242741 143.494064 369.000000
-14.242741 144.095337 369.000000
-14.204143 144.304489 368.000000
-14.204143 144.904129 368.000000
-14.204143 145.503784 368.000000
-14.165544 145.706421 367.000000
-14.126945 145.905792 366.000000
-14.126945 146.502182 366.000000
-14.088347 146.696655 365.000000
-14.088347 147.291428 365.000000
-14.049749 147.481018 364.000000
-14.049749 148.074158 364.000000
-14.049749 148.667282 364.000000
-14.011150 148.850372 363.000000
-14.011150 149.441879 363.000000
-14.011150 150.033386 363.000000
-13.985530 150.349442 362.336212
-13.985530 150.939865 362.336212
-13.972552 151.389694 362.000000
-13.972552 151.979568 362.000000
-13.972552 152.569443 362.000000
-13.933954 152.736221 361.000000
-13.933954 153.324463 361.000000
-13.933954 153.912704 361.000000
-13.895357 154.072968 360.000000
-13.895357 154.659592 360.000000
-13.895357 155.246201 360.000000
-13.856759 155.399948 359.000000
-13.856759 155.984924 359.000000
-13.856759 156.569916 359.000000
-13.856759 157.154907 359.000000
-13.818161 157.300507 358.000000
-13.818161 157.883850 358.000000
-13.818161 158.467209 358.000000
-13.856759 159.494843 359.000000
-13.856759 160.079834 359.000000
-13.856759 160.664825 359.000000
-13.856759 161.249802 359.000000
-13.856759 161.834793 359.000000
-13.856759 162.419769 359.000000
-13.895357 163.458817 360.000000
-13.895357 164.045425 360.000000
-13.895357 164.632050 360.000000
-13.933954 165.677612 361.000000
-13.933954 166.265854 361.000000
-13.933954 166.854095 361.000000
-13.933954 167.442337 361.000000
-13.933954 168.030579 361.000000
-13.933954 168.618835 361.000000
-13.833961 167.992798 358.409363
-13.794296 168.093491 357.381744
-13.794296 168.675842 357.381744
-16.322996 125.652039 441.526367
-16.322996 126.371490 441.526367
-16.322996 127.090965 441.526367
-16.324020 127.818436 441.554077
-16.324020 128.537949 441.554077
-16.324020 129.257462 441.554077
-16.302221 129.803391 440.964417
-16.302221 130.521942 440.964417
-16.272783 131.003494 440.168121
-16.228706 131.363968 438.975891
-16.228706 132.079269 438.975891
-16.204941 132.600113 438.333038
-16.180294 133.111603 437.666382
-16.180294 133.824783 437.666382
-16.081720 133.718307 435.000000
-15.920399 133.078644 430.636353
-15.920399 133.780365 430.636353
-15.766358 133.180878 426.469696
-15.631214 132.728256 422.814117
-15.631214 133.417236 422.814117
-15.581964 133.683670 421.481903
-15.553023 134.120895 420.699097
-15.553023 134.806427 420.699097
-15.437523 134.485748 417.574890
-15.358871 134.477524 415.447388
-15.358871 135.154495 415.447388
-15.287580 135.200989 413.519043
-15.198174 135.080170 411.100677
-15.198174 135.750061 411.100677
-15.026448 134.878510 406.455597
-14.927439 134.647751 403.777435
-14.927439 135.305695 403.777435
-14.492033 131.997833 392.000000
-14.492033 132.636597 392.000000
-14.492033 133.275345 392.000000
-14.455064 133.572495 391.000000
-14.418095 133.866379 390.000000
-14.418095 134.501877 390.000000
-14.307185 134.097855 387.000000
-14.307185 134.728470 387.000000
-14.233247 134.659546 385.000000
-14.233247 135.286896 385.000000
-14.196277 135.561234 384.000000
-14.122337 135.477661 382.000000
-14.122337 136.100113 382.000000
-14.085368 136.364670 381.000000
-14.085368 136.985504 381.000000
-14.085368 137.606339 381.000000
-14.048399 137.864365 380.000000
-13.937490 137.390289 377.000000
-13.937490 138.004608 377.000000
-13.900520 138.251236 376.000000
-13.863552 138.494598 375.000000
-13.863552 139.105652 375.000000
-13.826583 139.344131 374.000000
-13.826583 139.953568 374.000000
-13.826583 140.562988 374.000000
-13.789613 140.794952 373.000000
-13.715674 140.644562 371.000000
-13.715674 141.249100 371.000000
-13.678704 141.471283 370.000000
-13.678704 142.074203 370.000000
-13.678704 142.677109 370.000000
-13.641735 142.892776 369.000000
-13.641735 143.494064 369.000000
-13.641735 144.095337 369.000000
