17.128262 95.255882 415.632385
17.062521 95.564941 414.037109
17.004379 95.911667 412.626251
17.004379 96.584030 412.626251
16.798592 96.079414 407.632660
16.566469 95.406837 402.000000
16.566469 96.061897 402.000000
16.566469 96.716949 402.000000
16.525259 97.129784 401.000000
16.525259 97.783203 401.000000
16.484049 98.191154 400.000000
16.401630 98.348732 398.000000
16.401630 98.997269 398.000000
16.360420 99.395439 397.000000
16.319210 99.790352 396.000000
16.319210 100.435631 396.000000
16.319210 101.080910 396.000000
16.278000 101.469299 395.000000
16.278000 102.112946 395.000000
16.278000 102.756592 395.000000
16.278000 103.400238 395.000000
16.278000 104.043884 395.000000
16.278000 104.687538 395.000000
16.154367 104.531197 392.000000
16.071947 104.633377 390.000000
16.071947 105.268875 390.000000
16.030737 105.632828 389.000000
15.948318 105.720337 387.000000
15.948318 106.350952 387.000000
15.948318 106.981560 387.000000
15.948318 107.612175 387.000000
15.948318 108.242783 387.000000
15.948318 108.873398 387.000000
15.948318 109.504005 387.000000
15.948318 110.134621 387.000000
15.948318 110.765228 387.000000
15.824688 110.532303 384.000000
15.824688 111.158028 384.000000
15.783478 111.492653 383.000000
15.742268 111.824013 382.000000
15.742268 112.446480 382.000000
15.742268 113.068947 382.000000
15.742268 113.691406 382.000000
15.746388 114.343803 382.100006
15.746388 114.966415 382.100006
15.746388 115.589050 382.100006
15.730316 116.093056 381.709991
15.730316 116.715050 381.709991
15.720880 117.266640 381.480988
15.714621 117.841331 381.329102
15.714621 118.462700 381.329102
15.708401 119.036957 381.178223
15.709136 119.663673 381.196045
15.709136 120.284821 381.196045
15.709136 120.905975 381.196045
15.480718 119.760063 375.653259
15.480718 120.372192 375.653259
15.480718 120.984322 375.653259
15.448863 121.346230 374.880280
15.448863 121.957085 374.880280
15.427082 122.395149 374.351746
15.322156 122.168533 371.805603
15.322156 122.774384 371.805603
15.225870 122.604919 369.469177
15.131140 122.440407 367.170441
15.131140 123.038696 367.170441
15.040145 122.893478 364.962372
14.950060 122.748535 362.776367
14.950060 123.339668 362.776367
14.862652 123.206238 360.655365
14.779807 123.103889 358.645050
14.779807 123.688286 358.645050
14.423544 121.277130 350.000000
14.423544 121.847450 350.000000
14.423544 122.417770 350.000000
14.382334 122.636711 349.000000
14.382334 123.205399 349.000000
14.382334 123.774094 349.000000
14.299913 123.630211 347.000000
14.258703 123.837730 346.000000
14.176284 123.682442 344.000000
14.176284 124.242989 344.000000
14.135072 124.440727 343.000000
14.135072 124.999641 343.000000
14.135072 125.558556 343.000000
14.176284 126.485161 344.000000
14.176284 127.045708 344.000000
14.176284 127.606247 344.000000
14.093862 127.421646 342.000000
14.052651 127.604721 341.000000
14.052651 128.160370 341.000000
14.052651 128.716034 341.000000
14.011442 128.892593 340.000000
14.011442 129.446609 340.000000
14.011442 130.000641 340.000000
14.011442 130.554672 340.000000
14.011442 131.108688 340.000000
14.011442 131.662720 340.000000
13.970232 131.827866 339.000000
13.970232 132.380264 339.000000
13.970232 132.932663 339.000000
13.970232 133.485062 339.000000
13.970232 134.037460 339.000000
13.929022 134.192825 338.000000
13.929022 134.743591 338.000000
13.929022 135.294357 338.000000
13.929022 135.845123 338.000000
13.929022 136.395889 338.000000
13.929022 136.946655 338.000000
13.887812 137.090637 337.000000
13.887812 137.639771 337.000000
13.887812 138.188904 337.000000
13.887812 138.738037 337.000000
13.846601 138.873856 336.000000
13.846601 139.421371 336.000000
13.846601 139.968872 336.000000
13.846601 140.516388 336.000000
13.846601 141.063889 336.000000
13.846601 141.611404 336.000000
13.846601 142.158905 336.000000
13.805391 142.281708 335.000000
13.805391 142.827591 335.000000
13.805391 143.373459 335.000000
13.805391 143.919342 335.000000
13.805391 144.465225 335.000000
13.764181 144.578232 334.000000
13.764181 145.122482 334.000000
13.764181 145.666718 334.000000
13.764181 146.210968 334.000000
13.764181 146.755219 334.000000
13.764181 147.299469 334.000000
13.764181 147.843719 334.000000
13.764181 148.387970 334.000000
13.764181 148.932220 334.000000
13.764181 149.476471 334.000000
13.764181 150.020721 334.000000
13.764181 150.564957 334.000000
13.722972 150.656784 333.000000
13.722972 151.199402 333.000000
13.722972 151.742020 333.000000
13.722972 152.284637 333.000000
13.722972 152.827271 333.000000
13.722972 153.369888 333.000000
13.722972 153.912506 333.000000
13.722972 154.455124 333.000000
13.722972 154.997742 333.000000
13.722972 155.540359 333.000000
13.722972 156.082977 333.000000
13.722972 156.625595 333.000000
13.722972 157.168213 333.000000
13.764181 158.184448 334.000000
13.764181 158.728699 334.000000
13.764181 159.272949 334.000000
13.764181 159.817184 334.000000
13.764181 160.361435 334.000000
13.764181 160.905685 334.000000
13.764181 161.449936 334.000000
13.764181 161.994186 334.000000
13.764181 162.538437 334.000000
13.764181 163.082687 334.000000
13.764181 163.626938 334.000000
13.764181 164.171188 334.000000
13.764181 164.715424 334.000000
13.764181 165.259674 334.000000
13.764181 165.803925 334.000000
13.764181 166.348175 334.000000
13.722972 166.392746 333.000000
13.722972 166.935364 333.000000
13.722972 167.477982 333.000000
13.722972 168.020599 333.000000
13.722972 168.563217 333.000000
13.722972 169.105850 333.000000
13.722972 169.648468 333.000000
13.722972 170.191086 333.000000
13.722972 170.733704 333.000000
13.722972 171.276321 333.000000
13.722972 171.818939 333.000000
13.722972 172.361557 333.000000
13.722972 172.904175 333.000000
13.722972 173.446793 333.000000
13.722972 173.989410 333.000000
13.722972 174.532028 333.000000
13.681762 174.548904 332.000000
13.681762 175.089890 332.000000
13.681762 175.630890 332.000000
13.681762 176.171875 332.000000
13.681762 176.712860 332.000000
13.681762 177.253845 332.000000
13.681762 177.794846 332.000000
13.681762 178.335831 332.000000
13.681762 178.876816 332.000000
13.640552 178.877396 331.000000
13.640552 179.416748 331.000000
13.599341 179.412445 330.000000
13.599341 179.950165 330.000000
13.599341 180.487900 330.000000
13.599341 181.025635 330.000000
13.558131 181.013168 329.000000
13.558131 181.549271 329.000000
13.558131 182.085373 329.000000
13.558131 182.621475 329.000000
13.558131 183.157578 329.000000
13.558131 183.693680 329.000000
13.558131 184.229782 329.000000
13.558131 184.765884 329.000000
13.558131 185.301987 329.000000
13.558131 185.838074 329.000000
13.516920 185.807709 328.000000
13.516920 186.342178 328.000000
13.516920 186.876648 328.000000
13.516920 187.411118 328.000000
13.516920 187.945587 328.000000
13.516920 188.480072 328.000000
13.516920 189.014542 328.000000
13.516920 189.549011 328.000000
13.516920 190.083481 328.000000
13.475710 190.036804 327.000000
13.475710 190.569641 327.000000
13.475710 191.102478 327.000000
13.434500 191.049286 326.000000
13.434500 191.580490 326.000000
13.434500 192.111710 326.000000
13.434500 192.642929 326.000000
13.434500 193.174133 326.000000
13.393290 193.111160 325.000000
13.393290 193.640747 325.000000
13.393290 194.170319 325.000000
13.352079 194.100830 324.000000
13.352079 194.628784 324.000000
13.352079 195.156738 324.000000
13.352079 195.684692 324.000000
13.393290 196.818237 325.000000
13.393290 197.347824 325.000000
13.393290 197.877411 325.000000
13.393290 198.406998 325.000000
13.434500 199.548691 326.000000
13.434500 200.079895 326.000000
13.434500 200.611115 326.000000
13.434500 201.142334 326.000000
13.434500 201.673538 326.000000
13.434500 202.204758 326.000000
13.434500 202.735962 326.000000
13.434500 203.267181 326.000000
13.434500 203.798386 326.000000
13.393290 203.702820 325.000000
13.393290 204.232407 325.000000
13.393290 204.761993 325.000000
13.310870 204.028244 323.000000
13.310870 204.554565 323.000000
13.310870 205.080887 323.000000
13.310870 205.607208 323.000000
13.310870 206.133530 323.000000
13.310870 206.659866 323.000000
13.269660 206.544739 322.000000
13.269660 207.069443 322.000000
13.187240 209.954788 320.000000
13.187240 210.476227 320.000000
13.187240 210.997665 320.000000
13.187240 211.519089 320.000000
13.187240 212.040527 320.000000
13.187240 212.561966 320.000000
19.044731 40.311787 444.566650
19.044731 41.036201 444.566650
19.148973 41.989197 447.000000
19.148973 42.717579 447.000000
19.148973 43.445957 447.000000
19.106134 44.075512 446.000000
19.063295 44.701813 445.000000
19.063295 45.426933 445.000000
19.063295 46.152058 445.000000
19.020456 46.771835 444.000000
19.020456 47.495327 444.000000
19.020456 48.218819 444.000000
19.020456 48.942310 444.000000
18.977617 49.553944 443.000000
18.977617 50.275806 443.000000
18.977617 50.997673 443.000000
18.977617 51.719536 443.000000
18.977617 52.441399 443.000000
18.934778 53.043251 442.000000
18.934778 53.763485 442.000000
18.934778 54.483719 442.000000
18.934778 55.203949 442.000000
18.934778 55.924183 442.000000
18.934778 56.644417 442.000000
18.891941 57.234871 441.000000
18.891941 57.953476 441.000000
18.891941 58.672081 441.000000
18.891941 59.390682 441.000000
18.891941 60.109287 441.000000
18.891941 60.827892 441.000000
18.891941 61.546494 441.000000
18.891941 62.265099 441.000000
18.891941 62.983704 441.000000
18.891941 63.702305 441.000000
18.849102 64.274826 440.000000
18.849102 64.991806 440.000000
18.806261 65.559441 439.000000
18.806261 66.274780 439.000000
18.806261 66.990128 439.000000
18.806261 67.705475 439.000000
18.763422 68.264961 438.000000
18.763422 68.978676 438.000000
18.763422 69.692390 438.000000
18.763422 70.406105 438.000000
18.763422 71.119820 438.000000
18.763422 71.833534 438.000000
18.720583 72.381622 437.000000
18.720583 73.093712 437.000000
18.720583 73.805794 437.000000
18.720583 74.517883 437.000000
18.720583 75.229965 437.000000
18.720583 75.942055 437.000000
18.720583 76.654144 437.000000
18.720583 77.366226 437.000000
18.720583 78.078316 437.000000
18.720583 78.790398 437.000000
18.677746 79.320557 436.000000
18.677746 80.031013 436.000000
18.634907 80.556282 435.000000
18.549229 80.891479 433.000000
18.549229 81.597046 433.000000
18.506390 82.112534 432.000000
18.463551 82.624763 431.000000
18.463551 83.327072 431.000000
18.420712 83.834427 430.000000
18.377874 84.338509 429.000000
18.335035 84.839333 428.000000
18.335035 85.536758 428.000000
18.292196 86.032700 427.000000
18.249357 86.525375 426.000000
18.249357 87.219536 426.000000
18.249357 87.913704 426.000000
18.249357 88.607864 426.000000
18.249357 89.302025 426.000000
18.206518 89.784927 425.000000
18.206518 90.477455 425.000000
18.206518 91.169991 425.000000
18.206518 91.862518 425.000000
18.163679 92.337273 424.000000
18.163679 93.028175 424.000000
18.163679 93.719078 424.000000
18.006762 93.594376 420.337036
18.006762 94.279305 420.337036
17.884947 94.321815 417.493469
17.794561 94.521996 415.383575
17.794561 95.198860 415.383575
17.655224 95.124969 412.130951
17.655224 95.796539 412.130951
17.655224 96.468094 412.130951
17.462521 96.079414 407.632660
17.092707 94.694847 399.000000
17.092707 95.345016 399.000000
17.092707 95.995178 399.000000
17.049870 96.403130 398.000000
17.049870 97.051659 398.000000
17.007030 97.454720 397.000000
16.964191 97.854523 396.000000
16.964191 98.499802 396.000000
16.921352 98.894707 395.000000
16.921352 99.538353 395.000000
16.878513 99.928375 394.000000
16.878513 100.570396 394.000000
16.878513 101.212410 394.000000
16.878513 101.854431 394.000000
16.878513 102.496445 394.000000
16.835674 102.876694 393.000000
16.792835 103.253685 392.000000
16.792835 103.892441 392.000000
16.792835 104.531197 392.000000
16.707157 104.633377 390.000000
16.707157 105.268875 390.000000
16.664318 105.632828 389.000000
16.578640 105.720337 387.000000
16.578640 106.350952 387.000000
16.578640 106.981560 387.000000
16.578640 107.612175 387.000000
16.578640 108.242783 387.000000
16.578640 108.873398 387.000000
16.578640 109.504005 387.000000
16.578640 110.134621 387.000000
16.578640 110.765228 387.000000
16.321608 109.668777 381.000000
16.321608 110.289612 381.000000
16.321608 110.910446 381.000000
16.321608 111.531281 381.000000
16.321608 112.152115 381.000000
16.321608 112.772949 381.000000
16.321608 113.393784 381.000000
16.368731 114.343803 382.100006
16.368731 114.966415 382.100006
16.368731 115.589050 382.100006
16.352022 116.093056 381.709991
16.352022 116.715050 381.709991
16.342213 117.266640 381.480988
16.335707 117.841331 381.329102
16.335707 118.462700 381.329102
16.329243 119.036957 381.178223
16.330006 119.663673 381.196045
16.330006 120.284821 381.196045
16.330006 120.905975 381.196045
16.103254 119.839668 375.902924
16.103254 120.452187 375.902924
16.103254 121.064720 375.902924
16.036804 121.175148 374.351746
16.036804 121.785149 374.351746
16.036804 122.395149 374.351746
15.927731 122.168533 371.805603
15.927731 122.774384 371.805603
15.827640 122.604919 369.469177
15.729164 122.440407 367.170441
15.729164 123.038696 367.170441
15.634573 122.893478 364.962372
15.540929 122.748535 362.776367
15.540929 123.339668 362.776367
15.450066 123.206238 360.655365
14.993603 120.136490 350.000000
14.993603 120.706810 350.000000
14.993603 121.277130 350.000000
14.950765 121.499329 349.000000
14.950765 122.068016 349.000000
14.907926 122.285309 348.000000
14.865087 122.499344 347.000000
14.865087 123.064781 347.000000
14.822248 123.273926 346.000000
14.779409 123.479813 345.000000
14.693730 123.322899 343.000000
14.693730 123.881813 343.000000
14.693730 124.440727 343.000000
14.693730 124.999641 343.000000
14.693730 125.558556 343.000000
14.693730 126.117470 343.000000
14.693730 126.676384 343.000000
14.693730 127.235298 343.000000
14.650891 127.421646 342.000000
14.608052 127.604721 341.000000
14.608052 128.160370 341.000000
14.608052 128.716034 341.000000
14.565214 128.892593 340.000000
14.565214 129.446609 340.000000
14.565214 130.000641 340.000000
14.565214 130.554672 340.000000
14.565214 131.108688 340.000000
14.565214 131.662720 340.000000
14.522375 131.827866 339.000000
14.522375 132.380264 339.000000
14.522375 132.932663 339.000000
14.522375 133.485062 339.000000
14.522375 134.037460 339.000000
14.479536 134.192825 338.000000
14.479536 134.743591 338.000000
14.479536 135.294357 338.000000
14.479536 135.845123 338.000000
14.479536 136.395889 338.000000
14.479536 136.946655 338.000000
14.436698 137.090637 337.000000
14.436698 137.639771 337.000000
14.436698 138.188904 337.000000
14.436698 138.738037 337.000000
14.393859 138.873856 336.000000
14.393859 139.421371 336.000000
14.393859 139.968872 336.000000
14.351020 140.098190 335.000000
14.351020 140.644073 335.000000
14.351020 141.189957 335.000000
14.351020 141.735825 335.000000
14.351020 142.281708 335.000000
14.351020 142.827591 335.000000
14.351020 143.373459 335.000000
14.308181 143.489731 334.000000
14.308181 144.033981 334.000000
14.308181 144.578232 334.000000
14.308181 145.122482 334.000000
14.308181 145.666718 334.000000
14.265343 145.773209 333.000000
14.265343 146.315826 333.000000
14.265343 146.858444 333.000000
14.265343 147.401077 333.000000
14.265343 147.943695 333.000000
14.265343 148.486313 333.000000
14.265343 149.028931 333.000000
14.265343 149.571548 333.000000
14.265343 150.114166 333.000000
14.265343 150.656784 333.000000
14.265343 151.199402 333.000000
14.265343 151.742020 333.000000
14.265343 152.284637 333.000000
14.265343 152.827271 333.000000
14.265343 153.369888 333.000000
14.265343 153.912506 333.000000
14.265343 154.455124 333.000000
14.265343 154.997742 333.000000
14.265343 155.540359 333.000000
14.265343 156.082977 333.000000
14.265343 156.625595 333.000000
14.265343 157.168213 333.000000
14.265343 157.710831 333.000000
14.265343 158.253464 333.000000
14.265343 158.796082 333.000000
14.265343 159.338699 333.000000
14.308181 160.361435 334.000000
14.308181 160.905685 334.000000
14.308181 161.449936 334.000000
14.308181 161.994186 334.000000
14.308181 162.538437 334.000000
14.308181 163.082687 334.000000
14.265343 163.137024 333.000000
14.265343 163.679657 333.000000
14.265343 164.222275 333.000000
14.265343 164.764893 333.000000
14.265343 165.307510 333.000000
14.265343 165.850128 333.000000
14.265343 166.392746 333.000000
14.265343 166.935364 333.000000
14.222504 166.975052 332.000000
14.222504 167.516037 332.000000
14.265343 168.563217 333.000000
14.265343 169.105850 333.000000
14.265343 169.648468 333.000000
14.265343 170.191086 333.000000
14.265343 170.733704 333.000000
14.265343 171.276321 333.000000
14.265343 171.818939 333.000000
14.265343 172.361557 333.000000
14.222504 172.384949 332.000000
14.222504 172.925934 332.000000
14.222504 173.466919 332.000000
14.179665 173.483795 331.000000
14.179665 174.023148 331.000000
14.179665 174.562515 331.000000
14.179665 175.101868 331.000000
14.179665 175.641235 331.000000
14.179665 176.180588 331.000000
14.182184 176.751373 331.058838
14.182184 177.290817 331.058838
14.182184 177.830276 331.058838
14.169945 178.215790 330.773102
14.155156 178.568207 330.427887
14.155156 179.106644 330.427887
14.107687 179.042648 329.319824
14.093987 179.404861 329.000000
14.093987 179.940964 329.000000
14.093987 180.477066 329.000000
14.093987 181.013168 329.000000
14.093987 181.549271 329.000000
14.093987 182.085373 329.000000
14.093987 182.621475 329.000000
14.093987 183.157578 329.000000
14.093987 183.693680 329.000000
14.051147 183.669815 328.000000
14.051147 184.204285 328.000000
14.051147 184.738770 328.000000
14.008308 184.708374 327.000000
14.008308 185.241211 327.000000
14.008308 185.774063 327.000000
14.008308 186.306900 327.000000
14.008308 186.839737 327.000000
14.008308 187.372589 327.000000
14.008308 187.905426 327.000000
13.965469 187.862000 326.000000
13.965469 188.393219 326.000000
13.965469 188.924438 326.000000
13.965469 189.455643 326.000000
13.965469 189.986862 326.000000
13.965469 190.518066 326.000000
13.922631 190.463242 325.000000
13.922631 190.992828 325.000000
13.922631 191.522400 325.000000
13.922631 192.051987 325.000000
13.922631 192.581573 325.000000
13.879792 192.516968 324.000000
13.879792 193.044922 324.000000
13.879792 193.572876 324.000000
13.879792 194.100830 324.000000
13.836953 194.028076 323.000000
13.836953 194.554398 323.000000
13.836953 195.080719 323.000000
13.836953 195.607056 323.000000
13.879792 196.740601 324.000000
13.879792 197.268555 324.000000
13.879792 197.796509 324.000000
13.922631 198.936569 325.000000
13.922631 199.466156 325.000000
13.922631 199.995743 325.000000
13.965469 201.142334 326.000000
13.965469 201.673538 326.000000
13.965469 202.204758 326.000000
13.922631 202.114075 325.000000
13.922631 202.643661 325.000000
13.922631 203.173248 325.000000
13.922631 203.702820 325.000000
13.922631 204.232407 325.000000
13.879792 204.131958 324.000000
13.836953 204.028244 323.000000
13.836953 204.554565 323.000000
13.836953 205.080887 323.000000
13.836953 205.607208 323.000000
13.836953 206.133530 323.000000
13.836953 206.659866 323.000000
13.794114 206.544739 322.000000
13.794114 207.069443 322.000000
13.708437 209.954788 320.000000
13.708437 210.476227 320.000000
13.708437 210.997665 320.000000
13.708437 211.519089 320.000000
13.708437 212.040527 320.000000
13.708437 212.561966 320.000000
19.768816 40.311787 444.566650
19.768816 41.036201 444.566650
19.877020 41.989197 447.000000
19.877020 42.717579 447.000000
19.877020 43.445957 447.000000
19.832554 44.075512 446.000000
19.788086 44.701813 445.000000
19.788086 45.426933 445.000000
19.788086 46.152058 445.000000
19.743618 46.771835 444.000000
19.743618 47.495327 444.000000
19.743618 48.218819 444.000000
19.743618 48.942310 444.000000
19.699150 49.553944 443.000000
19.699150 50.275806 443.000000
19.699150 50.997673 443.000000
19.699150 51.719536 443.000000
19.699150 52.441399 443.000000
19.654682 53.043251 442.000000
19.654682 53.763485 442.000000
19.654682 54.483719 442.000000
19.654682 55.203949 442.000000
19.654682 55.924183 442.000000
19.654682 56.644417 442.000000
19.610216 57.234871 441.000000
19.610216 57.953476 441.000000
19.610216 58.672081 441.000000
19.610216 59.390682 441.000000
19.610216 60.109287 441.000000
19.610216 60.827892 441.000000
19.610216 61.546494 441.000000
19.610216 62.265099 441.000000
19.610216 62.983704 441.000000
19.610216 63.702305 441.000000
19.565748 64.274826 440.000000
19.565748 64.991806 440.000000
19.521278 65.559441 439.000000
19.521278 66.274780 439.000000
19.476810 66.837532 438.000000
19.476810 67.551247 438.000000
19.476810 68.264961 438.000000
19.476810 68.978676 438.000000
19.476810 69.692390 438.000000
19.432344 70.245369 437.000000
19.432344 70.957451 437.000000
19.432344 71.669540 437.000000
19.432344 72.381622 437.000000
19.432344 73.093712 437.000000
19.432344 73.805794 437.000000
19.432344 74.517883 437.000000
19.432344 75.229965 437.000000
19.432344 75.942055 437.000000
19.432344 76.654144 437.000000
19.387877 77.189186 436.000000
19.387877 77.899643 436.000000
19.387877 78.610100 436.000000
19.343409 79.138626 435.000000
19.343409 79.847450 435.000000
19.298941 80.371094 434.000000
19.210007 80.704659 432.000000
19.210007 81.408600 432.000000
19.210007 82.112534 432.000000
19.165539 82.624763 431.000000
19.165539 83.327072 431.000000
19.121071 83.834427 430.000000
19.076603 84.338509 429.000000
19.032137 84.839333 428.000000
19.032137 85.536758 428.000000
18.987669 86.032700 427.000000
18.943201 86.525375 426.000000
18.943201 87.219536 426.000000
18.943201 87.913704 426.000000
18.943201 88.607864 426.000000
18.943201 89.302025 426.000000
18.898733 89.784927 425.000000
18.898733 90.477455 425.000000
18.898733 91.169991 425.000000
18.898733 91.862518 425.000000
18.854265 92.337273 424.000000
18.854265 93.028175 424.000000
18.761288 93.256920 421.909088
18.691383 93.594376 420.337036
18.691383 94.279305 420.337036
18.560476 94.299149 417.393158
18.471115 94.521996 415.383575
18.471115 95.198860 415.383575
18.326477 95.124969 412.130951
18.326477 95.796539 412.130951
18.326477 96.468094 412.130951
18.126450 96.079414 407.632660
17.609173 93.982857 396.000000
17.609173 94.628136 396.000000
17.609173 95.273415 396.000000
17.842258 97.188339 401.241730
17.842258 97.842155 401.241730
17.842258 98.495972 401.241730
17.754885 98.664246 399.276825
17.754885 99.314857 399.276825
17.671896 99.498230 397.410553
17.475771 99.034363 393.000000
17.431301 99.421127 392.000000
17.431301 100.059883 392.000000
17.431301 100.698647 392.000000
17.386833 101.078888 391.000000
17.386833 101.716019 391.000000
17.386833 102.353149 391.000000
17.342365 102.726875 390.000000
17.342365 103.362373 390.000000
17.342365 103.997871 390.000000
17.253431 104.096794 388.000000
17.253431 104.729034 388.000000
17.208963 105.089729 387.000000
17.164495 105.447159 386.000000
17.164495 106.076141 386.000000
17.164495 106.705124 386.000000
17.164495 107.334106 386.000000
17.164495 107.963081 386.000000
17.075562 108.029411 384.000000
17.031094 108.372185 383.000000
17.031094 108.996284 383.000000
17.031094 109.620377 383.000000
16.942158 109.668777 381.000000
16.942158 110.289612 381.000000
16.942158 110.910446 381.000000
16.942158 111.531281 381.000000
16.942158 112.152115 381.000000
16.942158 112.772949 381.000000
16.942158 113.393784 381.000000
16.991074 114.343803 382.100006
16.991074 114.966415 382.100006
16.991074 115.589050 382.100006
16.973730 116.093056 381.709991
16.973730 116.715050 381.709991
16.963547 117.266640 381.480988
16.956793 117.841331 381.329102
16.956793 118.462700 381.329102
16.950083 119.036957 381.178223
16.950876 119.663673 381.196045
16.950876 120.284821 381.196045
16.950876 120.905975 381.196045
16.715504 119.839668 375.902924
16.715504 120.452187 375.902924
16.715504 121.064720 375.902924
16.608040 120.894989 373.486267
16.608040 121.503593 373.486267
16.503490 121.343452 371.135101
16.400082 121.184113 368.809631
16.400082 121.785088 368.809631
16.301327 121.649086 366.588806
16.206434 121.534843 364.454865
16.206434 122.128716 364.454865
16.114735 122.028168 362.392639
16.023418 121.923859 360.339111
16.023418 122.511032 360.339111
15.936918 122.433655 358.393860
15.519196 119.793251 349.000000
15.519196 120.361946 349.000000
15.519196 120.930634 349.000000
15.474728 121.151192 348.000000
15.474728 121.718246 348.000000
15.430260 121.933914 347.000000
15.385793 122.146324 346.000000
15.385793 122.710121 346.000000
15.385793 123.273926 346.000000
15.296858 123.121902 344.000000
15.252389 123.322899 343.000000
15.252389 123.881813 343.000000
15.252389 124.440727 343.000000
15.207921 124.635223 342.000000
15.207921 125.192505 342.000000
15.207921 125.749794 342.000000
15.163453 125.937759 341.000000
15.163453 126.493408 341.000000
15.118986 126.676491 340.000000
15.118986 127.230515 340.000000
15.118986 127.784538 340.000000
15.118986 128.338562 340.000000
15.118986 128.892593 340.000000
15.118986 129.446609 340.000000
15.074518 129.618286 339.000000
15.074518 130.170685 339.000000
15.074518 130.723083 339.000000
15.074518 131.275467 339.000000
15.074518 131.827866 339.000000
15.074518 132.380264 339.000000
15.074518 132.932663 339.000000
15.030051 133.091293 338.000000
15.030051 133.642059 338.000000
15.030051 134.192825 338.000000
15.030051 134.743591 338.000000
15.030051 135.294357 338.000000
14.985583 135.443222 337.000000
14.985583 135.992355 337.000000
14.985583 136.541489 337.000000
14.985583 137.090637 337.000000
14.985583 137.639771 337.000000
14.941116 137.778839 336.000000
14.941116 138.326355 336.000000
14.941116 138.873856 336.000000
14.941116 139.421371 336.000000
14.941116 139.968872 336.000000
14.896648 140.098190 335.000000
14.896648 140.644073 335.000000
14.896648 141.189957 335.000000
14.896648 141.735825 335.000000
14.896648 142.281708 335.000000
14.896648 142.827591 335.000000
14.896648 143.373459 335.000000
14.852181 143.489731 334.000000
14.852181 144.033981 334.000000
14.852181 144.578232 334.000000
14.852181 145.122482 334.000000
14.852181 145.666718 334.000000
14.807714 145.773209 333.000000
14.807714 146.315826 333.000000
14.807714 146.858444 333.000000
14.807714 147.401077 333.000000
14.807714 147.943695 333.000000
14.807714 148.486313 333.000000
14.807714 149.028931 333.000000
14.807714 149.571548 333.000000
14.807714 150.114166 333.000000
14.807714 150.656784 333.000000
14.807714 151.199402 333.000000
14.807714 151.742020 333.000000
14.807714 152.284637 333.000000
14.807714 152.827271 333.000000
14.807714 153.369888 333.000000
14.807714 153.912506 333.000000
14.807714 154.455124 333.000000
14.807714 154.997742 333.000000
14.807714 155.540359 333.000000
14.807714 156.082977 333.000000
14.807714 156.625595 333.000000
14.807714 157.168213 333.000000
14.807714 157.710831 333.000000
14.807714 158.253464 333.000000
14.807714 158.796082 333.000000
14.807714 159.338699 333.000000
14.852181 160.361435 334.000000
14.852181 160.905685 334.000000
14.852181 161.449936 334.000000
14.852181 161.994186 334.000000
14.852181 162.538437 334.000000
14.852181 163.082687 334.000000
14.807714 163.137024 333.000000
14.807714 163.679657 333.000000
14.807714 164.222275 333.000000
14.807714 164.764893 333.000000
14.807714 165.307510 333.000000
14.807714 165.850128 333.000000
14.807714 166.392746 333.000000
14.807714 166.935364 333.000000
14.763246 166.975052 332.000000
14.763246 167.516037 332.000000
14.807714 168.563217 333.000000
14.807714 169.105850 333.000000
14.807714 169.648468 333.000000
14.807714 170.191086 333.000000
14.807714 170.733704 333.000000
14.807714 171.276321 333.000000
14.807714 171.818939 333.000000
14.807714 172.361557 333.000000
14.763246 172.384949 332.000000
14.763246 172.925934 332.000000
14.763246 173.466919 332.000000
14.718779 173.483795 331.000000
14.718779 174.023148 331.000000
14.718779 174.562515 331.000000
14.718779 175.101868 331.000000
14.718779 175.641235 331.000000
14.718779 176.180588 331.000000
14.721395 176.751373 331.058838
14.721395 177.290817 331.058838
14.721395 177.830276 331.058838
14.708688 178.215790 330.773102
14.656267 178.117691 329.594238
14.656267 178.654770 329.594238
14.644065 179.042648 329.319824
14.585374 178.859573 328.000000
14.585374 179.394043 328.000000
14.585374 179.928513 328.000000
14.585374 180.462982 328.000000
14.585374 180.997467 328.000000
14.585374 181.531937 328.000000
14.585374 182.066406 328.000000
14.585374 182.600876 328.000000
14.585374 183.135345 328.000000
14.540907 183.109848 327.000000
14.540907 183.642685 327.000000
14.540907 184.175537 327.000000
14.496439 184.143509 326.000000
14.496439 184.674728 326.000000
14.496439 185.205948 326.000000
14.496439 185.737152 326.000000
14.496439 186.268372 326.000000
14.496439 186.799576 326.000000
14.496439 187.330795 326.000000
14.451972 187.285736 325.000000
14.451972 187.815323 325.000000
14.451972 188.344910 325.000000
14.451972 188.874496 325.000000
14.451972 189.404068 325.000000
14.451972 189.933655 325.000000
14.407504 189.877197 324.000000
14.407504 190.405151 324.000000
14.407504 190.933105 324.000000
14.407504 191.461060 324.000000
14.407504 191.989014 324.000000
14.407504 192.516968 324.000000
14.363037 192.449097 323.000000
14.363037 192.975433 323.000000
14.363037 193.501755 323.000000
14.363037 194.028076 323.000000
14.363037 194.554398 323.000000
14.363037 195.080719 323.000000
14.363037 195.607056 323.000000
14.363037 196.133377 323.000000
14.363037 196.659698 323.000000
14.363037 197.186020 323.000000
14.363037 197.712341 323.000000
14.363037 198.238678 323.000000
14.363037 198.764999 323.000000
14.363037 199.291321 323.000000
14.363037 199.817642 323.000000
14.363037 200.343964 323.000000
14.363037 200.870285 323.000000
14.363037 201.396622 323.000000
14.363037 201.922943 323.000000
14.363037 202.449265 323.000000
14.363037 202.975586 323.000000
14.363037 203.501907 323.000000
14.363037 204.028244 323.000000
14.363037 204.554565 323.000000
14.363037 205.080887 323.000000
14.318569 204.970657 322.000000
14.318569 205.495346 322.000000
14.318569 206.020050 322.000000
14.318569 206.544739 322.000000
14.318569 207.069443 322.000000
14.185166 205.660034 319.000000
14.185166 206.179840 319.000000
14.185166 206.699646 319.000000
14.185166 207.219452 319.000000
14.185166 207.739258 319.000000
14.229634 208.911911 320.000000
14.229634 209.433350 320.000000
14.229634 209.954788 320.000000
14.229634 210.476227 320.000000
14.229634 210.997665 320.000000
14.229634 211.519089 320.000000
14.229634 212.040527 320.000000
14.229634 212.561966 320.000000
20.462852 40.252682 443.914825
20.462852 40.976036 443.914825
20.496967 41.768906 444.654907
20.496967 42.493465 444.654907
20.496967 43.218029 444.654907
20.512875 43.976692 445.000000
20.512875 44.701813 445.000000
20.512875 45.426933 445.000000
20.466780 46.048344 444.000000
20.466780 46.771835 444.000000
20.466780 47.495327 444.000000
20.466780 48.218819 444.000000
20.420683 48.832081 443.000000
20.420683 49.553944 443.000000
20.420683 50.275806 443.000000
20.420683 50.997673 443.000000
20.374586 51.602783 442.000000
20.374586 52.323017 442.000000
20.374586 53.043251 442.000000
20.374586 53.763485 442.000000
20.374586 54.483719 442.000000
20.328491 55.079060 441.000000
20.328491 55.797665 441.000000
20.328491 56.516266 441.000000
20.328491 57.234871 441.000000
20.328491 57.953476 441.000000
20.328491 58.672081 441.000000
20.282394 59.256008 440.000000
20.282394 59.972984 440.000000
20.282394 60.689957 440.000000
20.282394 61.406933 440.000000
20.282394 62.123905 440.000000
20.282394 62.840881 440.000000
20.236296 63.413403 439.000000
20.236296 64.128746 439.000000
20.236296 64.844093 439.000000
20.236296 65.559441 439.000000
20.236296 66.274780 439.000000
20.190201 66.837532 438.000000
20.190201 67.551247 438.000000
20.190201 68.264961 438.000000
20.190201 68.978676 438.000000
20.190201 69.692390 438.000000
20.144104 70.245369 437.000000
20.144104 70.957451 437.000000
20.144104 71.669540 437.000000
20.144104 72.381622 437.000000
20.144104 73.093712 437.000000
20.144104 73.805794 437.000000
20.144104 74.517883 437.000000
20.144104 75.229965 437.000000
20.144104 75.942055 437.000000
20.144104 76.654144 437.000000
20.098007 77.189186 436.000000
20.098007 77.899643 436.000000
20.098007 78.610100 436.000000
20.051912 79.138626 435.000000
20.051912 79.847450 435.000000
20.005816 80.371094 434.000000
19.913622 80.704659 432.000000
19.913622 81.408600 432.000000
19.913622 82.112534 432.000000
19.867527 82.624763 431.000000
19.867527 83.327072 431.000000
19.821430 83.834427 430.000000
19.775333 84.338509 429.000000
19.729239 84.839333 428.000000
19.729239 85.536758 428.000000
19.683142 86.032700 427.000000
19.683142 86.728493 427.000000
19.683142 87.424278 427.000000
19.637045 87.913704 426.000000
19.637045 88.607864 426.000000
19.637045 89.302025 426.000000
19.590948 89.784927 425.000000
19.590948 90.477455 425.000000
19.590948 91.169991 425.000000
19.590948 91.862518 425.000000
19.590948 92.555054 425.000000
19.590948 93.247589 425.000000
19.432436 93.180038 421.561279
19.381620 93.621513 420.458923
19.381620 94.306641 420.458923
19.298901 94.586349 418.664398
19.238106 94.968445 417.345520
19.238106 95.648499 417.345520
19.119570 95.735046 414.774078
19.008940 95.853050 412.374084
19.008940 96.525009 412.374084
18.776413 96.008003 407.329712
18.254154 93.982857 396.000000
18.254154 94.628136 396.000000
18.254154 95.273415 396.000000
18.495779 97.188339 401.241730
18.495779 97.842155 401.241730
18.495779 98.495972 401.241730
18.405205 98.664246 399.276825
18.405205 99.314857 399.276825
18.319176 99.498230 397.410553
18.023672 98.530373 391.000000
17.977575 98.913872 390.000000
17.977575 99.549370 390.000000
17.977575 100.184875 390.000000
17.885384 100.303352 388.000000
17.885384 100.935593 388.000000
17.839287 101.306053 387.000000
17.839287 101.936668 387.000000
17.839287 102.567276 387.000000
17.839287 103.197891 387.000000
17.793190 103.560211 386.000000
17.793190 104.189194 386.000000
17.747093 104.546631 385.000000
17.747093 105.173981 385.000000
17.747093 105.801338 385.000000
17.700998 106.152245 384.000000
17.654902 106.499901 383.000000
17.654902 107.124001 383.000000
17.608805 107.466766 382.000000
17.562710 107.806274 381.000000
17.562710 108.427109 381.000000
17.562710 109.047943 381.000000
17.516613 109.380928 380.000000
17.516613 110.000137 380.000000
17.516613 110.619339 380.000000
17.516613 111.238548 380.000000
17.516613 111.857750 380.000000
17.516613 112.476959 380.000000
17.496571 112.966759 379.565216
17.542265 113.881905 380.556519
17.542265 114.502014 380.556519
17.542265 115.122139 380.556519
17.531002 115.667923 380.312164
17.531002 116.287636 380.312164
17.523224 116.855476 380.143402
17.519274 117.448448 380.057739
17.519274 118.067741 380.057739
17.514931 118.657616 379.963501
17.514761 119.275612 379.959839
17.514761 119.894753 379.959839
17.203991 118.375572 373.218109
17.327751 119.839668 375.902924
17.327751 120.452187 375.902924
17.327751 121.064720 375.902924
17.216354 120.894989 373.486267
17.216354 121.503593 373.486267
17.107973 121.343452 371.135101
17.000778 121.184113 368.809631
17.000778 121.785088 368.809631
16.571350 119.294655 359.493744
16.571350 119.880455 359.493744
16.571350 120.466240 359.493744
16.514336 120.635544 358.256897
16.133722 118.425529 350.000000
16.133722 118.995850 350.000000
16.133722 119.566170 350.000000
16.087626 119.793251 349.000000
16.087626 120.361946 349.000000
16.087626 120.930634 349.000000
16.041531 121.151192 348.000000
16.041531 121.718246 348.000000
15.995434 121.933914 347.000000
15.949337 122.146324 346.000000
15.949337 122.710121 346.000000
15.949337 123.273926 346.000000
15.857144 123.121902 344.000000
15.764951 122.963371 342.000000
15.764951 123.520653 342.000000
15.764951 124.077942 342.000000
15.718854 124.270790 341.000000
15.718854 124.826447 341.000000
15.718854 125.382103 341.000000
15.672758 125.568436 340.000000
15.672758 126.122459 340.000000
15.672758 126.676491 340.000000
15.672758 127.230515 340.000000
15.672758 127.784538 340.000000
15.626662 127.961098 339.000000
15.626662 128.513489 339.000000
15.626662 129.065887 339.000000
15.626662 129.618286 339.000000
15.626662 130.170685 339.000000
15.626662 130.723083 339.000000
15.626662 131.275467 339.000000
15.626662 131.827866 339.000000
15.626662 132.380264 339.000000
15.580565 132.540527 338.000000
15.580565 133.091293 338.000000
15.580565 133.642059 338.000000
15.534470 133.795807 337.000000
15.534470 134.344940 337.000000
15.534470 134.894073 337.000000
15.534470 135.443222 337.000000
15.534470 135.992355 337.000000
15.534470 136.541489 337.000000
15.488373 136.683838 336.000000
15.488373 137.231339 336.000000
15.488373 137.778839 336.000000
15.488373 138.326355 336.000000
15.488373 138.873856 336.000000
15.442277 139.006439 335.000000
15.442277 139.552307 335.000000
15.442277 140.098190 335.000000
15.442277 140.644073 335.000000
15.442277 141.189957 335.000000
15.442277 141.735825 335.000000
15.396181 141.856979 334.000000
15.396181 142.401230 334.000000
15.396181 142.945480 334.000000
15.396181 143.489731 334.000000
15.396181 144.033981 334.000000
15.396181 144.578232 334.000000
15.350084 144.687973 333.000000
15.350084 145.230591 333.000000
15.350084 145.773209 333.000000
15.350084 146.315826 333.000000
15.350084 146.858444 333.000000
15.350084 147.401077 333.000000
15.350084 147.943695 333.000000
15.350084 148.486313 333.000000
15.350084 149.028931 333.000000
15.350084 149.571548 333.000000
15.350084 150.114166 333.000000
15.350084 150.656784 333.000000
15.350084 151.199402 333.000000
15.350084 151.742020 333.000000
15.350084 152.284637 333.000000
15.350084 152.827271 333.000000
15.350084 153.369888 333.000000
15.350084 153.912506 333.000000
15.350084 154.455124 333.000000
15.350084 154.997742 333.000000
15.350084 155.540359 333.000000
15.350084 156.082977 333.000000
15.350084 156.625595 333.000000
15.350084 157.168213 333.000000
15.350084 157.710831 333.000000
15.350084 158.253464 333.000000
15.350084 158.796082 333.000000
15.350084 159.338699 333.000000
15.350084 159.881317 333.000000
15.350084 160.423935 333.000000
15.350084 160.966553 333.000000
15.350084 161.509171 333.000000
15.350084 162.051788 333.000000
15.350084 162.594406 333.000000
15.350084 163.137024 333.000000
15.350084 163.679657 333.000000
15.350084 164.222275 333.000000
15.350084 164.764893 333.000000
15.350084 165.307510 333.000000
15.303988 165.352081 332.000000
15.303988 165.893066 332.000000
15.303988 166.434052 332.000000
15.303988 166.975052 332.000000
15.303988 167.516037 332.000000
15.303988 168.057022 332.000000
15.303988 168.598022 332.000000
15.303988 169.139008 332.000000
15.303988 169.679993 332.000000
15.303988 170.220978 332.000000
15.303988 170.761978 332.000000
15.303988 171.302963 332.000000
15.303988 171.843948 332.000000
15.257892 171.865707 331.000000
15.257892 172.405075 331.000000
15.257892 172.944427 331.000000
15.211796 172.959671 330.000000
15.217557 173.563126 330.125000
15.217557 174.101059 330.125000
15.217557 174.638992 330.125000
15.233402 175.359329 330.468750
15.233402 175.897827 330.468750
15.233402 176.436325 330.468750
15.220646 176.826614 330.191986
15.220646 177.364639 330.191986
15.207099 177.744354 329.898102
15.193090 178.117691 329.594238
15.193090 178.654770 329.594238
15.180441 179.042648 329.319824
15.119601 178.859573 328.000000
15.119601 179.394043 328.000000
15.119601 179.928513 328.000000
15.119601 180.462982 328.000000
15.119601 180.997467 328.000000
15.119601 181.531937 328.000000
15.119601 182.066406 328.000000
15.119601 182.600876 328.000000
15.119601 183.135345 328.000000
15.073505 183.109848 327.000000
15.073505 183.642685 327.000000
15.073505 184.175537 327.000000
15.027409 184.143509 326.000000
15.027409 184.674728 326.000000
15.027409 185.205948 326.000000
15.027409 185.737152 326.000000
15.027409 186.268372 326.000000
15.027409 186.799576 326.000000
15.027409 187.330795 326.000000
14.981313 187.285736 325.000000
14.981313 187.815323 325.000000
14.981313 188.344910 325.000000
14.981313 188.874496 325.000000
14.981313 189.404068 325.000000
14.981313 189.933655 325.000000
14.889120 189.291153 323.000000
14.889120 189.817474 323.000000
14.889120 190.343811 323.000000
14.889120 190.870132 323.000000
14.889120 191.396454 323.000000
14.889120 191.922775 323.000000
14.889120 192.449097 323.000000
14.889120 192.975433 323.000000
14.843024 192.902679 322.000000
14.843024 193.427368 322.000000
14.843024 193.952057 322.000000
14.843024 194.476761 322.000000
14.843024 195.001450 322.000000
14.843024 195.526154 322.000000
14.843024 196.050842 322.000000
14.796927 195.965057 321.000000
14.796927 196.488129 321.000000
14.796927 197.011200 321.000000
14.796927 197.534256 321.000000
14.796927 198.057327 321.000000
14.796927 198.580399 321.000000
14.796927 199.103455 321.000000
14.843024 200.248398 322.000000
14.843024 200.773102 322.000000
14.889120 201.922943 323.000000
14.889120 202.449265 323.000000
14.889120 202.975586 323.000000
14.889120 203.501907 323.000000
14.889120 204.028244 323.000000
14.889120 204.554565 323.000000
14.843024 204.445953 322.000000
14.843024 204.970657 322.000000
14.843024 205.495346 322.000000
14.750832 204.740433 320.000000
14.750832 205.261856 320.000000
14.750832 205.783295 320.000000
14.704736 205.660034 319.000000
14.704736 206.179840 319.000000
14.704736 206.699646 319.000000
14.704736 207.219452 319.000000
14.704736 207.739258 319.000000
14.750832 208.911911 320.000000
14.750832 209.433350 320.000000
14.750832 209.954788 320.000000
14.750832 210.476227 320.000000
14.750832 210.997665 320.000000
14.750832 211.519089 320.000000
14.750832 212.040527 320.000000
14.750832 212.561966 320.000000
14.704736 212.417511 319.000000
21.181808 40.244953 443.829620
21.181808 40.968170 443.829620
21.224899 41.776199 444.732513
21.224899 42.500885 444.732513
21.224899 43.225571 444.732513
21.146069 43.787022 443.080750
21.133656 44.482887 442.820648
21.133656 45.204460 442.820648
21.124966 45.907146 442.638580
21.114473 46.605259 442.418701
21.106228 47.307693 442.245941
21.106228 48.028328 442.245941
21.142216 48.832081 443.000000
21.142216 49.553944 443.000000
21.142216 50.275806 443.000000
21.142216 50.997673 443.000000
21.094490 51.602783 442.000000
21.094490 52.323017 442.000000
21.094490 53.043251 442.000000
21.046766 53.641853 441.000000
21.046766 54.360455 441.000000
21.046766 55.079060 441.000000
20.999041 55.671135 440.000000
20.999041 56.388111 440.000000
20.999041 57.105083 440.000000
20.999041 57.822060 440.000000
20.999041 58.539036 440.000000
20.999041 59.256008 440.000000
20.999041 59.972984 440.000000
20.999041 60.689957 440.000000
20.999041 61.406933 440.000000
20.951313 61.982716 439.000000
20.951313 62.698059 439.000000
20.951313 63.413403 439.000000
20.951313 64.128746 439.000000
20.951313 64.844093 439.000000
20.903589 65.410095 438.000000
20.903589 66.123817 438.000000
20.903589 66.837532 438.000000
20.903589 67.551247 438.000000
20.903589 68.264961 438.000000
20.855864 68.821198 437.000000
20.855864 69.533279 437.000000
20.855864 70.245369 437.000000
20.855864 70.957451 437.000000
20.855864 71.669540 437.000000
20.855864 72.381622 437.000000
20.855864 73.093712 437.000000
20.855864 73.805794 437.000000
20.808140 74.347359 436.000000
20.808140 75.057816 436.000000
20.808140 75.768272 436.000000
20.808140 76.478729 436.000000
20.808140 77.189186 436.000000
20.808140 77.899643 436.000000
20.760414 78.429794 435.000000
20.760414 79.138626 435.000000
20.760414 79.847450 435.000000
20.664965 80.185905 433.000000
20.617239 80.704659 432.000000
20.617239 81.408600 432.000000
20.617239 82.112534 432.000000
20.569513 82.624763 431.000000
20.569513 83.327072 431.000000
20.521790 83.834427 430.000000
20.474064 84.338509 429.000000
20.426338 84.839333 428.000000
20.426338 85.536758 428.000000
20.378614 86.032700 427.000000
20.378614 86.728493 427.000000
20.378614 87.424278 427.000000
20.330889 87.913704 426.000000
20.330889 88.607864 426.000000
20.330889 89.302025 426.000000
20.283165 89.784927 425.000000
20.283165 90.477455 425.000000
20.283165 91.169991 425.000000
20.283165 91.862518 425.000000
20.283165 92.555054 425.000000
20.283165 93.247589 425.000000
20.119051 93.180038 421.561279
20.066439 93.621513 420.458923
20.066439 94.306641 420.458923
19.980795 94.586349 418.664398
19.917852 94.968445 417.345520
19.917852 95.648499 417.345520
19.795130 95.735046 414.774078
19.680590 95.853050 412.374084
19.680590 96.525009 412.374084
18.899136 93.337585 396.000000
18.899136 93.982857 396.000000
18.899136 94.628136 396.000000
18.851412 95.032822 395.000000
19.149298 97.188339 401.241730
19.149298 97.842155 401.241730
19.149298 98.495972 401.241730
19.055523 98.664246 399.276825
19.055523 99.314857 399.276825
18.966454 99.498230 397.410553
18.660509 98.530373 391.000000
18.612785 98.913872 390.000000
18.612785 99.549370 390.000000
18.612785 100.184875 390.000000
18.517334 100.303352 388.000000
18.517334 100.935593 388.000000
18.469610 101.306053 387.000000
18.469610 101.936668 387.000000
18.469610 102.567276 387.000000
18.469610 103.197891 387.000000
18.278709 102.755341 383.000000
18.278709 103.379433 383.000000
18.278709 104.003525 383.000000
18.230984 104.354446 382.000000
18.230984 104.976906 382.000000
18.230984 105.599373 382.000000
18.230984 106.221840 382.000000
18.230984 106.844299 382.000000
18.183260 107.185440 381.000000
18.135534 107.523315 380.000000
18.135534 108.142517 380.000000
18.135534 108.761726 380.000000
18.283049 110.270630 383.090912
18.283049 110.894875 383.090912
18.283049 111.519119 383.090912
18.261354 112.010300 382.636353
18.261354 112.633797 382.636353
18.107693 112.304291 379.416656
18.083660 112.772667 378.913055
18.091805 113.441170 379.083710
18.091805 114.058884 379.083710
18.091805 114.676582 379.083710
18.085867 115.256470 378.959320
18.085867 115.873978 378.959320
18.076128 116.428757 378.755249
17.921768 116.046440 375.520905
17.921768 116.658333 375.520905
17.810410 116.541573 373.187561
17.733356 116.642853 371.573029
17.733356 117.248322 371.573029
17.729248 117.826485 371.486938
17.729248 118.431831 371.486938
17.729248 119.037155 371.486938
17.619114 118.899277 369.179260
17.517141 118.809219 367.042603
17.517141 119.407318 367.042603
17.423351 119.362877 365.077393
17.336246 119.358063 363.252258
17.336246 119.949974 363.252258
16.703781 116.144241 350.000000
16.703781 116.714561 350.000000
16.703781 117.284889 350.000000
16.703781 117.855209 350.000000
16.703781 118.425529 350.000000
16.703781 118.995850 350.000000
16.608332 118.882942 348.000000
16.560606 119.106758 347.000000
16.560606 119.672188 347.000000
16.512882 119.891113 346.000000
16.512882 120.454910 346.000000
16.512882 121.018715 346.000000
16.512882 121.582520 346.000000
16.465157 121.793297 345.000000
16.465157 122.355469 345.000000
16.465157 122.917641 345.000000
16.369705 122.763985 343.000000
16.321980 122.963371 342.000000
16.321980 123.520653 342.000000
16.321980 124.077942 342.000000
16.274256 124.270790 341.000000
16.274256 124.826447 341.000000
16.274256 125.382103 341.000000
16.226530 125.568436 340.000000
16.226530 126.122459 340.000000
16.226530 126.676491 340.000000
16.226530 127.230515 340.000000
16.226530 127.784538 340.000000
16.178804 127.961098 339.000000
16.178804 128.513489 339.000000
16.178804 129.065887 339.000000
16.178804 129.618286 339.000000
16.178804 130.170685 339.000000
16.178804 130.723083 339.000000
16.178804 131.275467 339.000000
16.178804 131.827866 339.000000
16.178804 132.380264 339.000000
16.131081 132.540527 338.000000
16.131081 133.091293 338.000000
16.131081 133.642059 338.000000
16.083355 133.795807 337.000000
16.083355 134.344940 337.000000
16.083355 134.894073 337.000000
16.083355 135.443222 337.000000
16.083355 135.992355 337.000000
16.083355 136.541489 337.000000
16.035631 136.683838 336.000000
16.035631 137.231339 336.000000
16.035631 137.778839 336.000000
16.035631 138.326355 336.000000
15.987906 138.460556 335.000000
