37.284752 193.512680 304.000000
37.284752 194.008041 304.000000
37.039455 193.223770 302.000000
37.039455 193.715881 302.000000
37.039455 194.207977 302.000000
37.039455 194.700089 302.000000
37.039455 195.192184 302.000000
37.039455 195.684296 302.000000
37.039455 196.176407 302.000000
37.039455 196.668503 302.000000
36.991138 196.903427 301.606049
36.991138 197.394882 301.606049
36.926495 197.540543 301.078979
36.882660 197.796066 300.721588
36.882660 198.286087 300.721588
36.833618 198.511795 300.321716
36.786251 198.745270 299.935516
36.786251 199.234009 299.935516
36.671513 199.099808 299.000000
36.671513 199.587021 299.000000
36.671513 200.074234 299.000000
36.548866 199.890671 298.000000
36.548866 200.376266 298.000000
36.548866 200.861847 298.000000
36.548866 201.347443 298.000000
36.548866 201.833023 298.000000
36.548866 202.318619 298.000000
36.426220 202.123642 297.000000
36.426220 202.607605 297.000000
36.426220 203.091568 297.000000
36.426220 203.575516 297.000000
36.426220 204.059479 297.000000
36.426220 204.543442 297.000000
36.303570 204.337067 296.000000
36.303570 204.819397 296.000000
36.303570 205.301727 296.000000
36.180927 205.088837 295.000000
36.180927 205.569534 295.000000
36.180927 206.050232 295.000000
36.180927 206.530930 295.000000
36.180927 207.011627 295.000000
44.332375 51.528851 356.725311
44.332375 52.110134 356.725311
44.332375 52.691410 356.725311
44.271973 53.200108 356.239288
44.233494 53.733852 355.929657
44.233494 54.313835 355.929657
45.066574 55.927673 362.633118
45.066574 56.518578 362.633118
45.066574 57.109482 362.633118
45.065060 57.698448 362.620941
45.251076 58.529938 364.117737
45.251076 59.123264 364.117737
45.251076 59.716587 364.117737
44.258915 58.987583 356.134216
44.258915 59.567898 356.134216
44.258915 60.148209 356.134216
45.475323 62.397583 365.922180
45.475323 62.993855 365.922180
45.475323 63.590118 365.922180
45.303410 63.943733 364.538849
44.980095 64.077156 361.937256
44.980095 64.666931 361.937256
44.956005 65.221756 361.743439
44.929836 65.772911 361.532867
44.929836 66.362015 361.532867
44.908257 66.918976 361.359222
44.908257 67.507813 361.359222
44.908257 68.096642 361.359222
44.882660 68.646317 361.153259
44.726273 68.993576 359.894867
44.726273 69.580017 359.894867
44.557686 69.901978 358.538300
44.368256 70.186554 357.014038
44.368256 70.768303 357.014038
44.316208 71.266357 356.595245
44.263668 71.762238 356.172455
44.263668 72.342621 356.172455
44.218582 72.848724 355.809662
44.159225 73.329941 355.332062
44.159225 73.908951 355.332062
44.117043 74.416801 354.992615
44.117043 74.995262 354.992615
44.117043 75.573715 354.992615
44.077255 76.083496 354.672455
44.056118 76.624664 354.502380
44.040089 77.174240 354.373413
44.040089 77.751686 354.373413
44.020424 78.294159 354.215179
44.003033 78.840179 354.075226
44.003033 79.417137 354.075226
43.974949 79.943054 353.849243
43.954300 80.481834 353.683075
43.954300 81.058151 353.683075
43.928654 81.586853 353.476746
43.923340 82.152893 353.433960
43.923340 82.728806 353.433960
43.914608 83.288162 353.363708
43.903263 83.842308 353.272430
43.903263 84.417953 353.272430
43.900200 84.987679 353.247772
43.900200 85.563293 353.247772
43.900200 86.138901 353.247772
43.886150 86.686768 353.134735
43.879288 87.248543 353.079498
43.879288 87.823891 353.079498
43.846462 88.333099 352.815369
43.810993 88.836082 352.529968
43.810993 89.410522 352.529968
43.787716 89.937157 352.342651
43.756760 90.447304 352.093567
43.756760 91.021034 352.093567
43.731750 91.542419 351.892303
43.716816 92.084366 351.772156
43.745132 92.717590 352.000000
43.745132 93.291168 352.000000
43.745132 93.864746 352.000000
43.745132 94.438324 352.000000
43.745132 95.011909 352.000000
43.745132 95.585487 352.000000
43.745132 96.159065 352.000000
43.745132 96.732643 352.000000
43.745132 97.306229 352.000000
43.745132 97.879807 352.000000
43.745132 98.453384 352.000000
43.745132 99.026962 352.000000
43.745132 99.600540 352.000000
43.745132 100.174126 352.000000
43.620853 100.461494 351.000000
43.620853 101.033440 351.000000
43.620853 101.605392 351.000000
43.620853 102.177345 351.000000
43.745132 103.042023 352.000000
43.745132 103.615601 352.000000
43.745132 104.189178 352.000000
43.869411 105.060379 353.000000
43.869411 105.635590 353.000000
43.869411 106.210800 353.000000
43.869411 106.786011 353.000000
43.869411 107.361221 353.000000
43.496582 107.019112 350.000000
43.496582 107.589439 350.000000
43.496582 108.159760 350.000000
43.496582 108.730080 350.000000
43.496582 109.300400 350.000000
43.496582 109.870720 350.000000
43.496582 110.441040 350.000000
43.496582 111.011360 350.000000
43.496582 111.581680 350.000000
43.496582 112.152000 350.000000
43.496582 112.722321 350.000000
43.496582 113.292641 350.000000
43.496582 113.862961 350.000000
43.496582 114.433281 350.000000
43.496582 115.003601 350.000000
43.496582 115.573921 350.000000
43.496582 116.144241 350.000000
43.147755 115.778549 347.193115
43.147755 116.344299 347.193115
43.112526 116.814598 346.909668
43.068466 117.259933 346.555145
43.068466 117.824638 346.555145
43.034634 118.296349 346.282898
42.992897 118.745323 345.947052
42.992897 119.309052 345.947052
42.964912 119.794739 345.721893
42.948719 120.312729 345.591583
42.948719 120.875870 345.591583
42.912750 121.337296 345.302155
42.874786 121.792122 344.996674
42.815067 122.183861 344.516113
42.815067 122.745247 344.516113
42.772858 123.185066 344.176483
42.739357 123.648979 343.906921
42.739357 124.209381 343.906921
42.699615 124.653748 343.587128
42.155258 152.359467 339.206909
42.155258 152.912201 339.206909
42.155258 153.464935 339.206909
42.310558 154.585068 340.456543
42.310558 155.139832 340.456543
42.310558 155.694595 340.456543
42.290447 156.175095 340.294708
42.304684 156.782379 340.409271
42.304684 157.337067 340.409271
42.304684 157.891754 340.409271
42.502373 159.186874 342.000000
42.502373 159.744156 342.000000
42.502373 160.301437 342.000000
42.502373 160.858734 342.000000
42.502373 161.416016 342.000000
42.502373 161.973297 342.000000
42.502373 162.530579 342.000000
42.502373 163.087860 342.000000
42.502373 163.645157 342.000000
42.378098 163.722305 341.000000
42.378098 164.277969 341.000000
42.253822 164.350235 340.000000
42.129543 164.419250 339.000000
42.129543 164.971649 339.000000
42.005272 165.035767 338.000000
42.005272 165.586533 338.000000
41.880993 165.645767 337.000000
41.880993 166.194901 337.000000
41.880993 166.744034 337.000000
41.756714 166.796753 336.000000
41.756714 167.344269 336.000000
41.756714 167.891769 336.000000
41.756714 168.439285 336.000000
41.756714 168.986786 336.000000
41.756714 169.534302 336.000000
41.632442 169.575623 335.000000
41.632442 170.121490 335.000000
41.383888 169.648468 333.000000
41.259613 169.679993 332.000000
41.259613 170.220978 332.000000
41.011059 169.733292 330.000000
40.762508 169.239075 328.000000
40.762508 169.773544 328.000000
40.638233 169.788788 327.000000
40.638233 170.321625 327.000000
40.638233 170.854477 327.000000
40.638233 171.387314 327.000000
40.513958 171.394409 326.000000
40.513958 171.925613 326.000000
40.513958 172.456833 326.000000
40.265404 171.926758 324.000000
40.265404 172.454712 324.000000
40.141132 172.448776 323.000000
40.141132 172.975098 323.000000
40.141132 173.501419 323.000000
40.016853 173.488953 322.000000
39.892578 173.473251 321.000000
39.892578 173.996323 321.000000
39.768303 173.975708 320.000000
39.768303 174.497147 320.000000
39.768303 175.018585 320.000000
39.768303 175.540009 320.000000
39.644024 175.511261 319.000000
39.519749 175.479233 318.000000
39.519749 175.997421 318.000000
39.519749 176.515594 318.000000
39.519749 177.033768 318.000000
39.519749 177.551941 318.000000
39.395473 177.510147 317.000000
39.395473 178.026703 317.000000
39.395473 178.543243 317.000000
39.395473 179.059799 317.000000
39.271198 179.009857 316.000000
39.271198 179.524765 316.000000
39.271198 180.039688 316.000000
39.146919 179.983231 315.000000
39.146919 180.496521 315.000000
39.022648 180.435181 314.000000
39.022648 180.946838 314.000000
39.022648 181.458496 314.000000
39.022648 181.970169 314.000000
38.898369 181.900665 313.000000
38.898369 182.410690 313.000000
38.898369 182.920731 313.000000
38.774094 182.844711 312.000000
38.774094 183.353119 312.000000
38.774094 183.861511 312.000000
38.649818 183.778976 311.000000
38.649818 184.285751 311.000000
38.649818 184.792526 311.000000
38.525543 184.703476 310.000000
38.525543 185.208618 310.000000
38.525543 185.713760 310.000000
38.401264 185.618195 309.000000
38.401264 186.121704 309.000000
38.401264 186.625214 309.000000
38.276993 186.523132 308.000000
38.276993 187.025009 308.000000
38.276993 187.526886 308.000000
38.276993 188.028778 308.000000
38.152714 187.918549 307.000000
38.152714 188.418808 307.000000
38.152714 188.919052 307.000000
38.028439 188.802307 306.000000
38.028439 189.300934 306.000000
38.028439 189.799561 306.000000
37.904163 189.676285 305.000000
37.904163 190.173279 305.000000
37.904163 190.670273 305.000000
37.904163 191.167267 305.000000
37.904163 191.664261 305.000000
37.904163 192.161255 305.000000
37.904163 192.658249 305.000000
37.904163 193.155243 305.000000
37.779888 193.017303 304.000000
37.779888 193.512680 304.000000
37.779888 194.008041 304.000000
37.531334 193.223770 302.000000
37.531334 193.715881 302.000000
37.531334 194.207977 302.000000
37.531334 194.700089 302.000000
37.531334 195.192184 302.000000
37.531334 195.684296 302.000000
37.531334 196.176407 302.000000
37.531334 196.668503 302.000000
37.482376 196.903427 301.606049
37.482376 197.394882 301.606049
37.416874 197.540543 301.078979
37.372459 197.796066 300.721588
37.372459 198.286087 300.721588
37.322765 198.511795 300.321716
37.274769 198.745270 299.935516
37.274769 199.234009 299.935516
37.158508 199.099808 299.000000
37.158508 199.587021 299.000000
37.158508 200.074234 299.000000
37.034229 199.890671 298.000000
37.034229 200.376266 298.000000
37.034229 200.861847 298.000000
37.034229 201.347443 298.000000
37.034229 201.833023 298.000000
37.034229 202.318619 298.000000
36.909954 202.123642 297.000000
36.909954 202.607605 297.000000
36.909954 203.091568 297.000000
36.909954 203.575516 297.000000
36.785679 203.372406 296.000000
36.785679 203.854736 296.000000
36.785679 204.337067 296.000000
36.661404 204.127441 295.000000
36.661404 204.608139 295.000000
36.661404 205.088837 295.000000
36.661404 205.569534 295.000000
36.537128 205.351761 294.000000
36.537128 205.830841 294.000000
36.537128 206.309906 294.000000
45.657207 55.927673 362.633118
45.657207 56.518578 362.633118
45.657207 57.109482 362.633118
45.655674 57.698448 362.620941
45.844128 58.529938 364.117737
48.599209 62.676373 386.000000
48.599209 63.305355 386.000000
48.599209 63.934338 386.000000
48.851017 64.897850 388.000000
48.851017 65.530090 388.000000
48.851017 66.162331 388.000000
46.071316 62.993855 365.922180
46.071316 63.590118 365.922180
45.897148 63.943733 364.538849
45.569595 64.077156 361.937256
45.569595 64.666931 361.937256
45.545193 65.221756 361.743439
45.518681 65.772911 361.532867
45.518681 66.362015 361.532867
45.496819 66.918976 361.359222
45.496819 67.507813 361.359222
45.496819 68.096642 361.359222
45.470890 68.646317 361.153259
45.312450 68.993576 359.894867
45.312450 69.580017 359.894867
45.141651 69.901978 358.538300
44.949738 70.186554 357.014038
44.949738 70.768303 357.014038
44.897011 71.266357 356.595245
44.843781 71.762238 356.172455
44.843781 72.342621 356.172455
44.798103 72.848724 355.809662
44.737972 73.329941 355.332062
44.737972 73.908951 355.332062
44.695232 74.416801 354.992615
44.695232 74.995262 354.992615
44.695232 75.573715 354.992615
44.654922 76.083496 354.672455
44.633511 76.624664 354.502380
44.617271 77.174240 354.373413
44.617271 77.751686 354.373413
44.597351 78.294159 354.215179
44.579727 78.840179 354.075226
44.579727 79.417137 354.075226
44.551277 79.943054 353.849243
44.530357 80.481834 353.683075
44.530357 81.058151 353.683075
44.504375 81.586853 353.476746
44.498993 82.152893 353.433960
44.498993 82.728806 353.433960
44.490147 83.288162 353.363708
44.478653 83.842308 353.272430
44.478653 84.417953 353.272430
44.475548 84.987679 353.247772
44.475548 85.563293 353.247772
44.475548 86.138901 353.247772
44.461319 86.686768 353.134735
44.454365 87.248543 353.079498
44.454365 87.823891 353.079498
44.421108 88.333099 352.815369
44.385174 88.836082 352.529968
44.385174 89.410522 352.529968
44.361591 89.937157 352.342651
44.330231 90.447304 352.093567
44.330231 91.021034 352.093567
44.304890 91.542419 351.892303
44.289761 92.084366 351.772156
44.318451 92.717590 352.000000
44.318451 93.291168 352.000000
44.318451 93.864746 352.000000
44.318451 94.438324 352.000000
44.318451 95.011909 352.000000
44.318451 95.585487 352.000000
44.318451 96.159065 352.000000
44.318451 96.732643 352.000000
44.318451 97.306229 352.000000
44.318451 97.879807 352.000000
44.318451 98.453384 352.000000
44.318451 99.026962 352.000000
44.318451 99.600540 352.000000
44.318451 100.174126 352.000000
44.192543 100.461494 351.000000
44.192543 101.033440 351.000000
44.192543 101.605392 351.000000
44.192543 102.177345 351.000000
44.318451 103.042023 352.000000
44.318451 103.615601 352.000000
44.318451 104.189178 352.000000
44.444355 105.060379 353.000000
44.444355 105.635590 353.000000
44.444355 106.210800 353.000000
44.444355 106.786011 353.000000
44.444355 107.361221 353.000000
44.066639 107.019112 350.000000
44.066639 107.589439 350.000000
44.066639 108.159760 350.000000
44.066639 108.730080 350.000000
44.066639 109.300400 350.000000
44.066639 109.870720 350.000000
44.066639 110.441040 350.000000
44.066639 111.011360 350.000000
44.066639 111.581680 350.000000
44.066639 112.152000 350.000000
44.066639 112.722321 350.000000
44.066639 113.292641 350.000000
44.066639 113.862961 350.000000
44.066639 114.433281 350.000000
44.066639 115.003601 350.000000
44.066639 115.573921 350.000000
44.066639 116.144241 350.000000
43.632767 115.565422 346.553955
43.632767 116.130127 346.553955
43.590797 116.582573 346.220612
43.553814 117.047363 345.926880
43.553814 117.611038 345.926880
42.719360 154.059570 339.299194
42.719360 154.612457 339.299194
42.719360 155.165329 339.299194
42.759941 155.866150 339.621521
42.859123 156.782379 340.409271
42.859123 157.337067 340.409271
42.859123 157.891754 340.409271
42.918442 158.665741 340.880402
42.918442 159.221207 340.880402
42.918442 159.776657 340.880402
43.059402 160.858734 342.000000
43.059402 161.416016 342.000000
43.059402 161.973297 342.000000
43.437115 163.956284 345.000000
43.437115 164.518448 345.000000
43.437115 165.080627 345.000000
43.185307 164.682541 343.000000
43.185307 165.241455 343.000000
43.059402 165.317001 342.000000
42.807594 164.904266 340.000000
42.807594 165.458282 340.000000
42.807594 166.012314 340.000000
42.681686 166.076431 339.000000
42.681686 166.628830 339.000000
42.681686 167.181229 339.000000
42.555786 167.238831 338.000000
42.429878 167.293182 337.000000
42.429878 167.842316 337.000000
42.303974 167.891769 336.000000
42.303974 168.439285 336.000000
42.303974 168.986786 336.000000
42.303974 169.534302 336.000000
42.178070 169.575623 335.000000
42.178070 170.121490 335.000000
41.926262 169.648468 333.000000
41.800354 169.679993 332.000000
41.800354 170.220978 332.000000
41.548546 169.733292 330.000000
41.422642 169.755035 329.000000
41.422642 170.291138 329.000000
41.296738 170.308029 328.000000
41.170834 170.321625 327.000000
41.170834 170.854477 327.000000
41.170834 171.387314 327.000000
41.170834 171.920151 327.000000
41.170834 172.453003 327.000000
41.044926 172.456833 326.000000
41.044926 172.988052 326.000000
41.044926 173.519257 326.000000
40.793118 172.982666 324.000000
40.667213 172.975098 323.000000
40.667213 173.501419 323.000000
40.667213 174.027740 323.000000
40.541309 174.013657 322.000000
40.541309 174.538345 322.000000
40.415405 174.519379 321.000000
40.289497 174.497147 320.000000
40.289497 175.018585 320.000000
40.289497 175.540009 320.000000
40.163593 175.511261 319.000000
40.163593 176.031067 319.000000
40.163593 176.550873 319.000000
40.037689 176.515594 318.000000
40.037689 177.033768 318.000000
40.037689 177.551941 318.000000
39.911785 177.510147 317.000000
39.911785 178.026703 317.000000
39.911785 178.543243 317.000000
39.911785 179.059799 317.000000
39.911785 179.576340 317.000000
39.911785 180.092896 317.000000
39.785881 180.039688 316.000000
39.659973 179.983231 315.000000
39.659973 180.496521 315.000000
39.534073 180.435181 314.000000
39.534073 180.946838 314.000000
39.534073 181.458496 314.000000
39.534073 181.970169 314.000000
39.408165 181.900665 313.000000
39.408165 182.410690 313.000000
39.408165 182.920731 313.000000
39.282261 182.844711 312.000000
39.282261 183.353119 312.000000
39.282261 183.861511 312.000000
39.156357 183.778976 311.000000
39.156357 184.285751 311.000000
39.156357 184.792526 311.000000
39.030453 184.703476 310.000000
39.030453 185.208618 310.000000
39.030453 185.713760 310.000000
38.904549 185.618195 309.000000
38.904549 186.121704 309.000000
38.904549 186.625214 309.000000
38.778645 186.523132 308.000000
38.778645 187.025009 308.000000
38.778645 187.526886 308.000000
38.778645 188.028778 308.000000
38.652737 187.918549 307.000000
38.652737 188.418808 307.000000
38.652737 188.919052 307.000000
38.526836 188.802307 306.000000
38.526836 189.300934 306.000000
38.526836 189.799561 306.000000
38.400928 189.676285 305.000000
38.400928 190.173279 305.000000
38.400928 190.670273 305.000000
38.400928 191.167267 305.000000
38.400928 191.664261 305.000000
38.400928 192.161255 305.000000
38.275024 192.026581 304.000000
38.275024 192.521942 304.000000
38.275024 193.017303 304.000000
38.149120 192.876114 303.000000
38.149120 193.369858 303.000000
38.023212 193.223770 302.000000
38.023212 193.715881 302.000000
38.023212 194.207977 302.000000
38.023212 194.700089 302.000000
38.023212 195.192184 302.000000
38.023212 195.684296 302.000000
38.023212 196.176407 302.000000
37.946251 196.270447 301.388733
37.946251 196.761551 301.388733
37.946251 197.252670 301.388733
37.877411 197.385025 300.841949
37.840656 197.683212 300.550018
37.840656 198.172974 300.550018
37.788891 198.390945 300.138885
37.645500 198.125366 299.000000
37.645500 198.612595 299.000000
37.645500 199.099808 299.000000
37.645500 199.587021 299.000000
37.645500 200.074234 299.000000
37.519596 199.890671 298.000000
37.519596 200.376266 298.000000
37.519596 200.861847 298.000000
37.519596 201.347443 298.000000
37.519596 201.833023 298.000000
37.519596 202.318619 298.000000
37.393692 202.123642 297.000000
37.393692 202.607605 297.000000
37.393692 203.091568 297.000000
37.393692 203.575516 297.000000
37.267788 203.372406 296.000000
37.267788 203.854736 296.000000
37.267788 204.337067 296.000000
37.141884 204.127441 295.000000
37.141884 204.608139 295.000000
37.141884 205.088837 295.000000
37.141884 205.569534 295.000000
37.015976 205.351761 294.000000
37.015976 205.830841 294.000000
37.015976 206.309906 294.000000
49.355438 62.208138 387.000000
49.355438 62.838749 387.000000
49.355438 63.469360 387.000000
49.482967 64.265610 388.000000
49.482967 64.897850 388.000000
49.482967 65.530090 388.000000
49.610504 66.332855 389.000000
49.610504 66.966721 389.000000
49.610504 67.600594 389.000000
49.610504 68.234467 389.000000
44.895130 88.709175 352.026367
44.895130 89.282799 352.026367
44.895130 89.856422 352.026367
44.858776 90.356827 351.741333
44.858776 90.929985 351.741333
44.844200 91.473412 351.627045
44.839188 92.036095 351.587738
44.809650 92.547997 351.356140
44.809650 93.120522 351.356140
44.809650 93.693062 351.356140
44.891766 94.438324 352.000000
44.891766 95.011909 352.000000
44.891766 95.585487 352.000000
45.146832 96.705429 354.000000
45.146832 97.282265 354.000000
45.146832 97.859108 354.000000
45.146832 98.435944 354.000000
45.146832 99.012779 354.000000
44.891766 99.026962 352.000000
44.891766 99.600540 352.000000
44.891766 100.174126 352.000000
44.764233 100.461494 351.000000
44.764233 101.033440 351.000000
44.764233 101.605392 351.000000
44.764233 102.177345 351.000000
44.891766 103.042023 352.000000
44.891766 103.615601 352.000000
45.146832 104.781166 354.000000
45.146832 105.358009 354.000000
45.146832 105.934845 354.000000
45.146832 106.511681 354.000000
45.019302 106.786011 353.000000
45.019302 107.361221 353.000000
44.593521 106.915604 349.661438
44.557594 107.398773 349.379730
44.525890 107.891258 349.131134
44.525890 108.460167 349.131134
44.501995 108.970551 348.943756
44.475914 109.474960 348.739258
44.475914 110.043228 348.739258
44.449039 110.544662 348.528564
44.427925 111.059799 348.362976
44.427925 111.627449 348.362976
44.372128 112.054192 347.925476
44.352524 112.571381 347.771759
44.352524 113.138069 347.771759
44.319183 113.619293 347.510345
44.271427 114.062508 347.135864
44.271427 114.628159 347.135864
44.242962 115.119743 346.912659
44.197212 115.565422 346.553955
44.197212 116.130127 346.553955
44.154701 116.582573 346.220612
44.117241 117.047363 345.926880
44.117241 117.611038 345.926880
43.313095 155.866150 339.621521
43.315407 156.427902 339.639648
43.315407 156.981354 339.639648
43.446346 158.011002 340.666351
43.473644 158.665741 340.880402
43.473644 159.221207 340.880402
43.473644 159.776657 340.880402
43.451843 160.251724 340.709442
43.451843 160.806885 340.709442
43.391224 161.136963 340.234131
43.999031 163.956284 345.000000
43.999031 164.518448 345.000000
43.999031 165.080627 345.000000
43.871498 165.162674 344.000000
43.871498 165.723221 344.000000
43.743965 165.800369 343.000000
43.616432 165.874283 342.000000
43.616432 166.431580 342.000000
43.488899 166.500580 341.000000
43.361366 166.566330 340.000000
43.361366 167.120361 340.000000
43.361366 167.674393 340.000000
43.233829 167.733627 339.000000
43.233829 168.286026 339.000000
43.233829 168.838409 339.000000
42.978764 168.391449 337.000000
42.851231 168.439285 336.000000
42.851231 168.986786 336.000000
42.851231 169.534302 336.000000
42.851231 170.081802 336.000000
42.851231 170.629318 336.000000
42.723698 170.667374 335.000000
42.596165 170.702164 334.000000
42.596165 171.246414 334.000000
42.468632 171.276321 333.000000
41.958500 169.755035 329.000000
41.958500 170.291138 329.000000
41.830963 170.308029 328.000000
41.703430 170.321625 327.000000
41.703430 170.854477 327.000000
41.703430 171.387314 327.000000
41.703430 171.920151 327.000000
41.703430 172.453003 327.000000
41.575897 172.456833 326.000000
41.575897 172.988052 326.000000
41.575897 173.519257 326.000000
41.320831 172.982666 324.000000
41.193298 172.975098 323.000000
41.193298 173.501419 323.000000
41.193298 174.027740 323.000000
41.193298 174.554077 323.000000
41.193298 175.080399 323.000000
40.938232 174.519379 321.000000
40.810696 174.497147 320.000000
40.810696 175.018585 320.000000
40.810696 175.540009 320.000000
40.810696 176.061447 320.000000
40.683163 176.031067 319.000000
40.683163 176.550873 319.000000
40.683163 177.070679 319.000000
40.555630 177.033768 318.000000
40.555630 177.551941 318.000000
40.555630 178.070129 318.000000
40.428097 178.026703 317.000000
40.428097 178.543243 317.000000
40.428097 179.059799 317.000000
40.428097 179.576340 317.000000
40.428097 180.092896 317.000000
40.300564 180.039688 316.000000
40.173027 179.983231 315.000000
40.173027 180.496521 315.000000
40.045498 180.435181 314.000000
40.045498 180.946838 314.000000
40.045498 181.458496 314.000000
40.045498 181.970169 314.000000
39.917961 181.900665 313.000000
39.917961 182.410690 313.000000
39.917961 182.920731 313.000000
39.790428 182.844711 312.000000
39.790428 183.353119 312.000000
39.790428 183.861511 312.000000
39.662895 183.778976 311.000000
39.662895 184.285751 311.000000
39.662895 184.792526 311.000000
39.535362 184.703476 310.000000
39.535362 185.208618 310.000000
39.535362 185.713760 310.000000
39.407829 185.618195 309.000000
39.407829 186.121704 309.000000
39.407829 186.625214 309.000000
39.280296 186.523132 308.000000
39.280296 187.025009 308.000000
39.280296 187.526886 308.000000
39.280296 188.028778 308.000000
39.152763 187.918549 307.000000
39.152763 188.418808 307.000000
39.152763 188.919052 307.000000
39.025230 188.802307 306.000000
39.025230 189.300934 306.000000
39.025230 189.799561 306.000000
38.897694 189.676285 305.000000
38.897694 190.173279 305.000000
38.897694 190.670273 305.000000
38.897694 191.167267 305.000000
38.897694 191.664261 305.000000
38.897694 192.161255 305.000000
38.770164 192.026581 304.000000
38.770164 192.521942 304.000000
38.770164 193.017303 304.000000
38.642628 192.876114 303.000000
38.642628 193.369858 303.000000
38.515095 193.223770 302.000000
38.515095 193.715881 302.000000
38.515095 194.207977 302.000000
38.515095 194.700089 302.000000
38.515095 195.192184 302.000000
38.387562 195.036331 301.000000
38.387562 195.526810 301.000000
38.387562 196.017288 301.000000
38.387562 196.507767 301.000000
38.387562 196.998230 301.000000
38.345928 197.274536 300.673553
38.313034 197.594818 300.415619
38.313034 198.084351 300.415619
38.260025 198.299149 300.000000
38.132496 198.125366 299.000000
38.132496 198.612595 299.000000
38.132496 199.099808 299.000000
38.004959 198.919510 298.000000
38.004959 199.405090 298.000000
38.004959 199.890671 298.000000
38.004959 200.376266 298.000000
38.004959 200.861847 298.000000
38.004959 201.347443 298.000000
38.004959 201.833023 298.000000
38.004959 202.318619 298.000000
37.877430 202.123642 297.000000
37.877430 202.607605 297.000000
37.877430 203.091568 297.000000
37.877430 203.575516 297.000000
37.749893 203.372406 296.000000
37.749893 203.854736 296.000000
37.622360 203.646729 295.000000
37.622360 204.127441 295.000000
37.622360 204.608139 295.000000
37.622360 205.088837 295.000000
37.494827 204.872696 294.000000
37.494827 205.351761 294.000000
37.494827 205.830841 294.000000
37.494827 206.309906 294.000000
49.985760 62.208138 387.000000
49.985760 62.838749 387.000000
49.985760 63.469360 387.000000
50.114922 64.265610 388.000000
50.114922 64.897850 388.000000
50.114922 65.530090 388.000000
50.244083 66.332855 389.000000
50.244083 66.966721 389.000000
50.244083 67.600594 389.000000
50.244083 68.234467 389.000000
45.381924 92.547997 351.356140
45.381924 93.120522 351.356140
45.381924 93.693062 351.356140
45.361141 94.222435 351.195282
45.361141 94.794701 351.195282
45.341011 95.324638 351.039398
45.723408 96.705429 354.000000
45.723408 97.282265 354.000000
45.723408 97.859108 354.000000
45.723408 98.435944 354.000000
45.723408 99.012779 354.000000
45.332787 98.738815 350.975739
45.319195 99.280937 350.870483
45.319195 99.852684 350.870483
45.312737 100.410110 350.820496
45.312737 100.981766 350.820496
45.312737 101.553429 350.820496
45.300995 102.098618 350.729584
45.291443 102.648483 350.655640
45.291443 103.219872 350.655640
45.723408 104.781166 354.000000
45.723408 105.358009 354.000000
45.723408 105.934845 354.000000
45.723408 106.511681 354.000000
45.222927 105.916344 350.125183
45.222927 106.486870 350.125183
45.163029 106.915604 349.661438
45.126640 107.398773 349.379730
45.094536 107.891258 349.131134
45.094536 108.460167 349.131134
45.070332 108.970551 348.943756
45.043919 109.474960 348.739258
45.043919 110.043228 348.739258
45.016705 110.544662 348.528564
44.995319 111.059799 348.362976
44.995319 111.627449 348.362976
43.866249 155.866150 339.621521
43.868591 156.427902 339.639648
43.868591 156.981354 339.639648
44.001205 158.011002 340.666351
44.028851 158.665741 340.880402
44.028851 159.221207 340.880402
44.028851 159.776657 340.880402
44.006771 160.251724 340.709442
44.006771 160.806885 340.709442
44.690109 163.867722 346.000000
44.690109 164.431519 346.000000
44.690109 164.995316 346.000000
44.560947 165.080627 345.000000
44.431786 165.162674 344.000000
44.431786 165.723221 344.000000
44.302624 165.800369 343.000000
44.173462 165.874283 342.000000
44.173462 166.431580 342.000000
44.044300 166.500580 341.000000
43.915138 166.566330 340.000000
43.915138 167.120361 340.000000
43.915138 167.674393 340.000000
43.785976 167.733627 339.000000
43.785976 168.286026 339.000000
43.785976 168.838409 339.000000
43.527649 168.391449 337.000000
43.527649 168.940582 337.000000
43.527649 169.489731 337.000000
43.527649 170.038864 337.000000
43.398487 170.081802 336.000000
43.398487 170.629318 336.000000
43.398487 171.176819 336.000000
43.398487 171.724319 336.000000
43.398487 172.271835 336.000000
43.140163 171.790665 334.000000
43.011002 171.818939 333.000000
43.011002 172.361557 333.000000
42.494354 170.827240 329.000000
42.494354 171.363342 329.000000
42.494354 171.899445 329.000000
42.365189 171.911438 328.000000
42.236031 171.920151 327.000000
42.236031 172.453003 327.000000
42.236031 172.985840 327.000000
42.106865 172.988052 326.000000
42.106865 173.519257 326.000000
42.106865 174.050476 326.000000
41.848541 173.510620 324.000000
41.848541 174.038574 324.000000
41.719383 174.027740 323.000000
41.719383 174.554077 323.000000
41.719383 175.080399 323.000000
41.461056 174.519379 321.000000
41.331894 174.497147 320.000000
41.331894 175.018585 320.000000
41.331894 175.540009 320.000000
41.331894 176.061447 320.000000
41.202732 176.031067 319.000000
41.202732 176.550873 319.000000
41.202732 177.070679 319.000000
41.073570 177.033768 318.000000
41.073570 177.551941 318.000000
41.073570 178.070129 318.000000
40.944405 178.026703 317.000000
40.944405 178.543243 317.000000
40.944405 179.059799 317.000000
40.944405 179.576340 317.000000
40.944405 180.092896 317.000000
40.815247 180.039688 316.000000
40.686081 179.983231 315.000000
40.686081 180.496521 315.000000
40.556923 180.435181 314.000000
40.556923 180.946838 314.000000
40.556923 181.458496 314.000000
40.556923 181.970169 314.000000
40.427757 181.900665 313.000000
40.427757 182.410690 313.000000
40.427757 182.920731 313.000000
40.298595 182.844711 312.000000
40.298595 183.353119 312.000000
40.298595 183.861511 312.000000
40.169434 183.778976 311.000000
40.169434 184.285751 311.000000
40.169434 184.792526 311.000000
40.169434 185.299286 311.000000
40.040272 185.208618 310.000000
40.040272 185.713760 310.000000
40.040272 186.218903 310.000000
39.911110 186.121704 309.000000
39.911110 186.625214 309.000000
39.911110 187.128723 309.000000
39.781948 187.025009 308.000000
39.781948 187.526886 308.000000
39.781948 188.028778 308.000000
39.652786 187.918549 307.000000
39.652786 188.418808 307.000000
39.652786 188.919052 307.000000
39.523624 188.802307 306.000000
39.523624 189.300934 306.000000
39.523624 189.799561 306.000000
39.394463 189.676285 305.000000
39.394463 190.173279 305.000000
39.394463 190.670273 305.000000
39.394463 191.167267 305.000000
39.394463 191.664261 305.000000
39.265301 191.531219 304.000000
39.265301 192.026581 304.000000
39.265301 192.521942 304.000000
39.265301 193.017303 304.000000
39.136139 192.876114 303.000000
39.136139 193.369858 303.000000
39.006973 193.223770 302.000000
39.006973 193.715881 302.000000
39.006973 194.207977 302.000000
39.006973 194.700089 302.000000
39.006973 195.192184 302.000000
38.877811 195.036331 301.000000
38.877811 195.526810 301.000000
38.877811 196.017288 301.000000
38.877811 196.507767 301.000000
38.877811 196.998230 301.000000
38.835648 197.274536 300.673553
38.802334 197.594818 300.415619
38.802334 198.084351 300.415619
38.748650 198.299149 300.000000
38.619488 198.125366 299.000000
38.619488 198.612595 299.000000
38.619488 199.099808 299.000000
38.490326 198.919510 298.000000
38.490326 199.405090 298.000000
38.490326 199.890671 298.000000
38.490326 200.376266 298.000000
38.490326 200.861847 298.000000
38.490326 201.347443 298.000000
38.361164 201.155731 297.000000
38.361164 201.639694 297.000000
38.361164 202.123642 297.000000
38.361164 202.607605 297.000000
38.361164 203.091568 297.000000
38.232002 202.890076 296.000000
38.102840 202.685333 295.000000
38.102840 203.166031 295.000000
38.102840 203.646729 295.000000
38.102840 204.127441 295.000000
38.102840 204.608139 295.000000
38.102840 205.088837 295.000000
37.973679 204.872696 294.000000
37.973679 205.351761 294.000000
37.973679 205.830841 294.000000
37.973679 206.309906 294.000000
50.616085 62.208138 387.000000
50.746872 63.001125 388.000000
50.746872 63.633366 388.000000
50.746872 64.265610 388.000000
50.746872 64.897850 388.000000
50.746872 65.530090 388.000000
50.877666 66.332855 389.000000
50.877666 66.966721 389.000000
50.877666 67.600594 389.000000
50.877666 68.234467 389.000000
45.954189 92.547997 351.356140
45.954189 93.120522 351.356140
45.954189 93.693062 351.356140
45.933147 94.222435 351.195282
45.933147 94.794701 351.195282
45.912762 95.324638 351.039398
46.299980 96.705429 354.000000
46.299980 97.282265 354.000000
46.299980 97.859108 354.000000
46.299980 98.435944 354.000000
46.299980 99.012779 354.000000
45.904438 98.738815 350.975739
45.890667 99.280937 350.870483
45.890667 99.852684 350.870483
45.884132 100.410110 350.820496
45.884132 100.981766 350.820496
45.884132 101.553429 350.820496
45.872238 102.098618 350.729584
45.862568 102.648483 350.655640
45.862568 103.219872 350.655640
46.299980 104.781166 354.000000
46.299980 105.358009 354.000000
46.299980 105.934845 354.000000
46.299980 106.511681 354.000000
45.793194 105.916344 350.125183
45.793194 106.486870 350.125183
45.732536 106.915604 349.661438
44.556061 158.011002 340.666351
44.567501 158.606812 340.753815
44.567501 159.162079 340.753815
44.567501 159.717316 340.753815
44.527439 160.128510 340.447510
44.527439 160.683258 340.447510
45.253654 163.867722 346.000000
45.253654 164.431519 346.000000
45.253654 164.995316 346.000000
45.122864 165.080627 345.000000
45.122864 165.642807 345.000000
45.122864 166.204971 345.000000
44.861282 165.800369 343.000000
44.730492 165.874283 342.000000
44.730492 166.431580 342.000000
44.730492 166.988861 342.000000
44.468910 166.566330 340.000000
44.468910 167.120361 340.000000
44.468910 167.674393 340.000000
44.468910 168.228409 340.000000
44.338120 168.286026 339.000000
44.338120 168.838409 339.000000
44.207329 168.891129 338.000000
44.076538 168.940582 337.000000
44.076538 169.489731 337.000000
44.076538 170.038864 337.000000
43.945744 170.081802 336.000000
43.945744 170.629318 336.000000
43.945744 171.176819 336.000000
43.945744 171.724319 336.000000
43.945744 172.271835 336.000000
43.684162 171.790665 334.000000
43.553371 171.818939 333.000000
43.553371 172.361557 333.000000
43.030209 170.827240 329.000000
43.030209 171.363342 329.000000
43.030209 171.899445 329.000000
43.030209 172.435547 329.000000
42.899418 172.445908 328.000000
42.899418 172.980377 328.000000
42.768627 172.985840 327.000000
42.637836 172.988052 326.000000
42.637836 173.519257 326.000000
42.637836 174.050476 326.000000
42.507046 174.046158 325.000000
42.507046 174.575745 325.000000
42.376255 174.566528 324.000000
42.245464 174.554077 323.000000
42.245464 175.080399 323.000000
42.114674 175.063049 322.000000
41.983883 175.042450 321.000000
41.853092 175.018585 320.000000
41.853092 175.540009 320.000000
41.853092 176.061447 320.000000
41.853092 176.582886 320.000000
41.853092 177.104324 320.000000
41.722298 177.070679 319.000000
41.722298 177.590485 319.000000
41.722298 178.110291 319.000000
41.591511 178.070129 318.000000
41.460716 178.026703 317.000000
41.460716 178.543243 317.000000
41.460716 179.059799 317.000000
41.460716 179.576340 317.000000
41.460716 180.092896 317.000000
41.329929 180.039688 316.000000
41.199135 179.983231 315.000000
41.199135 180.496521 315.000000
41.068348 180.435181 314.000000
41.068348 180.946838 314.000000
41.068348 181.458496 314.000000
41.068348 181.970169 314.000000
40.937553 181.900665 313.000000
40.937553 182.410690 313.000000
40.937553 182.920731 313.000000
40.806767 182.844711 312.000000
40.806767 183.353119 312.000000
40.806767 183.861511 312.000000
40.675972 183.778976 311.000000
40.675972 184.285751 311.000000
40.675972 184.792526 311.000000
40.675972 185.299286 311.000000
40.545181 185.208618 310.000000
40.545181 185.713760 310.000000
40.545181 186.218903 310.000000
40.414391 186.121704 309.000000
40.414391 186.625214 309.000000
40.414391 187.128723 309.000000
40.283600 187.025009 308.000000
40.283600 187.526886 308.000000
40.283600 188.028778 308.000000
40.152809 187.918549 307.000000
40.152809 188.418808 307.000000
40.152809 188.919052 307.000000
40.022018 188.802307 306.000000
40.022018 189.300934 306.000000
40.022018 189.799561 306.000000
39.891228 189.676285 305.000000
39.891228 190.173279 305.000000
39.891228 190.670273 305.000000
39.891228 191.167267 305.000000
39.891228 191.664261 305.000000
39.760437 191.531219 304.000000
39.760437 192.026581 304.000000
39.760437 192.521942 304.000000
39.760437 193.017303 304.000000
39.629646 192.876114 303.000000
39.629646 193.369858 303.000000
39.498852 193.223770 302.000000
39.498852 193.715881 302.000000
39.498852 194.207977 302.000000
39.498852 194.700089 302.000000
39.498852 195.192184 302.000000
39.368065 195.036331 301.000000
39.368065 195.526810 301.000000
39.368065 196.017288 301.000000
39.368065 196.507767 301.000000
39.368065 196.998230 301.000000
39.237270 196.832611 300.000000
39.237270 197.321457 300.000000
39.237270 197.810303 300.000000
39.237270 198.299149 300.000000
39.106483 198.125366 299.000000
39.106483 198.612595 299.000000
39.106483 199.099808 299.000000
38.975689 198.919510 298.000000
38.975689 199.405090 298.000000
38.975689 199.890671 298.000000
38.975689 200.376266 298.000000
38.975689 200.861847 298.000000
38.975689 201.347443 298.000000
38.844902 201.155731 297.000000
38.844902 201.639694 297.000000
38.844902 202.123642 297.000000
38.844902 202.607605 297.000000
38.844902 203.091568 297.000000
38.714108 202.890076 296.000000
38.583321 202.685333 295.000000
38.583321 203.166031 295.000000
38.583321 203.646729 295.000000
38.583321 204.127441 295.000000
38.583321 204.608139 295.000000
38.583321 205.088837 295.000000
38.452526 204.872696 294.000000
38.452526 205.351761 294.000000
38.452526 205.830841 294.000000
38.452526 206.309906 294.000000
51.378826 63.001125 388.000000
51.378826 63.633366 388.000000
51.378826 64.265610 388.000000
51.378826 64.897850 388.000000
51.378826 65.530090 388.000000
51.511246 66.332855 389.000000
51.511246 66.966721 389.000000
51.511246 67.600594 389.000000
51.511246 68.234467 389.000000
46.399487 95.150269 350.397278
46.411850 95.746750 350.490662
46.411850 96.317871 350.490662
46.411850 96.888985 350.490662
46.389782 97.413765 350.324005
46.389782 97.984612 350.324005
46.348789 98.468376 350.014435
46.338333 99.016380 349.935486
46.338333 99.586594 349.935486
46.329063 100.136772 349.865479
46.329063 100.706879 349.865479
46.329063 101.276978 349.865479
46.320572 101.828400 349.801331
46.312672 102.380936 349.741669
46.312672 102.950836 349.741669
46.334801 103.570206 349.908813
46.334801 104.140381 349.908813
46.334801 104.710548 349.908813
46.318329 105.243286 349.784393
46.274754 105.713715 349.455322
46.274754 106.283142 349.455322
45.070625 160.088318 340.362061
45.070625 160.642929 340.362061
45.817200 163.867722 346.000000
45.817200 164.431519 346.000000
45.817200 164.995316 346.000000
45.684780 165.080627 345.000000
45.684780 165.642807 345.000000
45.684780 166.204971 345.000000
45.552361 166.283768 344.000000
45.419941 166.359283 343.000000
45.287521 166.431580 342.000000
45.287521 166.988861 342.000000
45.155102 167.056244 341.000000
45.022682 167.120361 340.000000
45.022682 167.674393 340.000000
45.022682 168.228409 340.000000
44.890263 168.286026 339.000000
44.890263 168.838409 339.000000
44.890263 169.390808 339.000000
44.757843 169.441895 338.000000
44.757843 169.992661 338.000000
44.625423 170.038864 337.000000
44.493000 170.081802 336.000000
44.493000 170.629318 336.000000
44.493000 171.176819 336.000000
44.493000 171.724319 336.000000
44.493000 172.271835 336.000000
44.360584 172.305008 335.000000
44.228161 172.334915 334.000000
44.228161 172.879166 334.000000
44.095745 172.904175 333.000000
43.566067 171.363342 329.000000
43.566067 171.899445 329.000000
43.566067 172.435547 329.000000
43.433643 172.445908 328.000000
43.433643 172.980377 328.000000
43.301228 172.985840 327.000000
43.168804 172.988052 326.000000
43.168804 173.519257 326.000000
43.168804 174.050476 326.000000
43.036388 174.046158 325.000000
43.036388 174.575745 325.000000
42.903965 174.566528 324.000000
42.771549 174.554077 323.000000
42.771549 175.080399 323.000000
42.771549 175.606720 323.000000
42.639126 175.587738 322.000000
42.506710 175.565506 321.000000
42.506710 176.088577 321.000000
42.374287 176.061447 320.000000
42.374287 176.582886 320.000000
42.374287 177.104324 320.000000
42.241867 177.070679 319.000000
42.241867 177.590485 319.000000
42.241867 178.110291 319.000000
42.241867 178.630096 319.000000
42.109447 178.588303 318.000000
42.109447 179.106476 318.000000
41.977028 179.059799 317.000000
41.977028 179.576340 317.000000
41.977028 180.092896 317.000000
41.977028 180.609436 317.000000
41.844612 180.554611 316.000000
41.844612 181.069519 316.000000
41.579773 180.435181 314.000000
41.579773 180.946838 314.000000
41.579773 181.458496 314.000000
41.579773 181.970169 314.000000
41.579773 182.481827 314.000000
41.579773 182.993484 314.000000
41.447350 182.920731 313.000000
41.314934 182.844711 312.000000
41.314934 183.353119 312.000000
41.314934 183.861511 312.000000
41.314934 184.369919 312.000000
41.314934 184.878311 312.000000
41.182510 184.792526 311.000000
41.182510 185.299286 311.000000
41.050095 185.208618 310.000000
41.050095 185.713760 310.000000
41.050095 186.218903 310.000000
40.917671 186.121704 309.000000
40.917671 186.625214 309.000000
40.917671 187.128723 309.000000
40.785255 187.025009 308.000000
40.785255 187.526886 308.000000
40.785255 188.028778 308.000000
40.652832 187.918549 307.000000
40.652832 188.418808 307.000000
40.652832 188.919052 307.000000
40.520416 188.802307 306.000000
40.520416 189.300934 306.000000
40.520416 189.799561 306.000000
40.387993 189.676285 305.000000
40.387993 190.173279 305.000000
40.387993 190.670273 305.000000
40.387993 191.167267 305.000000
40.387993 191.664261 305.000000
40.255577 191.531219 304.000000
40.255577 192.026581 304.000000
40.255577 192.521942 304.000000
40.255577 193.017303 304.000000
40.123154 192.876114 303.000000
40.123154 193.369858 303.000000
39.990734 193.223770 302.000000
39.990734 193.715881 302.000000
39.990734 194.207977 302.000000
39.990734 194.700089 302.000000
39.990734 195.192184 302.000000
39.858315 195.036331 301.000000
39.858315 195.526810 301.000000
39.858315 196.017288 301.000000
39.858315 196.507767 301.000000
39.858315 196.998230 301.000000
39.725895 196.832611 300.000000
39.725895 197.321457 300.000000
39.725895 197.810303 300.000000
39.725895 198.299149 300.000000
39.593475 198.125366 299.000000
39.593475 198.612595 299.000000
39.461056 198.433914 298.000000
39.461056 198.919510 298.000000
39.461056 199.405090 298.000000
39.461056 199.890671 298.000000
39.461056 200.376266 298.000000
39.461056 200.861847 298.000000
39.461056 201.347443 298.000000
39.328636 201.155731 297.000000
39.328636 201.639694 297.000000
39.328636 202.123642 297.000000
39.328636 202.607605 297.000000
39.328636 203.091568 297.000000
39.196217 202.890076 296.000000
39.063797 202.685333 295.000000
39.063797 203.166031 295.000000
39.063797 203.646729 295.000000
39.063797 204.127441 295.000000
39.063797 204.608139 295.000000
39.063797 205.088837 295.000000
38.931377 204.872696 294.000000
38.931377 205.351761 294.000000
38.931377 205.830841 294.000000
38.798958 205.608170 293.000000
52.010777 63.001125 388.000000
52.010777 63.633366 388.000000
52.010777 64.265610 388.000000
52.010777 64.897850 388.000000
52.010777 65.530090 388.000000
52.144825 66.332855 389.000000
52.144825 66.966721 389.000000
52.144825 67.600594 389.000000
52.144825 68.234467 389.000000
45.624985 160.088318 340.362061
45.624985 160.642929 340.362061
45.627548 161.206604 340.381165
46.246696 163.956284 345.000000
46.246696 164.518448 345.000000
46.246696 165.080627 345.000000
46.246696 165.642807 345.000000
46.246696 166.204971 345.000000
46.112648 166.283768 344.000000
45.978600 166.359283 343.000000
45.844551 166.431580 342.000000
45.844551 166.988861 342.000000
45.710503 167.056244 341.000000
45.576454 167.120361 340.000000
45.576454 167.674393 340.000000
45.576454 168.228409 340.000000
45.442406 168.286026 339.000000
45.442406 168.838409 339.000000
45.442406 169.390808 339.000000
45.308357 169.441895 338.000000
45.308357 169.992661 338.000000
45.174309 170.038864 337.000000
45.174309 170.587997 337.000000
45.174309 171.137146 337.000000
45.040260 171.176819 336.000000
45.040260 171.724319 336.000000
45.040260 172.271835 336.000000
45.040260 172.819336 336.000000
44.906212 172.850891 335.000000
44.906212 173.396759 335.000000
44.772163 173.423416 334.000000
44.101921 171.363342 329.000000
44.101921 171.899445 329.000000
44.101921 172.435547 329.000000
44.101921 172.971649 329.000000
44.101921 173.507751 329.000000
43.833824 172.985840 327.000000
43.699776 172.988052 326.000000
43.699776 173.519257 326.000000
43.699776 174.050476 326.000000
43.699776 174.581680 326.000000
43.699776 175.112900 326.000000
43.431679 174.566528 324.000000
43.297634 174.554077 323.000000
43.297634 175.080399 323.000000
43.297634 175.606720 323.000000
43.163582 175.587738 322.000000
43.029537 175.565506 321.000000
43.029537 176.088577 321.000000
42.895485 176.061447 320.000000
42.895485 176.582886 320.000000
42.895485 177.104324 320.000000
42.761436 177.070679 319.000000
42.761436 177.590485 319.000000
42.761436 178.110291 319.000000
42.761436 178.630096 319.000000
42.627388 178.588303 318.000000
42.627388 179.106476 318.000000
42.493340 179.059799 317.000000
42.493340 179.576340 317.000000
42.493340 180.092896 317.000000
42.493340 180.609436 317.000000
42.359291 180.554611 316.000000
42.359291 181.069519 316.000000
42.225243 181.009811 315.000000
42.091194 180.946838 314.000000
42.091194 181.458496 314.000000
42.091194 181.970169 314.000000
42.091194 182.481827 314.000000
42.091194 182.993484 314.000000
41.957146 182.920731 313.000000
41.823101 182.844711 312.000000
41.823101 183.353119 312.000000
41.823101 183.861511 312.000000
41.823101 184.369919 312.000000
41.823101 184.878311 312.000000
41.689049 184.792526 311.000000
41.689049 185.299286 311.000000
41.689049 185.806061 311.000000
41.689049 186.312836 311.000000
41.555004 186.218903 310.000000
41.420952 186.121704 309.000000
41.420952 186.625214 309.000000
41.420952 187.128723 309.000000
41.420952 187.632233 309.000000
41.420952 188.135742 309.000000
41.286907 188.028778 308.000000
41.152855 187.918549 307.000000
41.152855 188.418808 307.000000
41.152855 188.919052 307.000000
41.018810 188.802307 306.000000
41.018810 189.300934 306.000000
41.018810 189.799561 306.000000
40.884758 189.676285 305.000000
40.884758 190.173279 305.000000
40.884758 190.670273 305.000000
40.884758 191.167267 305.000000
40.884758 191.664261 305.000000
40.750713 191.531219 304.000000
40.750713 192.026581 304.000000
40.750713 192.521942 304.000000
40.750713 193.017303 304.000000
40.616665 192.876114 303.000000
40.616665 193.369858 303.000000
40.482613 193.223770 302.000000
40.482613 193.715881 302.000000
40.482613 194.207977 302.000000
40.482613 194.700089 302.000000
40.482613 195.192184 302.000000
40.348568 195.036331 301.000000
40.348568 195.526810 301.000000
40.348568 196.017288 301.000000
40.348568 196.507767 301.000000
40.348568 196.998230 301.000000
40.214516 196.832611 300.000000
40.214516 197.321457 300.000000
40.214516 197.810303 300.000000
40.214516 198.299149 300.000000
40.080471 198.125366 299.000000
40.080471 198.612595 299.000000
40.080471 199.099808 299.000000
39.946419 198.919510 298.000000
39.946419 199.405090 298.000000
39.946419 199.890671 298.000000
39.946419 200.376266 298.000000
39.946419 200.861847 298.000000
39.812374 200.671768 297.000000
39.812374 201.155731 297.000000
39.812374 201.639694 297.000000
39.812374 202.123642 297.000000
39.812374 202.607605 297.000000
