46.980217 174.027740 323.000000
46.980217 174.554077 323.000000
46.980217 175.080399 323.000000
46.980217 175.606720 323.000000
46.834766 175.587738 322.000000
46.834766 176.112442 322.000000
46.834766 176.637131 322.000000
46.689320 176.611649 321.000000
46.252968 178.588303 318.000000
46.107517 178.543243 317.000000
46.107517 179.576340 317.000000
45.962070 179.524765 316.000000
45.962070 180.554611 316.000000
45.671169 179.923523 314.000000
45.671169 180.946838 314.000000
45.380272 180.302719 312.000000
45.234821 180.738358 311.000000
45.234821 181.245132 311.000000
45.234821 182.258667 311.000000
45.234821 182.765442 311.000000
45.089371 183.188049 310.000000
45.089371 183.693192 310.000000
44.943920 183.604141 309.000000
44.798473 184.013718 308.000000
44.798473 184.515594 308.000000
44.798473 185.519363 308.000000
44.653023 185.417297 307.000000
44.653023 186.417801 307.000000
43.634872 192.432999 300.000000
43.634872 192.921844 300.000000
43.634872 193.410690 300.000000
43.634872 194.388382 300.000000
43.489426 194.227631 299.000000
43.489426 195.202072 299.000000
43.343975 195.034805 298.000000
43.343975 196.005981 298.000000
43.198528 195.832199 297.000000
43.198528 196.800110 297.000000
43.198528 197.284073 297.000000
43.053078 197.584473 296.000000
43.053078 198.066803 296.000000
42.907627 198.359055 295.000000
42.907627 198.839752 295.000000
42.762177 199.123871 294.000000
42.762177 199.602936 294.000000
42.762177 200.561066 294.000000
42.616730 200.356323 293.000000
42.616730 201.311203 293.000000
42.616730 201.788651 293.000000
42.471279 202.051575 292.000000
42.471279 202.527374 292.000000
42.471279 203.003189 292.000000
42.471279 203.954803 292.000000
42.471279 204.430618 292.000000
47.196663 172.370575 320.894745
47.196663 172.893478 320.894745
47.506302 174.554077 323.000000
47.506302 175.080399 323.000000
47.506302 175.606720 323.000000
47.359222 175.587738 322.000000
47.212143 175.565506 321.000000
47.212143 176.088577 321.000000
47.212143 176.611649 321.000000
47.065063 176.582886 320.000000
47.065063 177.104324 320.000000
47.065063 178.147186 320.000000
46.917984 178.110291 319.000000
45.888439 180.302719 312.000000
45.741360 180.738358 311.000000
45.741360 181.245132 311.000000
45.741360 182.258667 311.000000
45.741360 182.765442 311.000000
45.594280 183.188049 310.000000
45.594280 183.693192 310.000000
45.447201 183.604141 309.000000
45.447201 184.611160 309.000000
45.300125 184.515594 308.000000
45.300125 185.519363 308.000000
45.153046 185.417297 307.000000
45.153046 186.417801 307.000000
45.005970 186.309189 306.000000
45.005970 187.306442 306.000000
44.858891 187.191315 305.000000
44.858891 188.185303 305.000000
44.858891 188.682297 305.000000
44.711811 189.054398 304.000000
44.564732 188.926239 303.000000
44.564732 189.913712 303.000000
44.564732 190.407440 303.000000
44.417652 190.763245 302.000000
44.417652 191.255356 302.000000
44.417652 192.239563 302.000000
44.270576 192.093475 301.000000
43.388107 197.397644 295.000000
43.388107 198.359055 295.000000
43.388107 198.839752 295.000000
43.241028 199.123871 294.000000
43.241028 199.602936 294.000000
43.241028 200.561066 294.000000
43.093952 200.356323 293.000000
43.093952 201.311203 293.000000
42.946869 201.099945 292.000000
42.946869 202.051575 292.000000
42.946869 202.527374 292.000000
42.946869 203.003189 292.000000
42.946869 203.954803 292.000000
42.946869 204.430618 292.000000
47.719315 172.370575 320.894745
47.719315 172.893478 320.894745
48.032383 174.554077 323.000000
48.032383 175.080399 323.000000
48.032383 175.606720 323.000000
47.883675 175.587738 322.000000
47.734970 175.565506 321.000000
47.734970 176.088577 321.000000
47.734970 176.611649 321.000000
47.586262 176.582886 320.000000
47.586262 177.104324 320.000000
47.586262 178.147186 320.000000
47.437553 178.110291 319.000000
47.288849 178.588303 318.000000
47.140141 178.543243 317.000000
47.140141 179.576340 317.000000
47.140141 180.092896 317.000000
46.938950 180.352966 315.647064
46.839809 180.485306 314.980408
46.745892 181.147842 314.348816
45.504364 186.309189 306.000000
45.504364 187.306442 306.000000
45.355656 187.191315 305.000000
45.355656 188.185303 305.000000
45.355656 188.682297 305.000000
45.206951 189.054398 304.000000
45.058243 188.926239 303.000000
45.058243 189.913712 303.000000
45.058243 190.407440 303.000000
44.909534 190.763245 302.000000
44.909534 191.255356 302.000000
44.909534 192.239563 302.000000
44.760826 192.093475 301.000000
44.612118 192.432999 300.000000
44.612118 192.921844 300.000000
44.612118 193.410690 300.000000
44.612118 194.388382 300.000000
44.463413 194.227631 299.000000
44.463413 195.202072 299.000000
44.314705 195.034805 298.000000
44.314705 196.005981 298.000000
44.166000 195.832199 297.000000
44.166000 196.800110 297.000000
44.166000 197.284073 297.000000
44.017292 197.584473 296.000000
48.408131 174.013657 322.000000
48.408131 174.538345 322.000000
48.408131 175.063049 322.000000
48.257797 175.042450 321.000000
48.257797 175.565506 321.000000
48.257797 176.088577 321.000000
48.257797 176.611649 321.000000
47.877533 176.257858 318.470581
47.819794 177.081940 318.086517
47.732067 177.274445 317.502991
47.806786 178.588303 318.000000
47.656448 178.543243 317.000000
47.656448 179.576340 317.000000
47.506763 179.527222 316.004303
47.450344 180.342651 315.629028
47.353069 180.486191 314.981964
47.261196 181.160553 314.370850
47.174156 181.338242 313.791901
46.904774 181.319519 312.000000
46.904774 181.827911 312.000000
46.754436 182.258667 311.000000
46.754436 182.765442 311.000000
46.754436 183.272217 311.000000
46.604103 183.693192 310.000000
46.604103 184.198334 310.000000
46.453766 184.611160 309.000000
46.453766 185.114685 309.000000
46.453766 186.121704 309.000000
46.153091 185.417297 307.000000
46.153091 186.417801 307.000000
45.251080 192.093475 301.000000
45.251080 193.074432 301.000000
45.100742 192.921844 300.000000
45.100742 193.410690 300.000000
45.100742 194.388382 300.000000
44.950409 194.227631 299.000000
44.950409 195.202072 299.000000
44.800072 195.034805 298.000000
44.800072 196.005981 298.000000
44.800072 196.491562 298.000000
44.682980 196.946640 297.221130
44.629696 197.195526 296.866699
44.499397 197.584473 296.000000
44.349064 197.397644 295.000000
44.349064 198.359055 295.000000
44.198727 198.165726 294.000000
44.198727 199.123871 294.000000
44.198727 199.602936 294.000000
44.198727 200.561066 294.000000
44.048393 200.356323 293.000000
44.048393 201.311203 293.000000
43.898056 201.099945 292.000000
43.898056 202.051575 292.000000
43.898056 202.527374 292.000000
43.898056 203.003189 292.000000
43.898056 203.954803 292.000000
43.898056 204.430618 292.000000
48.780621 175.042450 321.000000
48.780621 175.565506 321.000000
48.780621 176.088577 321.000000
48.628654 176.061447 320.000000
48.628654 176.582886 320.000000
47.564903 181.900665 313.000000
47.412941 181.827911 312.000000
47.412941 182.844711 312.000000
47.260975 182.765442 311.000000
47.260975 183.272217 311.000000
47.260975 184.285751 311.000000
47.260975 184.792526 311.000000
47.109013 185.208618 310.000000
46.997875 185.275635 309.268677
46.915276 185.956146 308.725128
46.829025 186.116425 308.157562
46.653118 186.417801 307.000000
46.501152 186.309189 306.000000
46.501152 187.306442 306.000000
46.501152 187.805069 306.000000
46.349186 188.185303 305.000000
46.349186 188.682297 305.000000
46.197224 189.054398 304.000000
46.197224 189.549759 304.000000
46.045258 189.913712 303.000000
46.045258 190.407440 303.000000
46.015709 191.272079 302.805542
45.893291 191.255356 302.000000
45.893291 192.239563 302.000000
44.829544 198.359055 295.000000
44.677578 198.165726 294.000000
44.677578 199.123871 294.000000
44.677578 199.602936 294.000000
44.525616 199.878891 293.000000
44.525616 200.356323 293.000000
44.525616 201.311203 293.000000
44.373650 201.099945 292.000000
44.373650 202.051575 292.000000
44.373650 202.527374 292.000000
44.373650 203.003189 292.000000
44.373650 203.954803 292.000000
44.221684 203.730515 291.000000
49.303448 175.042450 321.000000
49.303448 175.565506 321.000000
49.303448 176.088577 321.000000
49.149853 176.061447 320.000000
48.905087 176.222336 318.406403
48.821629 176.957504 317.863007
48.710018 177.069733 317.136353
48.601074 177.704941 316.427063
48.515900 177.908234 315.872528
48.359791 178.361877 314.856140
48.305950 178.675766 314.505585
48.264530 179.546661 314.235931
48.231396 179.935104 314.020203
48.195072 180.822205 313.783722
48.195072 181.333511 313.783722
47.153141 186.417801 307.000000
47.153141 186.918045 307.000000
46.999550 187.306442 306.000000
46.999550 187.805069 306.000000
46.999550 188.802307 306.000000
46.845955 188.682297 305.000000
46.692364 189.054398 304.000000
46.692364 189.549759 304.000000
46.538769 189.913712 303.000000
46.620552 190.742050 303.532471
46.531868 191.366531 302.955078
46.385174 191.255356 302.000000
46.385174 192.239563 302.000000
46.231583 192.093475 301.000000
46.231583 193.074432 301.000000
46.077988 192.921844 300.000000
46.077988 193.410690 300.000000
46.077988 194.388382 300.000000
45.924397 194.227631 299.000000
45.924397 195.202072 299.000000
45.770802 195.034805 298.000000
45.770802 196.005981 298.000000
45.770802 196.491562 298.000000
45.652058 196.950455 297.226898
45.599026 197.205429 296.881622
45.463615 197.584473 296.000000
45.463615 198.066803 296.000000
49.200718 176.976822 316.969940
49.098919 177.641495 316.314087
49.012878 177.844727 315.759796
48.818180 178.163239 314.505493
48.779293 178.533386 314.254944
48.737190 179.402542 313.983704
48.704105 179.792053 313.770569
48.677227 180.714844 313.597412
48.894939 182.036392 315.000000
48.739719 182.481827 314.000000
48.584496 182.410690 313.000000
48.584496 183.430756 313.000000
48.429276 183.353119 312.000000
48.429276 183.861511 312.000000
48.274052 184.285751 311.000000
48.274052 184.792526 311.000000
48.274052 185.806061 311.000000
48.274052 186.312836 311.000000
48.015350 186.322479 309.333344
47.917313 186.445084 308.701752
46.721832 193.074432 301.000000
46.721832 193.564911 301.000000
46.566608 193.410690 300.000000
46.566608 194.388382 300.000000
46.566608 194.877228 300.000000
46.411388 195.202072 299.000000
46.256165 195.034805 298.000000
46.256165 196.005981 298.000000
46.100945 195.832199 297.000000
46.100945 196.800110 297.000000
46.100945 197.284073 297.000000
46.100945 198.251984 297.000000
45.945721 198.066803 296.000000
45.945721 199.031448 296.000000
45.790501 198.839752 295.000000
45.635277 199.123871 294.000000
45.635277 199.602936 294.000000
45.480057 199.878891 293.000000
45.480057 200.356323 293.000000
45.480057 201.311203 293.000000
45.324833 201.099945 292.000000
45.324833 202.051575 292.000000
45.324833 202.527374 292.000000
45.324833 203.003189 292.000000
45.169613 203.256332 291.000000
45.169613 203.730515 291.000000
49.244049 179.386017 313.954773
49.201916 179.743683 313.686157
49.169506 180.646896 313.479523
49.169506 181.157715 313.479523
49.251144 182.993484 314.000000
49.251144 184.016800 314.000000
49.094292 183.940781 313.000000
48.937443 183.861511 312.000000
48.937443 184.878311 312.000000
48.780590 184.792526 311.000000
48.780590 185.806061 311.000000
48.662552 185.861984 310.247437
48.575089 186.537201 309.689819
48.492485 186.723770 309.163177
48.393425 187.347824 308.531616
48.153187 186.918045 307.000000
47.996338 187.306442 306.000000
47.996338 187.805069 306.000000
47.996338 188.802307 306.000000
47.839485 188.682297 305.000000
47.839485 189.676285 305.000000
47.682636 189.549759 304.000000
47.682636 190.540482 304.000000
47.525784 190.407440 303.000000
47.555885 191.516129 303.191895
47.368931 191.255356 302.000000
47.368931 192.239563 302.000000
47.368931 192.731659 302.000000
46.427830 198.066803 296.000000
46.427830 199.031448 296.000000
46.270981 198.839752 295.000000
46.114128 199.123871 294.000000
46.114128 199.602936 294.000000
45.957279 199.878891 293.000000
45.957279 200.356323 293.000000
45.957279 201.311203 293.000000
45.800426 201.099945 292.000000
45.800426 202.051575 292.000000
45.800426 202.527374 292.000000
45.800426 203.003189 292.000000
45.643578 203.256332 291.000000
45.643578 203.730515 291.000000
50.554966 175.511261 319.000000
50.075047 177.964096 315.971710
49.987957 178.682541 315.422211
49.794125 178.501663 314.199127
49.921047 183.062958 315.000000
48.653210 187.918549 307.000000
48.653210 188.418808 307.000000
48.652321 189.415833 306.994385
48.336254 188.682297 305.000000
48.336254 189.676285 305.000000
48.336254 190.173279 305.000000
48.177776 190.540482 304.000000
48.019295 190.407440 303.000000
48.019295 191.394913 303.000000
48.019295 191.888641 303.000000
47.860813 192.239563 302.000000
47.860813 192.731659 302.000000
47.860813 193.223770 302.000000
47.702335 193.564911 301.000000
47.702335 194.055389 301.000000
47.543854 194.388382 300.000000
47.543854 194.877228 300.000000
47.385376 195.202072 299.000000
47.226894 195.034805 298.000000
47.226894 196.005981 298.000000
47.226894 196.491562 298.000000
47.068417 196.800110 297.000000
47.068417 197.284073 297.000000
47.068417 198.251984 297.000000
46.117542 202.307968 291.000000
46.117542 203.256332 291.000000
46.117542 203.730515 291.000000
51.074532 175.511261 319.000000
51.074532 176.031067 319.000000
51.074532 176.550873 319.000000
50.592045 179.002197 315.986481
50.513714 179.239151 315.497253
50.425571 179.952789 314.946716
50.426502 180.469330 314.952545
50.426502 181.495758 314.952545
50.376656 181.829041 314.641205
50.434101 183.062958 315.000000
50.434101 183.576248 315.000000
50.273994 184.016800 314.000000
50.273994 184.528458 314.000000
50.113884 184.450821 313.000000
49.953777 184.878311 312.000000
49.953777 185.386719 312.000000
49.985138 186.520523 312.195862
49.871319 186.603378 311.484985
49.765083 187.218842 310.821472
49.658604 187.323639 310.156403
49.545582 187.905792 309.450500
49.438843 188.004135 308.783844
48.352692 192.239563 302.000000
48.352692 192.731659 302.000000
48.352692 193.223770 302.000000
48.352692 194.207977 302.000000
48.192585 194.055389 301.000000
48.032475 194.388382 300.000000
48.032475 194.877228 300.000000
47.872368 195.202072 299.000000
47.712261 195.034805 298.000000
47.712261 196.005981 298.000000
47.712261 196.491562 298.000000
47.712261 197.462738 298.000000
47.552155 197.284073 297.000000
47.552155 198.251984 297.000000
47.392044 198.066803 296.000000
47.231937 198.359055 295.000000
47.231937 198.839752 295.000000
47.071827 199.123871 294.000000
47.071827 199.602936 294.000000
47.071827 200.561066 294.000000
46.911720 200.356323 293.000000
46.911720 201.311203 293.000000
46.751610 201.099945 292.000000
46.751610 202.051575 292.000000
46.751610 202.527374 292.000000
51.594101 175.511261 319.000000
50.910740 179.854584 314.774841
50.863117 180.198792 314.480408
50.819458 181.068115 314.210449
50.815052 181.564377 314.183228
50.663258 182.042862 313.244690
50.947155 183.576248 315.000000
50.947155 184.089539 315.000000
50.785419 184.528458 314.000000
50.785419 185.040115 314.000000
50.461945 184.878311 312.000000
50.799870 186.628174 314.089355
50.670853 187.175201 313.291656
50.543072 187.212418 312.501617
50.428486 187.804092 311.793121
50.310837 187.872849 311.065735
50.200375 188.471878 310.382751
50.079071 188.521011 309.632751
49.964909 189.098022 308.926880
49.857082 189.192261 308.260223
49.754932 189.807175 307.628632
49.491524 189.300934 306.000000
49.329784 189.676285 305.000000
49.329784 190.173279 305.000000
49.168049 190.540482 304.000000
49.006310 190.407440 303.000000
49.006310 191.394913 303.000000
49.006310 191.888641 303.000000
48.026165 198.211853 296.939880
47.874149 198.066803 296.000000
47.712418 198.359055 295.000000
47.712418 198.839752 295.000000
47.550678 199.123871 294.000000
47.550678 199.602936 294.000000
47.550678 200.561066 294.000000
47.550678 201.040146 294.000000
47.388943 201.311203 293.000000
47.227203 201.099945 292.000000
47.227203 202.051575 292.000000
47.227203 202.527374 292.000000
47.065468 202.307968 291.000000
47.065468 203.256332 291.000000
47.065468 203.730515 291.000000
52.113670 175.511261 319.000000
52.113670 176.031067 319.000000
50.457478 189.561630 308.862061
50.351257 190.167023 308.211853
50.153282 189.919571 307.000000
49.989918 190.298172 306.000000
49.826550 190.173279 305.000000
49.826550 191.167267 305.000000
49.663185 191.035858 304.000000
49.499821 191.394913 303.000000
49.499821 191.888641 303.000000
49.336452 192.239563 302.000000
49.336452 192.731659 302.000000
49.336452 193.223770 302.000000
49.336452 194.207977 302.000000
49.336452 194.700089 302.000000
49.173088 195.036331 301.000000
49.072960 195.128662 300.387085
48.846355 195.202072 299.000000
48.682991 195.034805 298.000000
48.682991 196.005981 298.000000
48.724510 196.659149 298.254150
48.663631 197.384216 297.881500
48.600174 197.611603 297.493073
47.539433 202.307968 291.000000
47.539433 203.256332 291.000000
47.539433 203.730515 291.000000
52.633240 175.511261 319.000000
51.830395 181.024124 314.134094
51.761288 181.293945 313.715271
51.688309 182.059280 313.272949
51.973263 183.576248 315.000000
51.973263 184.089539 315.000000
51.973263 185.116119 315.000000
51.866634 185.248566 314.353729
51.866634 186.273041 314.353729
51.866634 186.785278 314.353729
51.745296 187.370392 313.618347
51.640549 187.501099 312.983490
51.524620 188.097870 312.280853
51.421909 188.230774 311.658356
51.319908 188.871078 311.040161
51.196163 188.921280 310.290161
51.079697 189.500412 309.584259
49.993328 191.888641 303.000000
49.993328 192.876114 303.000000
49.828331 192.731659 302.000000
49.828331 193.223770 302.000000
49.828331 194.207977 302.000000
49.828331 194.700089 302.000000
49.663338 195.036331 301.000000
49.665619 195.535797 301.013824
49.553417 196.072845 300.333801
49.431004 196.076645 299.591858
49.353661 196.744690 299.123108
49.269939 196.897507 298.615662
49.198399 197.583389 298.182068
49.133865 197.809464 297.790955
49.041317 198.405533 297.230042
48.946232 198.504257 296.653748
48.673374 198.359055 295.000000
48.673374 198.839752 295.000000
48.508377 199.123871 294.000000
48.508377 199.602936 294.000000
48.508377 200.561066 294.000000
48.508377 201.040146 294.000000
48.343384 201.311203 293.000000
48.178387 201.099945 292.000000
48.178387 202.051575 292.000000
48.178387 202.527374 292.000000
52.136406 182.352417 312.899994
52.082256 183.181702 312.575012
51.992100 183.373047 312.033936
51.861729 183.420425 311.251495
51.794006 184.193939 310.845062
51.746597 184.531403 310.560547
51.711048 185.416031 310.347168
51.659306 185.735718 310.036652
51.617271 186.594147 309.784363
51.572979 186.938400 309.518555
51.819820 188.846695 311.000000
51.653202 188.744598 310.000000
51.486576 189.142776 309.000000
51.319954 189.032532 308.000000
51.319954 190.036301 308.000000
51.319954 190.538177 308.000000
50.986710 190.298172 306.000000
50.986710 190.796799 306.000000
50.820084 191.167267 305.000000
50.820084 191.664261 305.000000
50.653461 192.026581 304.000000
49.551189 198.508743 297.384644
49.439232 198.543732 296.712738
49.153851 198.359055 295.000000
49.153851 198.839752 295.000000
48.987228 199.123871 294.000000
48.987228 199.602936 294.000000
48.987228 200.561066 294.000000
48.987228 201.040146 294.000000
48.820606 201.311203 293.000000
48.653980 201.099945 292.000000
48.653980 202.051575 292.000000
48.653980 202.527374 292.000000
48.653980 203.003189 292.000000
48.487358 203.256332 291.000000
48.487358 203.730515 291.000000
51.989857 189.142776 309.000000
51.989857 189.646286 309.000000
51.821606 190.036301 308.000000
51.821606 190.538177 308.000000
51.653355 190.920074 307.000000
51.485104 190.796799 306.000000
51.485104 191.794052 306.000000
51.316849 191.664261 305.000000
51.316849 192.658249 305.000000
51.148598 192.521942 304.000000
50.980347 192.876114 303.000000
50.812092 192.731659 302.000000
50.812092 193.223770 302.000000
50.812092 194.207977 302.000000
50.812092 194.700089 302.000000
50.643841 195.036331 301.000000
50.686783 195.692596 301.255219
50.565624 196.204269 300.535126
50.440792 196.208405 299.793182
50.361923 196.877106 299.324432
50.266651 196.991486 298.758179
50.194401 197.680588 298.328766
50.124374 197.890259 297.912567
49.129574 201.575760 292.000000
49.129574 202.527374 292.000000
49.129574 203.003189 292.000000
48.961323 203.256332 291.000000
48.961323 203.730515 291.000000
53.075634 183.096024 312.428833
52.996693 183.332062 311.964172
52.818172 183.221130 310.913300
52.782059 184.108398 310.700714
52.740345 184.468796 310.455170
52.708263 185.367737 310.266327
52.671268 185.742844 310.048553
52.832901 187.326370 311.000000
52.832901 187.833145 311.000000
52.832901 188.846695 311.000000
52.663021 188.744598 310.000000
51.473854 193.369858 303.000000
51.303974 193.223770 302.000000
51.303974 194.207977 302.000000
51.303974 194.700089 302.000000
51.134094 195.036331 301.000000
51.172348 195.673096 301.225189
50.964211 195.854919 300.000000
50.794331 195.689285 299.000000
50.794331 196.663727 299.000000
50.624451 196.491562 298.000000
50.692722 197.729034 298.401886
50.617519 197.921219 297.959198
50.537766 198.578903 297.489746
50.403328 198.534103 296.698364
50.114811 198.359055 295.000000
50.114811 198.839752 295.000000
49.944927 199.123871 294.000000
49.944927 199.602936 294.000000
49.944927 200.561066 294.000000
49.944927 201.040146 294.000000
49.775047 201.311203 293.000000
49.775047 201.788651 293.000000
53.537308 183.443436 312.153687
53.450031 183.652206 311.644806
53.366657 184.379791 311.158691
53.281448 184.591629 310.661896
53.239952 185.459488 310.419922
53.194832 185.807739 310.156860
53.158733 186.691742 309.946381
53.339439 187.833145 311.000000
53.339439 188.846695 311.000000
53.339439 189.353455 311.000000
53.167931 189.754883 310.000000
52.996418 189.646286 309.000000
52.996418 190.653305 309.000000
52.824913 190.538177 308.000000
52.653400 190.920074 307.000000
52.653400 191.420319 307.000000
52.481892 191.794052 306.000000
52.310383 191.664261 305.000000
52.310383 192.658249 305.000000
52.310383 193.155243 305.000000
52.138874 193.512680 304.000000
51.109814 196.491562 298.000000
51.109814 197.462738 298.000000
51.123650 198.001907 298.080658
51.043713 198.662231 297.614594
50.908577 198.619965 296.826660
50.595287 198.359055 295.000000
50.595287 198.839752 295.000000
50.423779 199.123871 294.000000
50.423779 199.602936 294.000000
50.423779 200.561066 294.000000
50.252270 200.356323 293.000000
50.252270 201.311203 293.000000
50.252270 201.788651 293.000000
50.080757 201.575760 292.000000
50.080757 202.527374 292.000000
50.080757 203.003189 292.000000
49.909252 203.256332 291.000000
49.909252 203.730515 291.000000
53.688393 185.767578 310.089844
53.647240 186.634979 309.852142
53.499699 189.646286 309.000000
53.499699 190.653305 309.000000
53.326565 190.538177 308.000000
53.326565 191.541946 308.000000
53.153423 191.420319 307.000000
53.153423 192.420822 307.000000
52.980289 192.292679 306.000000
52.807148 192.658249 305.000000
52.807148 193.155243 305.000000
52.807148 193.652237 305.000000
52.634010 194.008041 304.000000
52.460873 193.863586 303.000000
52.287731 194.207977 302.000000
52.287731 194.700089 302.000000
52.287731 195.684296 302.000000
51.941456 194.877228 300.000000
51.941456 195.854919 300.000000
51.768318 195.689285 299.000000
51.768318 196.663727 299.000000
50.729492 201.311203 293.000000
50.729492 201.788651 293.000000
50.556351 201.575760 292.000000
50.556351 202.527374 292.000000
50.556351 203.003189 292.000000
50.556351 203.954803 292.000000
50.383213 203.730515 291.000000
54.388145 184.406570 311.203888
54.366135 184.838821 311.077911
54.301201 185.630630 310.706360
54.352520 187.833145 311.000000
54.352520 188.846695 311.000000
54.352520 189.353455 311.000000
54.352520 190.367004 311.000000
53.129150 194.008041 304.000000
52.954380 193.863586 303.000000
52.954380 194.851059 303.000000
52.779613 194.700089 302.000000
52.779613 195.684296 302.000000
52.430077 194.877228 300.000000
52.430077 195.854919 300.000000
52.430077 196.343765 300.000000
52.255314 196.663727 299.000000
52.255314 197.150940 299.000000
52.080544 197.462738 298.000000
52.080544 197.948334 298.000000
52.065182 198.860809 297.912079
51.905781 198.735947 297.000000
51.731010 199.031448 296.000000
51.556248 198.839752 295.000000
51.556248 199.801147 295.000000
51.381477 199.602936 294.000000
51.381477 200.561066 294.000000
51.381477 201.040146 294.000000
54.835308 185.725616 310.865356
54.757954 185.969467 310.426849
54.687237 186.739670 310.025940
54.648499 187.112213 309.806335
54.859058 188.846695 311.000000
54.859058 189.353455 311.000000
54.859058 190.367004 311.000000
54.682655 190.260025 310.000000
54.506264 190.653305 309.000000
54.506264 191.156815 309.000000
54.329868 191.541946 308.000000
54.153473 191.420319 307.000000
54.153473 192.420822 307.000000
53.977074 192.292679 306.000000
53.800682 192.658249 305.000000
53.800682 193.155243 305.000000
53.800682 193.652237 305.000000
52.742306 197.150940 299.000000
52.742306 198.125366 299.000000
52.565910 197.948334 298.000000
52.565910 198.919510 298.000000
52.389515 198.735947 297.000000
52.389515 199.703857 297.000000
52.213120 199.513779 296.000000
52.036724 199.801147 295.000000
52.036724 200.281845 295.000000
52.036724 201.243240 295.000000
51.860329 201.040146 294.000000
51.860329 201.998276 294.000000
51.683933 201.788651 293.000000
51.683933 202.266083 293.000000
51.507538 202.527374 292.000000
51.507538 203.003189 292.000000
55.260197 186.969772 310.407959
55.244942 187.423813 310.322266
55.188831 188.243774 310.007111
55.365597 190.367004 311.000000
55.187565 190.260025 310.000000
55.187565 191.270309 310.000000
55.187565 191.775452 310.000000
55.009544 192.163834 309.000000
54.755466 191.777466 307.572784
54.703251 192.595993 307.279480
54.475468 192.292679 306.000000
54.297447 192.658249 305.000000
54.297447 193.155243 305.000000
54.297447 193.652237 305.000000
54.297447 194.646225 305.000000
54.119423 194.503403 304.000000
53.941395 194.851059 303.000000
53.941395 195.344788 303.000000
53.763371 195.684296 302.000000
53.585350 195.526810 301.000000
53.407326 195.854919 300.000000
53.407326 196.343765 300.000000
53.407326 197.321457 300.000000
52.161156 202.266083 293.000000
52.161156 203.220963 293.000000
52.161156 203.698410 293.000000
56.051785 189.962311 312.000000
54.794212 192.658249 305.000000
54.794212 193.155243 305.000000
54.794212 193.652237 305.000000
54.794212 194.646225 305.000000
54.794212 195.143219 305.000000
54.614563 195.494125 304.000000
54.434902 195.344788 303.000000
54.255253 195.684296 302.000000
54.075600 195.526810 301.000000
53.895950 195.854919 300.000000
53.895950 196.343765 300.000000
53.895950 197.321457 300.000000
53.895950 197.810303 300.000000
53.716290 198.125366 299.000000
53.716290 198.612595 299.000000
53.536640 198.919510 298.000000
53.356987 198.735947 297.000000
53.356987 199.703857 297.000000
53.356987 200.187820 297.000000
53.177334 200.478439 296.000000
52.997681 200.281845 295.000000
52.997681 201.243240 295.000000
52.997681 201.723938 295.000000
52.818027 201.998276 294.000000
52.818027 202.477356 294.000000
56.157589 188.610931 309.780457
56.378674 190.367004 311.000000
56.197388 190.260025 310.000000
56.197388 191.270309 310.000000
56.197388 191.775452 310.000000
55.699368 191.077271 307.252777
55.640057 191.373947 306.925629
55.580532 192.168396 306.597260
55.520847 192.461075 306.268005
54.203285 198.612595 299.000000
54.203285 199.587021 299.000000
54.022003 199.405090 298.000000
53.840725 199.703857 297.000000
53.840725 200.187820 297.000000
53.840725 201.155731 297.000000
53.659443 200.960770 296.000000
53.478157 201.243240 295.000000
53.478157 201.723938 295.000000
53.478157 202.204636 295.000000
53.296879 202.477356 294.000000
53.296879 202.956421 294.000000
53.296879 203.914551 294.000000
56.537811 189.204437 309.100739
56.519386 189.646286 309.000000
56.519386 190.653305 309.000000
56.519386 191.156815 309.000000
56.118824 190.801941 306.810059
56.075993 191.155884 306.575897
56.029270 191.994904 306.320465
55.979885 192.324371 306.050446
55.970654 193.289917 306.000000
55.970654 193.788544 306.000000
55.787746 193.652237 305.000000
55.787746 194.646225 305.000000
55.787746 195.143219 305.000000
55.787746 196.137207 305.000000
55.604836 195.989487 304.000000
55.421921 196.332260 303.000000
55.239014 196.176407 302.000000
55.056103 196.507767 301.000000
55.056103 196.998230 301.000000
54.873196 197.321457 300.000000
54.873196 197.810303 300.000000
54.873196 198.787994 300.000000
53.775726 202.956421 294.000000
53.775726 203.914551 294.000000
53.775726 204.393631 294.000000
56.469048 193.289917 306.000000
56.469048 193.788544 306.000000
56.469048 194.287170 306.000000
56.469048 195.284409 306.000000
56.284512 195.143219 305.000000
56.284512 196.137207 305.000000
56.284512 196.634201 305.000000
55.915428 196.332260 303.000000
55.915428 196.825989 303.000000
55.730892 197.160614 302.000000
55.730892 197.652710 302.000000
55.546352 197.979187 301.000000
55.361816 197.810303 300.000000
55.361816 198.787994 300.000000
55.361816 199.276840 300.000000
55.177273 199.587021 299.000000
55.177273 200.074234 299.000000
54.992733 200.376266 298.000000
54.992733 200.861847 298.000000
54.808197 201.155731 297.000000
54.623661 200.960770 296.000000
54.623661 201.925430 296.000000
54.623661 202.407745 296.000000
54.439114 202.204636 295.000000
54.439114 203.166031 295.000000
57.525951 189.646286 309.000000
57.525951 190.653305 309.000000
57.267387 190.297623 307.611115
57.090523 190.709305 306.661102
57.063213 191.117554 306.514435
57.017799 191.963577 306.270477
57.153618 192.921082 307.000000
55.850437 198.787994 300.000000
55.850437 199.276840 300.000000
55.850437 200.254532 300.000000
55.664265 200.074234 299.000000
55.478100 200.376266 298.000000
55.478100 200.861847 298.000000
55.478100 201.833023 298.000000
55.291935 201.639694 297.000000
55.105766 201.925430 296.000000
55.105766 202.407745 296.000000
55.105766 202.890076 296.000000
54.919594 203.166031 295.000000
54.733429 202.956421 294.000000
54.733429 203.914551 294.000000
54.733429 204.393631 294.000000
57.621258 190.812836 306.827576
57.554756 191.092026 306.473480
57.841434 193.047592 308.000000
57.653641 192.921082 307.000000
57.653641 193.921585 307.000000
57.465839 193.788544 306.000000
57.465839 194.287170 306.000000
57.465839 195.284409 306.000000
57.465839 195.783035 306.000000
57.278042 196.137207 305.000000
57.278042 196.634201 305.000000
57.090248 196.980225 304.000000
56.902447 196.825989 303.000000
56.714653 197.160614 302.000000
56.714653 197.652710 302.000000
56.526855 197.979187 301.000000
56.526855 198.469666 301.000000
55.400074 203.646729 295.000000
55.212276 203.914551 294.000000
55.212276 204.393631 294.000000
55.212276 205.351761 294.000000
55.212276 205.830841 294.000000
57.964233 195.284409 306.000000
57.724300 194.972610 304.733337
57.671551 195.786667 304.454895
57.627140 196.131607 304.220428
57.585384 196.980225 304.000000
57.395954 196.825989 303.000000
57.395954 197.813461 303.000000
57.206532 197.652710 302.000000
57.206532 198.636932 302.000000
57.017109 198.469666 301.000000
57.017109 199.450607 301.000000
56.827682 199.276840 300.000000
56.827682 200.254532 300.000000
56.702106 200.299774 299.337067
56.545670 200.720016 298.511230
56.466236 200.923782 298.091888
56.345161 201.462372 297.452728
56.259407 201.639694 297.000000
56.069981 201.925430 296.000000
56.069981 202.407745 296.000000
56.069981 202.890076 296.000000
56.069981 203.854736 296.000000
58.653687 190.920074 307.000000
58.653687 191.420319 307.000000
58.653687 192.420822 307.000000
58.653687 192.921082 307.000000
58.653687 193.421326 307.000000
58.653687 194.421844 307.000000
58.653687 194.922089 307.000000
57.507359 199.450607 301.000000
57.507359 199.941086 301.000000
57.507359 200.922043 301.000000
57.253986 200.525116 299.673828
57.102993 200.970337 298.883514
57.018318 201.158630 298.440308
56.890488 201.678070 297.771210
56.743141 201.639694 297.000000
56.552090 201.925430 296.000000
56.552090 202.407745 296.000000
56.552090 202.890076 296.000000
56.552090 203.854736 296.000000
56.361031 203.646729 295.000000
56.169979 203.914551 294.000000
56.169979 204.393631 294.000000
56.169979 205.351761 294.000000
56.169979 205.830841 294.000000
59.153709 191.420319 307.000000
59.153709 192.420822 307.000000
59.153709 192.921082 307.000000
59.153709 193.421326 307.000000
59.153709 194.421844 307.000000
58.819050 193.819321 305.263153
58.743229 194.563049 304.869659
58.725849 195.002106 304.779449
58.677299 195.833344 304.527496
58.637310 196.195786 304.319977
58.637310 197.187561 304.319977
58.575661 197.475586 304.000000
58.575661 198.466309 304.000000
58.382973 198.307205 303.000000
58.382973 199.294662 303.000000
58.190292 199.129028 302.000000
56.841511 203.646729 295.000000
56.648827 203.914551 294.000000
56.648827 204.393631 294.000000
56.648827 205.351761 294.000000
56.648827 205.830841 294.000000
59.254097 193.616241 304.943329
59.172009 194.340454 304.520874
59.000404 194.271637 303.637756
58.965050 195.144165 303.455780
58.939327 195.553299 303.323425
58.919548 196.475861 303.221619
58.919548 196.969955 303.221619
59.070797 198.466309 304.000000
59.070797 198.961685 304.000000
58.876480 199.294662 303.000000
58.876480 199.788406 303.000000
58.682171 200.113235 302.000000
58.682171 200.605347 302.000000
58.682171 201.589554 302.000000
58.682171 202.081665 302.000000
58.160904 201.262054 299.317352
58.081451 201.474197 298.908478
58.099236 202.510315 299.000000
57.904926 202.318619 298.000000
57.904926 202.804199 298.000000
57.710613 203.091568 297.000000
57.516304 202.890076 296.000000
57.516304 203.854736 296.000000
58.782173 203.187622 300.000000
58.586227 202.997543 299.000000
58.390289 202.804199 298.000000
58.390289 203.775375 298.000000
58.194351 203.575516 297.000000
58.194351 204.543442 297.000000
57.998413 204.337067 296.000000
57.802467 204.608139 295.000000
57.606529 204.393631 294.000000
57.606529 205.351761 294.000000
57.606529 205.830841 294.000000
60.093758 194.609253 304.165436
60.016335 195.348511 303.773560
59.954182 195.640701 303.458984
59.894192 196.432922 303.155334
59.873436 196.858658 303.050293
59.857479 197.793564 302.969513
59.818363 198.157684 302.771545
60.061073 199.952408 304.000000
59.863499 199.788406 303.000000
59.863499 200.775879 303.000000
59.863499 201.269608 303.000000
59.665932 201.589554 302.000000
59.665932 202.081665 302.000000
59.665932 203.065872 302.000000
59.665932 203.557983 302.000000
58.480518 205.301727 296.000000
58.282944 205.088837 295.000000
58.085377 205.351761 294.000000
58.085377 205.830841 294.000000
60.484547 195.757553 303.640228
60.388050 196.433228 303.155823
60.287498 196.599335 302.651062
60.344772 197.773361 302.938568
60.291557 198.092148 302.671417
60.235302 198.892792 302.389008
60.190296 199.236572 302.163086
60.556210 201.438507 304.000000
60.357006 201.269608 303.000000
60.357006 202.257080 303.000000
60.357006 202.750809 303.000000
60.157810 203.065872 302.000000
60.157810 203.557983 302.000000
59.759418 203.187622 300.000000
59.560215 202.997543 299.000000
59.560215 203.484756 299.000000
59.361019 203.775375 298.000000
59.361019 204.260956 298.000000
59.161823 204.543442 297.000000
59.161823 205.027390 297.000000
60.683998 197.764511 302.170807
60.663784 198.683075 302.070160
60.607731 198.991272 301.791046
60.496826 199.608856 301.238800
60.649693 203.557983 302.000000
60.248039 203.187622 300.000000
60.047211 202.997543 299.000000
60.047211 203.484756 299.000000
59.846386 203.775375 298.000000
59.846386 204.260956 298.000000
59.645561 204.543442 297.000000
59.645561 205.027390 297.000000
59.645561 205.995316 297.000000
59.444733 205.784042 296.000000
59.243904 206.050232 295.000000
59.243904 206.530930 295.000000
61.234810 197.461273 302.460541
61.546486 201.933868 304.000000
61.344025 202.257080 303.000000
61.344025 202.750809 303.000000
61.344025 203.738281 303.000000
60.129295 205.027390 297.000000
60.129295 205.995316 297.000000
60.129295 206.479263 297.000000
59.926842 206.748703 296.000000
59.724380 206.530930 295.000000
61.666389 197.758347 302.161377
61.607861 198.554443 301.874603
61.531242 198.798813 301.499176
61.440655 199.487259 301.055298
61.398632 199.841049 300.849396
60.817116 203.775375 298.000000
60.817116 204.260956 298.000000
60.817116 205.232132 298.000000
61.916801 199.932007 300.986298
61.816532 200.587540 300.498871
61.302479 204.260956 298.000000
61.302479 205.232132 298.000000
61.302479 205.717728 298.000000
61.096767 205.995316 297.000000
61.096767 206.479263 297.000000
61.096767 207.447189 297.000000
60.891056 207.231033 296.000000
61.580505 205.995316 297.000000
61.580505 206.479263 297.000000
61.580505 207.447189 297.000000
61.373165 207.231033 296.000000
62.868752 200.821838 300.849884
62.764496 200.978241 300.350983
62.273209 205.232132 298.000000
62.273209 205.717728 298.000000
77.289917 -25.327835 367.000000
77.289917 -24.729813 367.000000
77.289917 -24.131792 367.000000
77.289917 -23.533770 367.000000
77.289917 -22.935747 367.000000
77.289917 -22.337725 367.000000
77.289917 -21.739704 367.000000
77.289917 -21.141682 367.000000
77.289917 -20.543659 367.000000
77.289917 -19.945639 367.000000
77.289917 -19.347616 367.000000
77.289917 -18.749594 367.000000
77.289917 -18.151573 367.000000
77.289917 -17.553551 367.000000
77.289917 -16.955528 367.000000
77.289917 -16.357508 367.000000
77.289917 -15.759485 367.000000
77.289917 -15.161463 367.000000
77.289917 -14.563441 367.000000
77.289917 -13.965420 367.000000
77.289917 -13.367397 367.000000
77.289917 -12.769377 367.000000
77.289917 -12.171354 367.000000
77.289917 -11.573333 367.000000
77.289917 -10.975311 367.000000
77.289917 -10.377289 367.000000
77.289917 -9.779267 367.000000
77.289917 -9.181246 367.000000
77.289917 -8.583223 367.000000
77.289917 -7.985202 367.000000
77.289917 -7.387180 367.000000
77.289917 -6.789158 367.000000
77.289917 -6.191136 367.000000
77.289917 -5.593114 367.000000
77.289917 -4.995092 367.000000
77.289917 -4.397070 367.000000
77.289917 -3.799048 367.000000
77.289917 -3.201027 367.000000
77.289917 -2.603005 367.000000
77.289917 -2.004983 367.000000
77.289917 -1.406961 367.000000
77.289917 -0.808939 367.000000
77.289917 -0.210917 367.000000
77.289917 0.387105 367.000000
77.289917 0.985126 367.000000
77.289917 1.583148 367.000000
77.289917 2.181170 367.000000
77.289917 2.779192 367.000000
77.289917 3.377214 367.000000
77.289917 3.975236 367.000000
77.289917 4.573258 367.000000
77.289917 5.171279 367.000000
77.289917 5.769301 367.000000
77.289917 6.367323 367.000000
77.289917 6.965345 367.000000
77.289917 7.563366 367.000000
77.289917 8.161388 367.000000
77.289917 8.759410 367.000000
77.289917 9.357432 367.000000
77.289917 9.955454 367.000000
77.289917 10.553476 367.000000
77.289917 11.151498 367.000000
77.289917 11.749519 367.000000
77.289917 12.347542 367.000000
77.289917 12.945563 367.000000
77.289917 13.543586 367.000000
77.289917 14.141608 367.000000
77.289917 14.739630 367.000000
77.289917 15.337651 367.000000
77.289917 15.935674 367.000000
77.289917 16.533695 367.000000
77.289917 17.131718 367.000000
77.289917 17.729738 367.000000
77.289917 18.327761 367.000000
77.289917 18.925783 367.000000
77.289917 19.523804 367.000000
63.271633 201.035248 300.436188
63.106030 201.485626 299.649841
63.026306 201.718735 299.271271
62.758575 205.232132 298.000000
62.758575 205.717728 298.000000
62.758575 206.688904 298.000000
62.547977 206.479263 297.000000
62.547977 207.447189 297.000000
62.547977 207.931137 297.000000
77.887665 -25.327835 367.000000
77.887665 -24.729813 367.000000
77.887665 -24.131792 367.000000
77.887665 -23.533770 367.000000
77.887665 -22.935747 367.000000
77.887665 -22.337725 367.000000
77.887665 -21.739704 367.000000
77.887665 -21.141682 367.000000
77.887665 -20.543659 367.000000
77.887665 -19.945639 367.000000
77.887665 -19.347616 367.000000
77.887665 -18.749594 367.000000
77.887665 -18.151573 367.000000
77.887665 -17.553551 367.000000
77.887665 -16.955528 367.000000
77.887665 -16.357508 367.000000
77.887665 -15.759485 367.000000
77.887665 -15.161463 367.000000
77.887665 -14.563441 367.000000
77.887665 -13.965420 367.000000
77.887665 -13.367397 367.000000
77.887665 -12.769377 367.000000
77.887665 -12.171354 367.000000
77.887665 -11.573333 367.000000
77.887665 -10.975311 367.000000
77.887665 -10.377289 367.000000
77.887665 -9.779267 367.000000
77.887665 -9.181246 367.000000
77.887665 -8.583223 367.000000
77.887665 -7.985202 367.000000
77.887665 -7.387180 367.000000
77.887665 -6.789158 367.000000
77.887665 -6.191136 367.000000
77.887665 -5.593114 367.000000
77.887665 -4.995092 367.000000
77.887665 -4.397070 367.000000
77.887665 -3.799048 367.000000
77.887665 -3.201027 367.000000
77.887665 -2.603005 367.000000
77.887665 -2.004983 367.000000
77.887665 -1.406961 367.000000
77.887665 -0.808939 367.000000
77.887665 -0.210917 367.000000
77.887665 0.387105 367.000000
77.887665 0.985126 367.000000
77.887665 1.583148 367.000000
77.887665 2.181170 367.000000
77.887665 2.779192 367.000000
77.887665 3.377214 367.000000
77.887665 3.975236 367.000000
77.887665 4.573258 367.000000
77.887665 5.171279 367.000000
77.887665 5.769301 367.000000
77.887665 6.367323 367.000000
77.887665 6.965345 367.000000
77.887665 7.563366 367.000000
77.887665 8.161388 367.000000
77.887665 8.759410 367.000000
77.887665 9.357432 367.000000
77.887665 9.955454 367.000000
77.887665 10.553476 367.000000
77.887665 11.151498 367.000000
77.887665 11.749519 367.000000
77.887665 12.347542 367.000000
77.887665 12.945563 367.000000
77.887665 13.543586 367.000000
77.887665 14.141608 367.000000
77.887665 14.739630 367.000000
77.887665 15.337651 367.000000
77.887665 15.935674 367.000000
77.887665 16.533695 367.000000
77.887665 17.131718 367.000000
77.887665 17.729738 367.000000
77.887665 18.327761 367.000000
77.887665 18.925783 367.000000
77.887665 19.523804 367.000000
78.736588 25.177456 371.000000
78.736588 25.781996 371.000000
78.736588 26.386536 371.000000
78.842697 27.027451 371.500000
78.842697 27.632805 371.500000
78.842697 28.238159 371.500000
78.842697 28.843513 371.500000
78.842697 29.448870 371.500000
77.763870 29.642984 366.416656
77.763870 30.240055 366.416656
77.643517 30.789398 365.849548
78.276199 31.641296 368.830719
78.276199 32.242302 368.830719
78.276199 32.843304 368.830719
78.276199 33.444313 368.830719
78.276199 34.045315 368.830719
78.276199 34.646320 368.830719
78.230164 35.226597 368.613800
78.230164 35.827244 368.613800
78.158302 36.394436 368.275177
78.089859 36.962139 367.952698
78.089859 37.561714 367.952698
78.014580 38.124496 367.597961
77.948555 38.690723 367.286865
77.948555 39.289211 367.286865
78.084534 39.957287 367.927612
78.128639 40.579723 368.135406
78.128639 41.179596 368.135406
78.128639 41.779469 368.135406
78.113876 42.371334 368.065857
78.113876 42.971092 368.065857
78.097641 43.561798 367.989380
78.079788 44.151337 367.905243
78.079788 44.750835 367.905243
78.064758 45.341599 367.834412
78.055397 45.935471 367.790314
78.055687 46.534958 367.791687
78.055687 47.134270 367.791687
78.068085 47.741161 367.850098
78.080040 48.347965 367.906403
78.080040 48.947468 367.906403
78.080040 49.546967 367.906403
78.079590 50.146179 367.904297
78.079590 50.745674 367.904297
78.074684 51.341938 367.881165
78.070763 51.938789 367.862701
78.070763 52.538219 367.862701
78.068069 53.135815 367.850037
78.067116 53.734562 367.845520
78.067116 54.333965 367.845520
78.341270 55.126278 369.137329
78.367577 55.746494 369.261261
78.367577 56.348202 369.261261
78.415215 56.984528 369.485748
78.415215 57.586597 369.485748
78.415215 58.188675 369.485748
78.171425 58.607967 368.337036
78.180611 59.215126 368.380310
78.191208 59.823502 368.430237
78.191208 60.423855 368.430237
78.191208 61.024204 368.430237
63.288906 202.462463 298.211884
63.243938 207.174484 298.000000
63.031712 207.447189 297.000000
63.031712 207.931137 297.000000
78.485420 -25.327835 367.000000
78.485420 -24.729813 367.000000
78.485420 -24.131792 367.000000
78.485420 -23.533770 367.000000
78.485420 -22.935747 367.000000
78.485420 -22.337725 367.000000
78.485420 -21.739704 367.000000
78.485420 -21.141682 367.000000
78.485420 -20.543659 367.000000
78.485420 -19.945639 367.000000
78.485420 -19.347616 367.000000
78.485420 -18.749594 367.000000
78.485420 -18.151573 367.000000
78.485420 -17.553551 367.000000
78.485420 -16.955528 367.000000
78.485420 -16.357508 367.000000
78.485420 -15.759485 367.000000
78.485420 -15.161463 367.000000
78.485420 -14.563441 367.000000
78.485420 -13.965420 367.000000
78.485420 -13.367397 367.000000
78.485420 -12.769377 367.000000
78.485420 -12.171354 367.000000
78.485420 -11.573333 367.000000
78.485420 -10.975311 367.000000
78.485420 -10.377289 367.000000
78.485420 -9.779267 367.000000
78.485420 -9.181246 367.000000
78.485420 -8.583223 367.000000
78.485420 -7.985202 367.000000
78.485420 -7.387180 367.000000
78.485420 -6.789158 367.000000
78.485420 -6.191136 367.000000
78.485420 -5.593114 367.000000
78.485420 -4.995092 367.000000
78.485420 -4.397070 367.000000
78.485420 -3.799048 367.000000
78.485420 -3.201027 367.000000
78.485420 -2.603005 367.000000
78.485420 -2.004983 367.000000
78.485420 -1.406961 367.000000
78.485420 -0.808939 367.000000
78.485420 -0.210917 367.000000
78.485420 0.387105 367.000000
78.485420 0.985126 367.000000
78.485420 1.583148 367.000000
78.485420 2.181170 367.000000
78.485420 2.779192 367.000000
78.485420 3.377214 367.000000
78.485420 3.975236 367.000000
78.485420 4.573258 367.000000
78.485420 5.171279 367.000000
78.485420 5.769301 367.000000
78.485420 6.367323 367.000000
78.485420 6.965345 367.000000
78.485420 7.563366 367.000000
78.485420 8.161388 367.000000
78.485420 8.759410 367.000000
78.485420 9.357432 367.000000
78.485420 9.955454 367.000000
78.485420 10.553476 367.000000
78.485420 11.151498 367.000000
78.485420 11.749519 367.000000
78.485420 12.347542 367.000000
78.485420 12.945563 367.000000
78.485420 13.543586 367.000000
78.485420 14.141608 367.000000
78.485420 14.739630 367.000000
78.485420 15.337651 367.000000
78.485420 15.935674 367.000000
78.485420 16.533695 367.000000
78.485420 17.131718 367.000000
78.485420 17.729738 367.000000
78.485420 18.327761 367.000000
78.485420 18.925783 367.000000
78.485420 19.523804 367.000000
79.340851 25.177456 371.000000
79.554703 25.851490 372.000000
79.554703 26.457659 372.000000
79.554703 27.063828 372.000000
79.447777 27.632805 371.500000
79.447777 28.238159 371.500000
79.447777 28.843513 371.500000
79.447777 29.448870 371.500000
78.360664 29.642984 366.416656
78.360664 30.240055 366.416656
78.239388 30.789398 365.849548
78.876930 31.641296 368.830719
78.876930 32.242302 368.830719
78.876930 32.843304 368.830719
78.876930 33.444313 368.830719
78.876930 34.045315 368.830719
78.876930 34.646320 368.830719
78.830544 35.226597 368.613800
78.830544 35.827244 368.613800
78.758125 36.394436 368.275177
78.689163 36.962139 367.952698
78.689163 37.561714 367.952698
78.613297 38.124496 367.597961
78.546768 38.690723 367.286865
78.546768 39.289211 367.286865
78.683800 39.957287 367.927612
78.728233 40.579723 368.135406
78.728233 41.179596 368.135406
78.728233 41.779469 368.135406
78.713356 42.371334 368.065857
78.713356 42.971092 368.065857
78.697006 43.561798 367.989380
78.679016 44.151337 367.905243
78.679016 44.750835 367.905243
78.663864 45.341599 367.834412
78.654434 45.935471 367.790314
78.654732 46.534958 367.791687
78.654732 47.134270 367.791687
78.667221 47.741161 367.850098
78.679260 48.347965 367.906403
78.679260 48.947468 367.906403
78.679260 49.546967 367.906403
78.678810 50.146179 367.904297
78.678810 50.745674 367.904297
78.673859 51.341938 367.881165
78.669914 51.938789 367.862701
78.669914 52.538219 367.862701
78.667206 53.135815 367.850037
78.666237 53.734562 367.845520
78.666237 54.333965 367.845520
78.942505 55.126278 369.137329
