24.466736 183.778976 311.000000
24.466736 184.285751 311.000000
24.466736 184.792526 311.000000
24.388065 184.703476 310.000000
24.388065 185.208618 310.000000
24.388065 185.713760 310.000000
24.388065 186.218903 310.000000
24.388065 186.724045 310.000000
24.309395 186.625214 309.000000
24.309395 187.128723 309.000000
24.230722 187.025009 308.000000
24.230722 187.526886 308.000000
24.230722 188.028778 308.000000
24.230722 188.530655 308.000000
24.230722 189.032532 308.000000
24.230722 189.534424 308.000000
24.152052 189.419312 307.000000
24.152052 189.919571 307.000000
24.152052 190.419815 307.000000
24.073381 190.298172 306.000000
24.073381 190.796799 306.000000
24.111948 191.601898 306.490234
24.111948 192.101303 306.490234
24.111948 192.600739 306.490234
24.100943 193.012009 306.350342
24.080460 193.346756 306.089996
24.080460 193.845535 306.089996
24.055967 194.146622 305.778656
23.916039 193.512680 304.000000
23.916039 194.008041 304.000000
23.916039 194.503403 304.000000
23.916039 194.998764 304.000000
23.916039 195.494125 304.000000
23.972649 196.453400 304.719574
23.972649 196.949936 304.719574
23.972649 197.446487 304.719574
23.962723 197.861069 304.593414
23.936499 198.140320 304.260071
23.936499 198.636093 304.260071
23.897137 198.804428 303.759735
23.844362 198.859283 303.088928
23.758696 198.636932 302.000000
23.758696 199.129028 302.000000
23.758696 199.621140 302.000000
23.758696 200.113235 302.000000
23.758696 200.605347 302.000000
23.680025 200.431564 301.000000
23.680025 200.922043 301.000000
23.680025 201.412521 301.000000
23.680025 201.903000 301.000000
23.601355 201.721069 300.000000
23.601355 202.209915 300.000000
23.678162 203.358429 300.976318
23.678162 203.848862 300.976318
23.678162 204.339310 300.976318
23.656511 204.642441 300.701111
23.649136 205.068481 300.607361
23.649136 205.558319 300.607361
23.639025 205.960052 300.478821
23.630396 206.374313 300.369141
23.630396 206.863770 300.369141
23.614159 207.210724 300.162750
23.578676 207.387756 299.711731
23.578676 207.876129 299.711731
23.561249 208.210495 299.490204
23.538908 208.500641 299.206238
23.538908 208.988190 299.206238
23.511992 209.236206 298.864105
23.492601 209.550247 298.617615
23.492601 210.036835 298.617615
33.382866 24.148281 415.727264
33.383018 24.825817 415.729156
33.383018 25.503244 415.729156
33.383018 26.180668 415.729156
33.485069 26.940197 417.000000
33.556068 27.678259 417.884216
33.556068 28.359194 417.884216
33.558952 29.042627 417.920135
33.615459 29.773672 418.623810
33.615459 30.455812 418.623810
33.711319 31.226748 419.817566
33.783588 31.979246 420.717560
33.783588 32.664799 420.717560
33.783588 33.350353 420.717560
33.773201 34.025448 420.588226
33.773201 34.710789 420.588226
33.766148 35.388737 420.500397
33.731918 36.037369 420.074127
33.731918 36.721874 420.074127
33.705170 37.376720 419.741028
33.685734 38.038734 419.498962
33.685734 38.722301 419.498962
33.244167 38.889324 414.000000
33.244167 39.563931 414.000000
33.244167 40.238537 414.000000
33.244167 40.913147 414.000000
33.566856 41.991428 418.018524
33.566856 42.672585 418.018524
33.566856 43.353741 418.018524
33.163868 43.506233 413.000000
33.163868 44.179211 413.000000
33.163868 44.852192 413.000000
33.163868 45.525169 413.000000
33.083569 46.086288 412.000000
33.083569 46.757637 412.000000
33.083569 47.428986 412.000000
33.083569 48.100334 412.000000
33.083569 48.771683 412.000000
33.083569 49.443031 412.000000
33.280334 50.412437 414.450378
33.280334 51.087776 414.450378
33.385227 51.926266 415.756622
33.385227 52.603733 415.756622
33.385227 53.281204 415.756622
33.340710 53.886726 415.202240
33.003265 54.011059 411.000000
33.003265 54.680779 411.000000
33.003265 55.350498 411.000000
33.003265 56.020214 411.000000
33.003265 56.689934 411.000000
32.922970 57.220093 410.000000
32.922970 57.888180 410.000000
32.922970 58.556271 410.000000
32.922970 59.224361 410.000000
32.922970 59.892452 410.000000
32.922970 60.560539 410.000000
32.842667 61.079296 409.000000
32.842667 61.745758 409.000000
32.842667 62.412216 409.000000
32.842667 63.078678 409.000000
32.842667 63.745136 409.000000
32.842667 64.411598 409.000000
32.842667 65.078056 409.000000
32.762367 65.583771 408.000000
32.762367 66.248604 408.000000
32.762367 66.913437 408.000000
32.682068 67.412628 407.000000
32.601768 67.908577 406.000000
32.601768 68.570145 406.000000
32.521469 69.061195 405.000000
32.521469 69.721138 405.000000
32.521469 70.381081 405.000000
32.441170 70.865608 404.000000
32.441170 71.523926 404.000000
32.441170 72.182236 404.000000
32.360867 72.660255 403.000000
32.200268 72.953079 401.000000
32.200268 73.606506 401.000000
32.200268 74.259926 401.000000
32.119968 74.726532 400.000000
32.119968 75.378326 400.000000
32.119968 76.030121 400.000000
32.039669 76.490219 399.000000
32.039669 77.140381 399.000000
31.959368 77.595581 398.000000
31.959368 78.244118 398.000000
31.959368 78.892654 398.000000
31.879068 79.341339 397.000000
31.879068 79.988243 397.000000
31.879068 80.635147 397.000000
31.798767 81.077324 396.000000
31.798767 81.722595 396.000000
31.798767 82.367874 396.000000
31.798767 83.013153 396.000000
31.798767 83.658432 396.000000
31.718470 84.090813 395.000000
31.718470 84.734467 395.000000
31.638168 85.161964 394.000000
31.477568 85.368431 392.000000
31.477568 86.007187 392.000000
31.397270 86.424911 391.000000
31.397270 87.062042 391.000000
31.397270 87.699165 391.000000
31.156368 87.658524 388.000000
31.076071 88.063210 387.000000
31.076071 88.693825 387.000000
30.995770 89.093620 386.000000
30.835171 89.257721 384.000000
30.835171 89.883446 384.000000
30.754868 90.273468 383.000000
30.674570 90.660233 382.000000
30.674570 91.282700 382.000000
30.594269 91.664574 381.000000
30.433670 91.800964 379.000000
30.433670 92.418541 379.000000
30.433670 93.036118 379.000000
30.353371 93.406586 378.000000
30.353371 94.022537 378.000000
30.273069 94.388115 377.000000
30.273069 95.002426 377.000000
30.273069 95.616745 377.000000
30.112471 95.720558 375.000000
30.032171 96.074730 374.000000
30.032171 96.684158 374.000000
30.032171 97.293587 374.000000
29.951870 97.641235 373.000000
29.871572 97.985634 372.000000
29.871572 98.591805 372.000000
29.791271 98.931313 371.000000
29.791271 99.535851 371.000000
29.791271 100.140396 371.000000
29.710972 100.473381 370.000000
29.710972 101.076294 370.000000
29.710972 101.679199 370.000000
29.710972 102.282112 370.000000
29.630671 102.606956 369.000000
29.630671 103.208237 369.000000
29.550373 103.528191 368.000000
29.470072 103.844887 367.000000
29.470072 104.442909 367.000000
29.389771 104.754715 366.000000
29.309471 105.063263 365.000000
29.309471 105.658020 365.000000
29.148872 105.670578 363.000000
29.068571 105.969353 362.000000
29.068571 106.559227 362.000000
28.988272 106.853111 361.000000
28.988272 107.441353 361.000000
28.988272 108.029602 361.000000
28.827673 108.016083 359.000000
28.747372 108.298553 358.000000
28.747372 108.881912 358.000000
28.667072 109.159500 357.000000
28.667072 109.741226 357.000000
28.586771 110.013931 356.000000
28.586771 110.594032 356.000000
28.426172 110.549553 354.000000
28.426172 111.126389 354.000000
28.426172 111.703232 354.000000
28.345873 111.962891 353.000000
28.265572 112.219292 352.000000
28.265572 112.792870 352.000000
28.185270 113.044388 351.000000
28.185270 113.616341 351.000000
28.185270 114.188286 351.000000
28.104973 114.433281 350.000000
28.104973 115.003601 350.000000
28.104973 115.573921 350.000000
28.024672 115.812416 349.000000
27.944372 116.047630 348.000000
27.944372 116.614693 348.000000
27.864071 116.845024 347.000000
27.783773 117.072098 346.000000
27.783773 117.635902 346.000000
27.783773 118.199699 346.000000
27.783773 118.763504 346.000000
27.783773 119.327309 346.000000
27.703472 119.544601 345.000000
27.623175 119.758636 344.000000
27.623175 120.319183 344.000000
27.623175 120.879723 344.000000
27.542871 121.087242 343.000000
27.542871 121.646156 343.000000
27.542871 122.205070 343.000000
27.462574 122.406082 342.000000
27.462574 122.963371 342.000000
27.462574 123.520653 342.000000
27.382273 123.715134 341.000000
27.301975 123.906357 340.000000
27.301975 124.460381 340.000000
27.301975 125.014412 340.000000
27.221674 125.199112 339.000000
27.221674 125.751511 339.000000
27.221674 126.303909 339.000000
27.221674 126.856300 339.000000
27.221674 127.408699 339.000000
27.141375 127.583626 338.000000
27.141375 128.134399 338.000000
27.141375 128.685165 338.000000
27.061073 128.853577 337.000000
27.061073 129.402710 337.000000
27.061073 129.951843 337.000000
26.980772 130.113739 336.000000
26.980772 130.661240 336.000000
26.980772 131.208755 336.000000
26.980772 131.756256 336.000000
26.900475 131.910019 335.000000
26.900475 132.455902 335.000000
26.900475 133.001770 335.000000
26.820173 133.149002 334.000000
26.820173 133.693253 334.000000
26.820173 134.237503 334.000000
26.739874 134.378204 333.000000
26.739874 134.920822 333.000000
26.739874 135.463440 333.000000
26.739874 136.006073 333.000000
26.739874 136.548691 333.000000
26.739874 137.091309 333.000000
26.659575 137.220612 332.000000
26.659575 137.761597 332.000000
26.659575 138.302582 332.000000
26.579275 138.425369 331.000000
26.579275 138.964737 331.000000
26.579275 139.504089 331.000000
26.498974 139.620361 330.000000
26.498974 140.158096 330.000000
26.498974 140.695816 330.000000
26.498974 141.233551 330.000000
26.498974 141.771286 330.000000
26.498974 142.309006 330.000000
26.498974 142.846741 330.000000
26.418674 142.949966 329.000000
26.418674 143.486069 329.000000
26.418674 144.022171 329.000000
26.418674 144.558273 329.000000
26.418674 145.094376 329.000000
26.418674 145.630478 329.000000
26.418674 146.166580 329.000000
26.418674 146.702682 329.000000
26.338373 146.791260 328.000000
26.338373 147.325729 328.000000
26.338373 147.860199 328.000000
26.338373 148.394684 328.000000
26.338373 148.929153 328.000000
26.258074 149.007935 327.000000
26.258074 149.540771 327.000000
26.258074 150.073624 327.000000
26.258074 150.606461 327.000000
26.258074 151.139313 327.000000
26.258074 151.672150 327.000000
26.258074 152.204987 327.000000
26.258074 152.737839 327.000000
26.258074 153.270676 327.000000
26.258074 153.803513 327.000000
26.258074 154.336365 327.000000
26.258074 154.869202 327.000000
26.258074 155.402039 327.000000
26.258074 155.934891 327.000000
26.258074 156.467728 327.000000
26.258074 157.000565 327.000000
26.258074 157.533417 327.000000
26.177774 157.582870 326.000000
26.177774 158.114090 326.000000
26.177774 158.645294 326.000000
26.177774 159.176514 326.000000
26.177774 159.707718 326.000000
26.177774 160.238937 326.000000
26.097473 160.276993 325.000000
26.017174 160.311783 324.000000
26.017174 160.839737 324.000000
26.017174 161.367691 324.000000
26.017174 161.895645 324.000000
26.017174 162.423599 324.000000
25.936874 162.448608 323.000000
25.936874 162.974930 323.000000
25.936874 163.501266 323.000000
25.936874 164.027588 323.000000
25.936874 164.553909 323.000000
25.936874 165.080231 323.000000
25.936874 165.606552 323.000000
25.856575 165.618530 322.000000
25.856575 166.143234 322.000000
25.856575 166.667923 322.000000
25.776276 166.673401 321.000000
25.695974 166.675598 320.000000
25.695974 167.197037 320.000000
25.695974 167.718475 320.000000
25.695974 168.239914 320.000000
25.695974 168.761353 320.000000
25.695974 169.282776 320.000000
25.695974 169.804214 320.000000
25.695974 170.325653 320.000000
25.655825 170.580139 319.500000
25.615675 170.832993 319.000000
25.615675 171.352798 319.000000
25.615675 171.872604 319.000000
25.535376 171.852005 318.000000
25.535376 172.370178 318.000000
25.535376 172.888351 318.000000
25.455076 172.861221 317.000000
25.455076 173.377777 317.000000
25.455076 173.894318 317.000000
25.455076 174.410873 317.000000
25.455076 174.927414 317.000000
25.455076 175.443970 317.000000
25.455076 175.960510 317.000000
25.374775 175.920349 316.000000
25.374775 176.435257 316.000000
25.374775 176.950180 316.000000
25.294476 176.903503 315.000000
25.294476 177.416794 315.000000
25.214176 177.365234 314.000000
25.214176 177.876892 314.000000
25.214176 178.388550 314.000000
25.214176 178.900208 314.000000
25.133877 178.840485 313.000000
25.133877 179.350525 313.000000
25.133877 179.860550 313.000000
25.053576 179.794312 312.000000
25.053576 180.302719 312.000000
25.053576 180.811111 312.000000
25.053576 181.319519 312.000000
25.053576 181.827911 312.000000
25.053576 182.336319 312.000000
24.973274 182.258667 311.000000
24.973274 182.765442 311.000000
24.973274 183.272217 311.000000
24.973274 183.778976 311.000000
24.973274 184.285751 311.000000
24.973274 184.792526 311.000000
24.892975 184.703476 310.000000
24.892975 185.208618 310.000000
24.892975 185.713760 310.000000
24.892975 186.218903 310.000000
24.892975 186.724045 310.000000
24.812675 186.625214 309.000000
24.732376 186.523132 308.000000
24.732376 187.025009 308.000000
24.732376 187.526886 308.000000
24.732376 188.028778 308.000000
24.652075 187.918549 307.000000
24.652075 188.418808 307.000000
24.652075 188.919052 307.000000
24.652075 189.419312 307.000000
24.652075 189.919571 307.000000
24.571775 189.799561 306.000000
24.571775 190.298172 306.000000
24.571775 190.796799 306.000000
24.576773 191.334320 306.062225
24.576773 191.833038 306.062225
24.576773 192.331772 306.062225
24.563444 192.725922 305.896240
24.491476 192.658249 305.000000
24.491476 193.155243 305.000000
24.491476 193.652237 305.000000
24.411177 193.512680 304.000000
24.411177 194.008041 304.000000
24.411177 194.503403 304.000000
24.411177 194.998764 304.000000
24.411177 195.494125 304.000000
24.424593 196.097214 304.167084
24.424593 196.592850 304.167084
24.424593 197.088486 304.167084
24.407503 197.445877 303.954254
24.392076 197.816055 303.762146
24.392076 198.311035 303.762146
24.355587 198.508606 303.307739
24.250576 198.144821 302.000000
24.250576 198.636932 302.000000
24.250576 199.129028 302.000000
24.250576 199.621140 302.000000
24.170277 199.450607 301.000000
24.170277 199.941086 301.000000
24.170277 200.431564 301.000000
24.089977 200.254532 300.000000
24.089977 200.743378 300.000000
24.089977 201.232224 300.000000
24.089977 201.721069 300.000000
24.089977 202.209915 300.000000
24.089977 202.698761 300.000000
24.089977 203.187622 300.000000
24.089977 203.676468 300.000000
24.009678 203.484756 299.000000
24.009678 203.971970 299.000000
24.009678 204.459183 299.000000
24.050968 205.298874 299.514221
24.050968 205.786926 299.514221
24.050968 206.274979 299.514221
24.022469 206.518021 299.159302
23.987135 206.701035 298.719299
23.987135 207.187790 298.719299
23.970966 207.534546 298.517914
23.950176 207.840576 298.259033
23.950176 208.326584 298.259033
23.929335 208.630875 297.999481
23.849077 208.415100 297.000000
23.849077 208.899063 297.000000
34.051601 22.787830 415.625000
34.051601 23.465086 415.625000
34.059978 24.148281 415.727264
34.164253 24.901709 417.000000
34.164253 25.581203 417.000000
34.164253 26.260700 417.000000
34.164253 26.940197 417.000000
34.164253 27.619694 417.000000
34.164253 28.299189 417.000000
34.082325 28.909193 416.000000
34.082325 29.587061 416.000000
34.082325 30.264927 416.000000
34.000393 30.868410 415.000000
34.000393 31.544647 415.000000
34.000393 32.220886 415.000000
34.000393 32.897121 415.000000
34.256882 33.826626 418.130615
34.256882 34.507961 418.130615
34.256882 35.189301 418.130615
33.918468 35.516285 414.000000
33.918468 36.190891 414.000000
33.918468 36.865501 414.000000
33.918468 37.540108 414.000000
33.918468 38.214714 414.000000
33.918468 38.889324 414.000000
33.918468 39.563931 414.000000
33.918468 40.238537 414.000000
33.836536 40.814320 413.000000
33.836536 41.487297 413.000000
33.836536 42.160278 413.000000
33.836536 42.833256 413.000000
33.836536 43.506233 413.000000
33.836536 44.179211 413.000000
33.836536 44.852192 413.000000
33.754608 45.414940 412.000000
33.754608 46.086288 412.000000
33.754608 46.757637 412.000000
33.754608 47.428986 412.000000
33.754608 48.100334 412.000000
33.754608 48.771683 412.000000
33.897106 49.651760 413.739288
33.955364 50.412437 414.450378
33.955364 51.087776 414.450378
33.967422 51.781498 414.597534
33.967422 52.457081 414.597534
33.967422 53.132664 414.597534
33.931252 53.750946 414.156067
33.590752 53.879642 410.000000
33.590752 54.547733 410.000000
33.590752 55.215820 410.000000
33.590752 55.883911 410.000000
33.590752 56.552002 410.000000
33.590752 57.220093 410.000000
33.508823 57.746994 409.000000
33.508823 58.413456 409.000000
33.426895 58.935463 408.000000
33.426895 59.600296 408.000000
33.426895 60.265125 408.000000
33.426895 60.929958 408.000000
33.344967 61.443817 407.000000
33.344967 62.107021 407.000000
33.344967 62.770222 407.000000
33.344967 63.433422 407.000000
33.344967 64.096626 407.000000
33.344967 64.759827 407.000000
33.344967 65.423027 407.000000
33.263039 65.923859 406.000000
33.263039 66.585426 406.000000
33.263039 67.247002 406.000000
33.263039 67.908577 406.000000
33.263039 68.570145 406.000000
33.181107 69.061195 405.000000
33.181107 69.721138 405.000000
33.181107 70.381081 405.000000
33.099182 70.865608 404.000000
33.017250 71.346886 403.000000
33.017250 72.003571 403.000000
32.935326 72.479958 402.000000
32.853394 72.953079 401.000000
32.853394 73.606506 401.000000
32.853394 74.259926 401.000000
32.771465 74.726532 400.000000
32.771465 75.378326 400.000000
32.771465 76.030121 400.000000
32.689537 76.490219 399.000000
32.689537 77.140381 399.000000
32.607605 77.595581 398.000000
32.607605 78.244118 398.000000
32.607605 78.892654 398.000000
32.525681 79.341339 397.000000
32.525681 79.988243 397.000000
32.525681 80.635147 397.000000
32.443748 81.077324 396.000000
32.443748 81.722595 396.000000
32.443748 82.367874 396.000000
32.443748 83.013153 396.000000
32.443748 83.658432 396.000000
32.361824 84.090813 395.000000
32.361824 84.734467 395.000000
32.279892 85.161964 394.000000
32.116035 85.368431 392.000000
32.116035 86.007187 392.000000
32.034107 86.424911 391.000000
31.952177 86.839371 390.000000
31.952177 87.474869 390.000000
31.788321 87.658524 388.000000
31.624464 87.835655 386.000000
31.624464 88.464638 386.000000
31.542538 88.862816 385.000000
31.378677 89.025276 383.000000
31.378677 89.649376 383.000000
31.296749 90.037773 382.000000
31.214819 90.422905 381.000000
31.214819 91.043739 381.000000
31.050962 91.183388 379.000000
30.969036 91.558746 378.000000
30.969036 92.174698 378.000000
30.969036 92.790642 378.000000
30.969036 93.406586 378.000000
30.969036 94.022537 378.000000
30.805178 94.137741 376.000000
30.723248 94.498444 375.000000
30.723248 95.109497 375.000000
30.641321 95.465302 374.000000
30.641321 96.074730 374.000000
30.559391 96.425636 373.000000
30.559391 97.033440 373.000000
30.559391 97.641235 373.000000
30.477465 97.985634 372.000000
30.477465 98.591805 372.000000
30.395535 98.931313 371.000000
30.395535 99.535851 371.000000
30.395535 100.140396 371.000000
30.313606 100.473381 370.000000
30.313606 101.076294 370.000000
30.313606 101.679199 370.000000
30.313606 102.282112 370.000000
30.231676 102.606956 369.000000
30.231676 103.208237 369.000000
30.149750 103.528191 368.000000
30.067820 103.844887 367.000000
30.067820 104.442909 367.000000
29.985889 104.754715 366.000000
29.740105 104.487572 363.000000
29.740105 105.079079 363.000000
29.658175 105.379478 362.000000
29.576248 105.676620 361.000000
29.576248 106.264870 361.000000
29.494318 106.557121 360.000000
29.412392 106.846107 359.000000
29.412392 107.431099 359.000000
29.330462 107.715202 358.000000
29.330462 108.298553 358.000000
29.330462 108.881912 358.000000
29.248533 109.159500 357.000000
29.166603 109.433838 356.000000
29.084677 109.704903 355.000000
29.084677 110.283371 355.000000
29.002747 110.549553 354.000000
28.920820 110.812469 353.000000
28.920820 111.387680 353.000000
28.920820 111.962891 353.000000
28.756960 111.900490 351.000000
28.756960 112.472435 351.000000
28.756960 113.044388 351.000000
28.675032 113.292641 350.000000
28.675032 113.862961 350.000000
28.675032 114.433281 350.000000
28.675032 115.003601 350.000000
28.675032 115.573921 350.000000
28.593102 115.812416 349.000000
28.511175 116.047630 348.000000
28.511175 116.614693 348.000000
28.429245 116.845024 347.000000
28.347319 117.072098 346.000000
28.347319 117.635902 346.000000
28.347319 118.199699 346.000000
28.347319 118.763504 346.000000
28.347319 119.327309 346.000000
28.265388 119.544601 345.000000
28.183460 119.758636 344.000000
28.183460 120.319183 344.000000
28.183460 120.879723 344.000000
28.101530 121.087242 343.000000
28.101530 121.646156 343.000000
28.101530 122.205070 343.000000
28.019604 122.406082 342.000000
28.019604 122.963371 342.000000
28.019604 123.520653 342.000000
27.855747 123.352333 340.000000
27.855747 123.906357 340.000000
27.855747 124.460381 340.000000
27.773817 124.646721 339.000000
27.773817 125.199112 339.000000
27.773817 125.751511 339.000000
27.773817 126.303909 339.000000
27.691889 126.482094 338.000000
27.691889 127.032860 338.000000
27.691889 127.583626 338.000000
27.609959 127.755295 337.000000
27.609959 128.304428 337.000000
27.609959 128.853577 337.000000
27.609959 129.402710 337.000000
27.609959 129.951843 337.000000
27.528028 130.113739 336.000000
27.528028 130.661240 336.000000
27.528028 131.208755 336.000000
27.528028 131.756256 336.000000
27.446102 131.910019 335.000000
27.446102 132.455902 335.000000
27.446102 133.001770 335.000000
27.364172 133.149002 334.000000
27.364172 133.693253 334.000000
27.364172 134.237503 334.000000
27.282246 134.378204 333.000000
27.282246 134.920822 333.000000
27.282246 135.463440 333.000000
27.282246 136.006073 333.000000
27.282246 136.548691 333.000000
27.282246 137.091309 333.000000
27.200315 137.220612 332.000000
27.200315 137.761597 332.000000
27.200315 138.302582 332.000000
27.118387 138.425369 331.000000
27.118387 138.964737 331.000000
27.118387 139.504089 331.000000
27.036457 139.620361 330.000000
27.036457 140.158096 330.000000
27.036457 140.695816 330.000000
27.036457 141.233551 330.000000
27.036457 141.771286 330.000000
27.036457 142.309006 330.000000
27.036457 142.846741 330.000000
27.036457 143.384476 330.000000
27.036457 143.922211 330.000000
26.954531 144.022171 329.000000
26.954531 144.558273 329.000000
26.954531 145.094376 329.000000
26.954531 145.630478 329.000000
26.954531 146.166580 329.000000
26.954531 146.702682 329.000000
26.954531 147.238785 329.000000
26.872601 147.325729 328.000000
26.872601 147.860199 328.000000
26.872601 148.394684 328.000000
26.872601 148.929153 328.000000
26.790674 149.007935 327.000000
26.790674 149.540771 327.000000
26.790674 150.073624 327.000000
26.790674 150.606461 327.000000
26.790674 151.139313 327.000000
26.790674 151.672150 327.000000
26.790674 152.204987 327.000000
26.790674 152.737839 327.000000
26.790674 153.270676 327.000000
26.790674 153.803513 327.000000
26.790674 154.336365 327.000000
26.790674 154.869202 327.000000
26.790674 155.402039 327.000000
26.790674 155.934891 327.000000
26.790674 156.467728 327.000000
26.790674 157.000565 327.000000
26.790674 157.533417 327.000000
26.708744 157.582870 326.000000
26.708744 158.114090 326.000000
26.708744 158.645294 326.000000
26.708744 159.176514 326.000000
26.708744 159.707718 326.000000
26.708744 160.238937 326.000000
26.626816 160.276993 325.000000
26.544886 160.311783 324.000000
26.544886 160.839737 324.000000
26.544886 161.367691 324.000000
26.544886 161.895645 324.000000
26.544886 162.423599 324.000000
26.462957 162.448608 323.000000
26.462957 162.974930 323.000000
26.462957 163.501266 323.000000
26.462957 164.027588 323.000000
26.462957 164.553909 323.000000
26.462957 165.080231 323.000000
26.462957 165.606552 323.000000
26.381029 165.618530 322.000000
26.381029 166.143234 322.000000
26.381029 166.667923 322.000000
26.299101 166.673401 321.000000
26.217173 166.675598 320.000000
26.217173 167.197037 320.000000
26.217173 167.718475 320.000000
26.217173 168.239914 320.000000
26.217173 168.761353 320.000000
26.217173 169.282776 320.000000
26.217173 169.804214 320.000000
26.217173 170.325653 320.000000
26.176207 170.580139 319.500000
26.135244 170.832993 319.000000
26.135244 171.352798 319.000000
26.135244 171.872604 319.000000
26.053314 171.852005 318.000000
26.053314 172.370178 318.000000
26.053314 172.888351 318.000000
25.971386 172.861221 317.000000
25.971386 173.377777 317.000000
25.971386 173.894318 317.000000
25.971386 174.410873 317.000000
25.971386 174.927414 317.000000
25.971386 175.443970 317.000000
25.889458 175.405426 316.000000
25.889458 175.920349 316.000000
25.889458 176.435257 316.000000
25.807529 176.390213 315.000000
25.807529 176.903503 315.000000
25.807529 177.416794 315.000000
25.725601 177.365234 314.000000
25.725601 177.876892 314.000000
25.725601 178.388550 314.000000
25.725601 178.900208 314.000000
25.643673 178.840485 313.000000
25.643673 179.350525 313.000000
25.643673 179.860550 313.000000
25.561743 179.794312 312.000000
25.561743 180.302719 312.000000
25.561743 180.811111 312.000000
25.561743 181.319519 312.000000
25.561743 181.827911 312.000000
25.479813 181.751892 311.000000
25.479813 182.258667 311.000000
25.479813 182.765442 311.000000
25.479813 183.272217 311.000000
25.479813 183.778976 311.000000
25.479813 184.285751 311.000000
25.397884 184.198334 310.000000
25.397884 184.703476 310.000000
25.397884 185.208618 310.000000
25.397884 185.713760 310.000000
25.315956 185.618195 309.000000
25.315956 186.121704 309.000000
25.315956 186.625214 309.000000
25.234028 186.523132 308.000000
25.234028 187.025009 308.000000
25.234028 187.526886 308.000000
25.234028 188.028778 308.000000
25.152100 187.918549 307.000000
25.152100 188.418808 307.000000
25.152100 188.919052 307.000000
25.152100 189.419312 307.000000
25.152100 189.919571 307.000000
25.070171 189.799561 306.000000
25.070171 190.298172 306.000000
25.070171 190.796799 306.000000
25.075268 191.334320 306.062225
25.075268 191.833038 306.062225
25.075268 192.331772 306.062225
25.061670 192.725922 305.896240
24.988241 192.658249 305.000000
24.988241 193.155243 305.000000
24.988241 193.652237 305.000000
24.906313 193.512680 304.000000
24.906313 194.008041 304.000000
24.906313 194.503403 304.000000
24.906313 194.998764 304.000000
24.906313 195.494125 304.000000
24.920002 196.097214 304.167084
24.920002 196.592850 304.167084
24.920002 197.088486 304.167084
24.858849 197.099258 303.420654
24.850996 197.531250 303.324799
24.850996 198.025513 303.324799
24.817684 198.253662 302.918213
24.742456 198.144821 302.000000
24.742456 198.636932 302.000000
24.742456 199.129028 302.000000
24.660528 198.960144 301.000000
24.660528 199.450607 301.000000
24.660528 199.941086 301.000000
24.578600 199.765686 300.000000
24.578600 200.254532 300.000000
24.578600 200.743378 300.000000
24.578600 201.232224 300.000000
24.578600 201.721069 300.000000
24.578600 202.209915 300.000000
24.578600 202.698761 300.000000
24.496672 202.510315 299.000000
24.496672 202.997543 299.000000
24.496672 203.484756 299.000000
24.496672 203.971970 299.000000
24.496672 204.459183 299.000000
24.496672 204.946411 299.000000
24.496672 205.433624 299.000000
24.496672 205.920837 299.000000
24.458241 206.084244 298.530945
24.425198 206.291626 298.127625
24.425198 206.777420 298.127625
24.410036 207.134552 297.942566
24.392656 207.472229 297.730438
24.392656 207.957382 297.730438
24.332813 207.931137 297.000000
24.332813 208.415100 297.000000
24.332813 208.899063 297.000000
34.728546 22.787830 415.625000
34.728546 23.465086 415.625000
34.737091 24.148281 415.727264
34.843441 24.901709 417.000000
34.843441 25.581203 417.000000
34.843441 26.260700 417.000000
34.843441 26.940197 417.000000
34.843441 27.619694 417.000000
34.843441 28.299189 417.000000
34.759880 28.909193 416.000000
34.759880 29.587061 416.000000
34.759880 30.264927 416.000000
34.676323 30.868410 415.000000
34.676323 31.544647 415.000000
34.676323 32.220886 415.000000
34.676323 32.897121 415.000000
34.937908 33.826626 418.130615
34.937908 34.507961 418.130615
34.937908 35.189301 418.130615
34.592766 35.516285 414.000000
34.592766 36.190891 414.000000
34.592766 36.865501 414.000000
34.592766 37.540108 414.000000
34.592766 38.214714 414.000000
34.592766 38.889324 414.000000
34.592766 39.563931 414.000000
34.592766 40.238537 414.000000
34.509209 40.814320 413.000000
34.509209 41.487297 413.000000
34.509209 42.160278 413.000000
34.509209 42.833256 413.000000
34.509209 43.506233 413.000000
34.509209 44.179211 413.000000
34.509209 44.852192 413.000000
34.425652 45.414940 412.000000
34.425652 46.086288 412.000000
34.425652 46.757637 412.000000
34.425652 47.428986 412.000000
34.511566 48.220379 413.028229
34.511566 48.893402 413.028229
34.570980 49.651760 413.739288
34.630398 50.412437 414.450378
34.630398 51.087776 414.450378
34.642693 51.781498 414.597534
34.642693 52.457081 414.597534
34.642693 53.132664 414.597534
34.605804 53.750946 414.156067
34.174976 53.748234 409.000000
34.174976 54.414692 409.000000
34.174976 55.081154 409.000000
34.174976 55.747616 409.000000
34.174976 56.414074 409.000000
34.174976 57.080536 409.000000
34.091423 57.605801 408.000000
34.091423 58.270634 408.000000
34.091423 58.935463 408.000000
34.007862 59.454212 407.000000
34.007862 60.117416 407.000000
34.007862 60.780617 407.000000
34.007862 61.443817 407.000000
34.007862 62.107021 407.000000
34.007862 62.770222 407.000000
33.924309 63.277569 406.000000
33.924309 63.939144 406.000000
33.924309 64.600716 406.000000
33.924309 65.262283 406.000000
33.924309 65.923859 406.000000
33.924309 66.585426 406.000000
33.924309 67.247002 406.000000
33.840748 67.741310 405.000000
33.840748 68.401253 405.000000
33.840748 69.061195 405.000000
33.757195 69.548981 404.000000
33.757195 70.207298 404.000000
33.673634 70.690201 403.000000
33.590076 71.169846 402.000000
33.590076 71.824898 402.000000
33.506519 72.299652 401.000000
33.506519 72.953079 401.000000
33.506519 73.606506 401.000000
33.422958 74.074738 400.000000
33.422958 74.726532 400.000000
33.422958 75.378326 400.000000
33.339405 75.840050 399.000000
33.255844 76.298508 398.000000
33.255844 76.947044 398.000000
33.172291 77.400620 397.000000
33.172291 78.047523 397.000000
33.172291 78.694427 397.000000
33.172291 79.341339 397.000000
33.088730 79.786766 396.000000
33.088730 80.432045 396.000000
33.088730 81.077324 396.000000
33.088730 81.722595 396.000000
33.088730 82.367874 396.000000
33.088730 83.013153 396.000000
33.005177 83.447166 395.000000
33.005177 84.090813 395.000000
33.005177 84.734467 395.000000
32.838062 84.945816 393.000000
32.754501 85.368431 392.000000
32.754501 86.007187 392.000000
32.670944 86.424911 391.000000
32.587387 86.839371 390.000000
32.587387 87.474869 390.000000
32.420273 87.658524 388.000000
32.253159 87.835655 386.000000
32.253159 88.464638 386.000000
32.169601 88.862816 385.000000
31.918928 88.792839 382.000000
31.918928 89.415306 382.000000
31.835369 89.802063 381.000000
31.668255 89.948235 379.000000
31.668255 90.565811 379.000000
31.584700 90.942802 378.000000
31.584700 91.558746 378.000000
31.584700 92.174698 378.000000
31.501141 92.545158 377.000000
31.417585 92.912369 376.000000
31.417585 93.525055 376.000000
31.334026 93.887383 375.000000
31.250471 94.246445 374.000000
31.250471 94.855873 374.000000
31.250471 95.465302 374.000000
31.166912 95.817841 373.000000
31.083355 96.167122 372.000000
31.083355 96.773293 372.000000
30.999796 97.117691 371.000000
30.999796 97.722237 371.000000
30.999796 98.326775 371.000000
30.916241 98.664650 370.000000
30.916241 99.267563 370.000000
30.916241 99.870468 370.000000
30.916241 100.473381 370.000000
30.832682 100.803108 369.000000
30.832682 101.404388 369.000000
30.832682 102.005676 369.000000
30.749126 102.328888 368.000000
30.749126 102.928543 368.000000
30.665567 103.246864 367.000000
30.582008 103.561928 366.000000
30.582008 104.158318 366.000000
30.498453 104.468498 365.000000
30.331339 104.487572 363.000000
30.331339 105.079079 363.000000
30.247780 105.379478 362.000000
30.164225 105.676620 361.000000
30.164225 106.264870 361.000000
30.080666 106.557121 360.000000
29.997108 106.846107 359.000000
29.997108 107.431099 359.000000
29.913549 107.715202 358.000000
29.913549 108.298553 358.000000
29.913549 108.881912 358.000000
29.829994 109.159500 357.000000
29.746435 109.433838 356.000000
29.662880 109.704903 355.000000
29.662880 110.283371 355.000000
29.579321 110.549553 354.000000
29.495766 110.812469 353.000000
29.495766 111.387680 353.000000
29.412207 111.645714 352.000000
29.328648 111.900490 351.000000
29.328648 112.472435 351.000000
29.245092 112.722321 350.000000
29.245092 113.292641 350.000000
29.245092 113.862961 350.000000
29.245092 114.433281 350.000000
29.161533 114.675034 349.000000
29.161533 115.243721 349.000000
29.077978 115.480576 348.000000
28.994419 115.714165 347.000000
28.994419 116.279594 347.000000
28.994419 116.845024 347.000000
28.910862 117.072098 346.000000
28.910862 117.635902 346.000000
28.910862 118.199699 346.000000
28.827303 118.420258 345.000000
28.827303 118.982430 345.000000
28.743748 119.198097 344.000000
28.743748 119.758636 344.000000
28.743748 120.319183 344.000000
28.660189 120.528328 343.000000
28.660189 121.087242 343.000000
28.660189 121.646156 343.000000
28.576633 121.848801 342.000000
28.576633 122.406082 342.000000
28.493074 122.603828 341.000000
28.493074 123.159477 341.000000
28.409519 123.352333 340.000000
28.409519 123.906357 340.000000
28.409519 124.460381 340.000000
28.325960 124.646721 339.000000
28.325960 125.199112 339.000000
28.325960 125.751511 339.000000
28.325960 126.303909 339.000000
28.242405 126.482094 338.000000
28.242405 127.032860 338.000000
28.242405 127.583626 338.000000
28.158846 127.755295 337.000000
28.158846 128.304428 337.000000
28.158846 128.853577 337.000000
28.158846 129.402710 337.000000
28.158846 129.951843 337.000000
28.075287 130.113739 336.000000
28.075287 130.661240 336.000000
28.075287 131.208755 336.000000
28.075287 131.756256 336.000000
27.991730 131.910019 335.000000
27.991730 132.455902 335.000000
27.991730 133.001770 335.000000
27.908173 133.149002 334.000000
27.908173 133.693253 334.000000
27.908173 134.237503 334.000000
27.824615 134.378204 333.000000
27.824615 134.920822 333.000000
27.824615 135.463440 333.000000
27.824615 136.006073 333.000000
27.824615 136.548691 333.000000
27.824615 137.091309 333.000000
27.741056 137.220612 332.000000
27.741056 137.761597 332.000000
27.741056 138.302582 332.000000
27.657501 138.425369 331.000000
27.657501 138.964737 331.000000
27.657501 139.504089 331.000000
27.573942 139.620361 330.000000
27.573942 140.158096 330.000000
27.573942 140.695816 330.000000
27.573942 141.233551 330.000000
27.573942 141.771286 330.000000
27.573942 142.309006 330.000000
27.573942 142.846741 330.000000
27.573942 143.384476 330.000000
27.573942 143.922211 330.000000
27.490387 144.022171 329.000000
27.490387 144.558273 329.000000
27.490387 145.094376 329.000000
27.490387 145.630478 329.000000
27.490387 146.166580 329.000000
27.490387 146.702682 329.000000
27.490387 147.238785 329.000000
27.406828 147.325729 328.000000
27.406828 147.860199 328.000000
27.406828 148.394684 328.000000
27.406828 148.929153 328.000000
27.323273 149.007935 327.000000
27.323273 149.540771 327.000000
27.323273 150.073624 327.000000
27.323273 150.606461 327.000000
27.323273 151.139313 327.000000
27.323273 151.672150 327.000000
27.323273 152.204987 327.000000
27.323273 152.737839 327.000000
27.323273 153.270676 327.000000
27.323273 153.803513 327.000000
27.323273 154.336365 327.000000
27.323273 154.869202 327.000000
27.323273 155.402039 327.000000
27.323273 155.934891 327.000000
27.323273 156.467728 327.000000
27.239714 156.520447 326.000000
27.239714 157.051666 326.000000
27.239714 157.582870 326.000000
27.239714 158.114090 326.000000
27.239714 158.645294 326.000000
27.239714 159.176514 326.000000
27.239714 159.707718 326.000000
27.239714 160.238937 326.000000
27.156158 160.276993 325.000000
27.072599 160.311783 324.000000
27.072599 160.839737 324.000000
27.072599 161.367691 324.000000
27.072599 161.895645 324.000000
27.072599 162.423599 324.000000
26.989042 162.448608 323.000000
26.989042 162.974930 323.000000
26.989042 163.501266 323.000000
26.989042 164.027588 323.000000
26.989042 164.553909 323.000000
26.989042 165.080231 323.000000
26.989042 165.606552 323.000000
26.905483 165.618530 322.000000
26.821928 165.627274 321.000000
26.821928 166.150330 321.000000
26.821928 166.673401 321.000000
26.738369 166.675598 320.000000
26.738369 167.197037 320.000000
26.738369 167.718475 320.000000
26.738369 168.239914 320.000000
26.738369 168.761353 320.000000
26.738369 169.282776 320.000000
26.738369 169.804214 320.000000
26.738369 170.325653 320.000000
26.696592 170.580139 319.500000
26.654812 170.832993 319.000000
26.654812 171.352798 319.000000
26.654812 171.872604 319.000000
26.571255 171.852005 318.000000
26.571255 172.370178 318.000000
26.571255 172.888351 318.000000
26.487698 172.861221 317.000000
26.487698 173.377777 317.000000
26.487698 173.894318 317.000000
26.487698 174.410873 317.000000
26.487698 174.927414 317.000000
26.487698 175.443970 317.000000
26.404140 175.405426 316.000000
26.404140 175.920349 316.000000
26.404140 176.435257 316.000000
26.320583 176.390213 315.000000
26.237026 176.341919 314.000000
26.237026 176.853577 314.000000
26.237026 177.365234 314.000000
26.237026 177.876892 314.000000
26.237026 178.388550 314.000000
26.153469 178.330460 313.000000
26.153469 178.840485 313.000000
26.153469 179.350525 313.000000
26.069912 179.285919 312.000000
26.069912 179.794312 312.000000
26.069912 180.302719 312.000000
26.069912 180.811111 312.000000
25.986353 180.738358 311.000000
25.986353 181.245132 311.000000
25.986353 181.751892 311.000000
25.986353 182.258667 311.000000
25.986353 182.765442 311.000000
25.986353 183.272217 311.000000
25.902794 183.188049 310.000000
25.902794 183.693192 310.000000
25.902794 184.198334 310.000000
25.902794 184.703476 310.000000
25.902794 185.208618 310.000000
25.819237 185.114685 309.000000
25.819237 185.618195 309.000000
25.819237 186.121704 309.000000
25.735680 186.021240 308.000000
25.735680 186.523132 308.000000
25.735680 187.025009 308.000000
25.735680 187.526886 308.000000
25.652122 187.418304 307.000000
25.652122 187.918549 307.000000
25.652122 188.418808 307.000000
25.652122 188.919052 307.000000
25.568565 188.802307 306.000000
25.568565 189.300934 306.000000
25.568565 189.799561 306.000000
25.568565 190.298172 306.000000
25.568565 190.796799 306.000000
25.568565 191.295425 306.000000
25.485008 191.167267 305.000000
25.485008 191.664261 305.000000
25.485008 192.161255 305.000000
25.485008 192.658249 305.000000
25.485008 193.155243 305.000000
25.401451 193.017303 304.000000
25.401451 193.512680 304.000000
25.401451 194.008041 304.000000
25.317894 193.863586 303.000000
25.345747 194.571136 303.333344
25.345747 195.065430 303.333344
25.372313 195.764679 303.651276
25.372313 196.259460 303.651276
25.372313 196.754257 303.651276
25.353043 197.099258 303.420654
25.345034 197.531250 303.324799
25.345034 198.025513 303.324799
25.311060 198.253662 302.918213
25.234337 198.144821 302.000000
25.234337 198.636932 302.000000
25.234337 199.129028 302.000000
25.150780 198.960144 301.000000
25.150780 199.450607 301.000000
25.150780 199.941086 301.000000
25.067223 199.765686 300.000000
25.067223 200.254532 300.000000
25.067223 200.743378 300.000000
25.067223 201.232224 300.000000
25.067223 201.721069 300.000000
25.067223 202.209915 300.000000
25.067223 202.698761 300.000000
24.983664 202.510315 299.000000
24.983664 202.997543 299.000000
24.983664 203.484756 299.000000
24.983664 203.971970 299.000000
24.983664 204.459183 299.000000
24.983664 204.946411 299.000000
24.983664 205.433624 299.000000
24.983664 205.920837 299.000000
24.816549 205.027390 297.000000
24.816549 205.511353 297.000000
24.816549 205.995316 297.000000
24.816549 206.479263 297.000000
24.732990 206.266373 296.000000
24.732990 206.748703 296.000000
24.732990 207.231033 296.000000
24.732990 207.713364 296.000000
24.732990 208.195694 296.000000
35.413097 20.760523 415.714294
35.413097 21.437923 415.714294
35.413097 22.115326 415.714294
35.405491 22.787830 415.625000
35.405491 23.465086 415.625000
35.522625 24.222212 417.000000
35.522625 24.901709 417.000000
35.522625 25.581203 417.000000
35.522625 26.260700 417.000000
35.437435 26.875593 416.000000
35.437435 27.553459 416.000000
35.437435 28.231327 416.000000
35.437435 28.909193 416.000000
35.352249 29.515936 415.000000
35.352249 30.192173 415.000000
35.352249 30.868410 415.000000
35.352249 31.544647 415.000000
35.352249 32.220886 415.000000
35.352249 32.897121 415.000000
35.267063 33.492462 414.000000
35.267063 34.167068 414.000000
35.267063 34.841675 414.000000
35.267063 35.516285 414.000000
35.267063 36.190891 414.000000
35.267063 36.865501 414.000000
35.267063 37.540108 414.000000
35.267063 38.214714 414.000000
35.267063 38.889324 414.000000
35.181877 39.468365 413.000000
35.181877 40.141342 413.000000
35.181877 40.814320 413.000000
35.181877 41.487297 413.000000
35.181877 42.160278 413.000000
35.096691 42.729546 412.000000
35.096691 43.400894 412.000000
35.096691 44.072243 412.000000
35.096691 44.743591 412.000000
35.096691 45.414940 412.000000
35.096691 46.086288 412.000000
35.096691 46.757637 412.000000
35.096691 47.428986 412.000000
35.184280 48.220379 413.028229
35.184280 48.893402 413.028229
35.244854 49.651760 413.739288
35.244854 50.325939 413.739288
35.244854 51.000126 413.739288
35.246212 51.676300 413.755219
35.246212 52.350506 413.755219
35.246212 53.024715 413.755219
35.214134 53.650051 413.378632
34.841133 53.748234 409.000000
34.841133 54.414692 409.000000
34.841133 55.081154 409.000000
34.841133 55.747616 409.000000
34.841133 56.414074 409.000000
34.841133 57.080536 409.000000
34.755947 57.605801 408.000000
34.755947 58.270634 408.000000
34.755947 58.935463 408.000000
34.670761 59.454212 407.000000
34.670761 60.117416 407.000000
34.670761 60.780617 407.000000
34.670761 61.443817 407.000000
34.670761 62.107021 407.000000
34.670761 62.770222 407.000000
34.585575 63.277569 406.000000
34.585575 63.939144 406.000000
34.585575 64.600716 406.000000
34.585575 65.262283 406.000000
34.585575 65.923859 406.000000
34.585575 66.585426 406.000000
34.585575 67.247002 406.000000
34.500389 67.741310 405.000000
34.500389 68.401253 405.000000
34.500389 69.061195 405.000000
34.415203 69.548981 404.000000
34.415203 70.207298 404.000000
34.244831 70.514793 402.000000
34.244831 71.169846 402.000000
34.244831 71.824898 402.000000
34.159645 72.299652 401.000000
34.074455 72.771149 400.000000
34.074455 73.422943 400.000000
34.074455 74.074738 400.000000
33.989273 74.539719 399.000000
33.989273 75.189888 399.000000
33.904083 75.649979 398.000000
33.818901 76.106804 397.000000
33.818901 76.753708 397.000000
33.818901 77.400620 397.000000
33.733711 77.850937 396.000000
33.733711 78.496216 396.000000
33.733711 79.141487 396.000000
33.733711 79.786766 396.000000
33.733711 80.432045 396.000000
33.733711 81.077324 396.000000
33.648529 81.516228 395.000000
33.648529 82.159874 395.000000
33.648529 82.803520 395.000000
33.648529 83.447166 395.000000
33.563339 83.877922 394.000000
33.563339 84.519943 394.000000
33.392967 84.729668 392.000000
33.307785 85.150650 391.000000
33.307785 85.787781 391.000000
33.307785 86.424911 391.000000
33.222595 86.839371 390.000000
33.222595 87.474869 390.000000
32.967041 87.432602 387.000000
32.881851 87.835655 386.000000
32.881851 88.464638 386.000000
32.711479 88.631996 384.000000
32.541107 88.792839 382.000000
32.541107 89.415306 382.000000
32.455921 89.802063 381.000000
32.285549 89.948235 379.000000
32.285549 90.565811 379.000000
32.200363 90.942802 378.000000
32.200363 91.558746 378.000000
32.200363 92.174698 378.000000
32.115177 92.545158 377.000000
32.029991 92.912369 376.000000
32.029991 93.525055 376.000000
31.944803 93.887383 375.000000
31.774431 93.994446 373.000000
31.774431 94.602242 373.000000
31.774431 95.210045 373.000000
31.604059 95.304077 371.000000
31.604059 95.908615 371.000000
31.604059 96.513153 371.000000
31.518875 96.855919 370.000000
31.518875 97.458832 370.000000
31.518875 98.061737 370.000000
31.518875 98.664650 370.000000
31.433687 98.999268 369.000000
31.433687 99.600548 369.000000
31.433687 100.201828 369.000000
31.433687 100.803108 369.000000
31.433687 101.404388 369.000000
31.348503 101.729240 368.000000
31.263315 102.050819 367.000000
31.263315 102.648842 367.000000
31.178127 102.965538 366.000000
31.092943 103.278969 365.000000
31.092943 103.873734 365.000000
30.922571 103.896072 363.000000
30.837383 104.199730 362.000000
30.837383 104.789604 362.000000
30.752199 105.088379 361.000000
30.667011 105.383888 360.000000
30.667011 105.970505 360.000000
30.581827 106.261124 359.000000
30.496639 106.548492 358.000000
30.496639 107.131844 358.000000
30.496639 107.715202 358.000000
30.411455 107.996040 357.000000
30.411455 108.577774 357.000000
30.411455 109.159500 357.000000
30.326267 109.433838 356.000000
30.241083 109.704903 355.000000
30.241083 110.283371 355.000000
30.155895 110.549553 354.000000
30.070711 110.812469 353.000000
30.070711 111.387680 353.000000
29.985523 111.645714 352.000000
29.900335 111.900490 351.000000
29.900335 112.472435 351.000000
29.815151 112.722321 350.000000
29.815151 113.292641 350.000000
29.815151 113.862961 350.000000
29.815151 114.433281 350.000000
29.729963 114.675034 349.000000
29.729963 115.243721 349.000000
29.644779 115.480576 348.000000
29.559591 115.714165 347.000000
29.559591 116.279594 347.000000
29.474407 116.508293 346.000000
29.474407 117.072098 346.000000
29.474407 117.635902 346.000000
29.389219 117.858086 345.000000
29.389219 118.420258 345.000000
29.389219 118.982430 345.000000
29.304035 119.198097 344.000000
29.218847 119.410500 343.000000
29.218847 119.969414 343.000000
29.218847 120.528328 343.000000
29.218847 121.087242 343.000000
29.218847 121.646156 343.000000
29.133663 121.848801 342.000000
29.048475 122.048172 341.000000
29.048475 122.603828 341.000000
29.048475 123.159477 341.000000
28.963291 123.352333 340.000000
28.963291 123.906357 340.000000
28.963291 124.460381 340.000000
28.878103 124.646721 339.000000
28.878103 125.199112 339.000000
28.878103 125.751511 339.000000
28.878103 126.303909 339.000000
28.792919 126.482094 338.000000
28.792919 127.032860 338.000000
28.792919 127.583626 338.000000
28.707731 127.755295 337.000000
28.707731 128.304428 337.000000
28.707731 128.853577 337.000000
28.707731 129.402710 337.000000
28.707731 129.951843 337.000000
28.622543 130.113739 336.000000
28.622543 130.661240 336.000000
28.622543 131.208755 336.000000
28.622543 131.756256 336.000000
28.537359 131.910019 335.000000
28.537359 132.455902 335.000000
28.537359 133.001770 335.000000
28.452171 133.149002 334.000000
28.452171 133.693253 334.000000
28.452171 134.237503 334.000000
28.366987 134.378204 333.000000
28.366987 134.920822 333.000000
28.366987 135.463440 333.000000
28.366987 136.006073 333.000000
28.366987 136.548691 333.000000
28.366987 137.091309 333.000000
28.281799 137.220612 332.000000
28.281799 137.761597 332.000000
28.281799 138.302582 332.000000
28.196615 138.425369 331.000000
28.196615 138.964737 331.000000
28.196615 139.504089 331.000000
28.111427 139.620361 330.000000
28.111427 140.158096 330.000000
28.111427 140.695816 330.000000
28.111427 141.233551 330.000000
28.111427 141.771286 330.000000
28.111427 142.309006 330.000000
28.111427 142.846741 330.000000
28.111427 143.384476 330.000000
28.111427 143.922211 330.000000
28.026243 144.022171 329.000000
28.026243 144.558273 329.000000
28.026243 145.094376 329.000000
28.026243 145.630478 329.000000
28.026243 146.166580 329.000000
28.026243 146.702682 329.000000
28.026243 147.238785 329.000000
28.026243 147.774887 329.000000
28.026243 148.310989 329.000000
27.941055 148.394684 328.000000
27.941055 148.929153 328.000000
27.941055 149.463623 328.000000
27.941055 149.998093 328.000000
