122.056770 -15.228023 368.611115
122.056770 -14.627375 368.611115
122.185547 -14.041527 369.000000
122.185547 -13.440246 369.000000
122.185547 -12.838964 369.000000
121.854416 -12.204519 368.000000
121.854416 -11.604868 368.000000
121.854416 -11.005217 368.000000
121.854416 -10.405565 368.000000
121.854416 -9.805914 368.000000
121.854416 -9.206263 368.000000
121.854416 -8.606611 368.000000
121.854416 -8.006960 368.000000
121.854416 -7.407308 368.000000
121.854416 -6.807657 368.000000
121.854416 -6.208005 368.000000
121.854416 -5.608354 368.000000
121.523285 -4.995092 367.000000
121.523285 -4.397070 367.000000
121.523285 -3.799048 367.000000
121.523285 -3.201027 367.000000
121.523285 -2.603005 367.000000
121.523285 -2.004983 367.000000
121.523285 -1.406961 367.000000
121.523285 -0.808939 367.000000
121.523285 -0.210917 367.000000
121.523285 0.387105 367.000000
121.523285 0.985126 367.000000
121.523285 1.583148 367.000000
121.523285 2.181170 367.000000
121.523285 2.779192 367.000000
121.192169 3.368011 366.000000
121.192169 3.964404 366.000000
121.192169 4.560796 366.000000
121.192169 5.157188 366.000000
121.192169 5.753581 366.000000
121.192169 6.349973 366.000000
121.192169 6.946366 366.000000
121.192169 7.542758 366.000000
121.192169 8.139151 366.000000
121.192169 8.735543 366.000000
121.192169 9.331936 366.000000
121.192169 9.928328 366.000000
121.192169 10.524720 366.000000
121.192169 11.121113 366.000000
121.192169 11.717505 366.000000
121.192169 12.313897 366.000000
121.192169 12.910290 366.000000
121.192169 13.506682 366.000000
121.192169 14.103075 366.000000
121.192169 14.699467 366.000000
121.192169 15.295859 366.000000
121.192169 15.892252 366.000000
121.192169 16.488644 366.000000
121.192169 17.085037 366.000000
121.192169 17.681429 366.000000
121.192169 18.277821 366.000000
121.192169 18.874214 366.000000
121.192169 19.470606 366.000000
121.192169 20.066998 366.000000
121.192169 20.663391 366.000000
121.192169 21.259783 366.000000
121.192169 21.856176 366.000000
121.192169 22.452568 366.000000
121.192169 23.048960 366.000000
121.192169 23.645353 366.000000
121.192169 24.241745 366.000000
121.192169 24.838137 366.000000
121.192169 25.434530 366.000000
121.192169 26.030922 366.000000
120.861038 26.554562 365.000000
120.861038 27.149324 365.000000
120.861038 27.744087 365.000000
120.861038 28.338850 365.000000
120.861038 28.933613 365.000000
120.861038 29.528376 365.000000
120.861038 30.123138 365.000000
120.861038 30.717901 365.000000
120.861038 31.312666 365.000000
120.861038 31.907429 365.000000
120.861038 32.502190 365.000000
120.861038 33.096954 365.000000
120.861038 33.691715 365.000000
120.861038 34.286480 365.000000
120.861038 34.881241 365.000000
120.861038 35.476006 365.000000
120.861038 36.070766 365.000000
120.861038 36.665531 365.000000
120.861038 37.260292 365.000000
120.861038 37.855057 365.000000
120.861038 38.449821 365.000000
120.861038 39.044582 365.000000
120.861038 39.639347 365.000000
120.861038 40.234108 365.000000
120.861038 40.828873 365.000000
120.861038 41.423634 365.000000
120.861038 42.018398 365.000000
120.861038 42.613159 365.000000
120.861038 43.207924 365.000000
120.529907 43.682678 364.000000
120.529907 44.275814 364.000000
120.529907 44.868946 364.000000
120.529907 45.462078 364.000000
120.529907 46.055214 364.000000
120.529907 46.648346 364.000000
120.529907 47.241482 364.000000
120.529907 47.834614 364.000000
120.529907 48.427746 364.000000
120.529907 49.020882 364.000000
120.529907 49.614014 364.000000
120.529907 50.207146 364.000000
120.198784 50.660717 363.000000
120.198784 51.252220 363.000000
120.198784 51.843723 363.000000
120.198784 52.435230 363.000000
120.198784 53.026733 363.000000
120.198784 53.618237 363.000000
120.198784 54.209740 363.000000
120.198784 54.801243 363.000000
120.198784 55.392750 363.000000
120.198784 55.984253 363.000000
120.198784 56.575756 363.000000
120.198784 57.167259 363.000000
120.198784 57.758762 363.000000
120.198784 58.350269 363.000000
120.198784 58.941772 363.000000
120.198784 59.533276 363.000000
120.198784 60.124779 363.000000
120.198784 60.716286 363.000000
120.198784 61.307789 363.000000
120.198784 61.899292 363.000000
120.198784 62.490795 363.000000
120.198784 63.082298 363.000000
120.198784 63.673805 363.000000
120.198784 64.265305 363.000000
120.198784 64.856812 363.000000
119.867653 65.268013 362.000000
119.867653 65.857887 362.000000
119.867653 66.447762 362.000000
119.867653 67.037636 362.000000
119.867653 67.627510 362.000000
119.867653 68.217384 362.000000
119.867653 68.807259 362.000000
119.867653 69.397133 362.000000
119.867653 69.987007 362.000000
119.867653 70.576881 362.000000
119.867653 71.166756 362.000000
119.867653 71.756630 362.000000
119.867653 72.346504 362.000000
119.867653 72.936386 362.000000
119.867653 73.526260 362.000000
119.867653 74.116135 362.000000
119.867653 74.706009 362.000000
119.867653 75.295883 362.000000
119.867653 75.885757 362.000000
119.867653 76.475632 362.000000
119.867653 77.065506 362.000000
119.867653 77.655380 362.000000
119.867653 78.245255 362.000000
119.867653 78.835129 362.000000
119.867653 79.425003 362.000000
119.867653 80.014877 362.000000
119.867653 80.604752 362.000000
119.867653 81.194626 362.000000
119.867653 81.784500 362.000000
119.867653 82.374374 362.000000
119.867653 82.964249 362.000000
119.867653 83.554123 362.000000
119.867653 84.143997 362.000000
119.867653 84.733871 362.000000
119.867653 85.323746 362.000000
119.867653 85.913620 362.000000
119.867653 86.503494 362.000000
119.867653 87.093369 362.000000
118.733673 86.853737 358.575378
118.733673 87.438034 358.575378
122.453789 -34.991272 368.000000
122.453789 -34.391621 368.000000
122.453789 -33.791969 368.000000
122.121033 -21.739704 367.000000
122.121033 -21.141682 367.000000
122.121033 -20.543659 367.000000
122.453789 -19.999987 368.000000
122.453789 -19.400335 368.000000
122.453789 -18.800684 368.000000
122.453789 -18.201033 368.000000
122.453789 -17.601381 368.000000
122.468910 -17.003830 368.045441
122.468910 -16.404104 368.045441
122.468910 -15.804379 368.045441
122.401596 -15.196295 367.843140
122.401596 -14.596900 367.843140
122.402473 -13.997603 367.845764
122.453789 -13.403823 368.000000
122.453789 -12.804171 368.000000
122.453789 -12.204519 368.000000
122.453789 -11.604868 368.000000
122.453789 -11.005217 368.000000
122.121033 -10.377289 367.000000
122.121033 -9.779267 367.000000
122.121033 -9.181246 367.000000
122.121033 -8.583223 367.000000
121.788284 -7.963443 366.000000
121.788284 -7.367051 366.000000
121.788284 -6.770658 366.000000
121.788284 -6.174266 366.000000
121.788284 -5.577874 366.000000
122.121033 -4.995092 367.000000
122.121033 -4.397070 367.000000
122.121033 -3.799048 367.000000
122.121033 -3.201027 367.000000
122.121033 -2.603005 367.000000
122.121033 -2.004983 367.000000
122.121033 -1.406961 367.000000
122.121033 -0.808939 367.000000
122.121033 -0.210917 367.000000
122.121033 0.387105 367.000000
122.121033 0.985126 367.000000
122.121033 1.583148 367.000000
122.121033 2.181170 367.000000
122.121033 2.779192 367.000000
121.788284 3.368011 366.000000
121.788284 3.964404 366.000000
121.788284 4.560796 366.000000
121.788284 5.157188 366.000000
121.788284 5.753581 366.000000
121.788284 6.349973 366.000000
121.788284 6.946366 366.000000
121.788284 7.542758 366.000000
121.788284 8.139151 366.000000
121.788284 8.735543 366.000000
121.788284 9.331936 366.000000
121.788284 9.928328 366.000000
121.788284 10.524720 366.000000
121.788284 11.121113 366.000000
121.788284 11.717505 366.000000
121.788284 12.313897 366.000000
121.788284 12.910290 366.000000
121.788284 13.506682 366.000000
121.788284 14.103075 366.000000
121.788284 14.699467 366.000000
121.788284 15.295859 366.000000
121.788284 15.892252 366.000000
121.788284 16.488644 366.000000
121.788284 17.085037 366.000000
121.788284 17.681429 366.000000
121.788284 18.277821 366.000000
121.788284 18.874214 366.000000
121.788284 19.470606 366.000000
121.788284 20.066998 366.000000
121.788284 20.663391 366.000000
121.788284 21.259783 366.000000
121.788284 21.856176 366.000000
121.788284 22.452568 366.000000
121.788284 23.048960 366.000000
121.788284 23.645353 366.000000
121.788284 24.241745 366.000000
121.788284 24.838137 366.000000
121.788284 25.434530 366.000000
121.788284 26.030922 366.000000
121.788284 26.627314 366.000000
121.455528 27.149324 365.000000
121.455528 27.744087 365.000000
121.455528 28.338850 365.000000
121.455528 28.933613 365.000000
121.455528 29.528376 365.000000
121.455528 30.123138 365.000000
121.455528 30.717901 365.000000
121.455528 31.312666 365.000000
121.455528 31.907429 365.000000
121.455528 32.502190 365.000000
121.455528 33.096954 365.000000
121.455528 33.691715 365.000000
121.455528 34.286480 365.000000
121.455528 34.881241 365.000000
121.455528 35.476006 365.000000
121.455528 36.070766 365.000000
121.455528 36.665531 365.000000
121.455528 37.260292 365.000000
121.455528 37.855057 365.000000
121.455528 38.449821 365.000000
121.455528 39.044582 365.000000
121.455528 39.639347 365.000000
121.455528 40.234108 365.000000
121.455528 40.828873 365.000000
121.455528 41.423634 365.000000
121.455528 42.018398 365.000000
121.455528 42.613159 365.000000
121.122765 43.089546 364.000000
121.122765 43.682678 364.000000
121.122765 44.275814 364.000000
121.122765 44.868946 364.000000
121.122765 45.462078 364.000000
121.122765 46.055214 364.000000
121.122765 46.648346 364.000000
121.122765 47.241482 364.000000
121.122765 47.834614 364.000000
121.122765 48.427746 364.000000
120.790016 48.886204 363.000000
120.790016 49.477711 363.000000
120.790016 50.069214 363.000000
120.790016 50.660717 363.000000
120.790016 51.252220 363.000000
120.790016 51.843723 363.000000
120.790016 52.435230 363.000000
120.790016 53.026733 363.000000
120.790016 53.618237 363.000000
120.790016 54.209740 363.000000
120.790016 54.801243 363.000000
120.790016 55.392750 363.000000
120.790016 55.984253 363.000000
120.790016 56.575756 363.000000
120.790016 57.167259 363.000000
120.790016 57.758762 363.000000
120.790016 58.350269 363.000000
120.790016 58.941772 363.000000
120.790016 59.533276 363.000000
120.790016 60.124779 363.000000
120.790016 60.716286 363.000000
120.790016 61.307789 363.000000
120.790016 61.899292 363.000000
120.790016 62.490795 363.000000
120.790016 63.082298 363.000000
120.790016 63.673805 363.000000
120.790016 64.265305 363.000000
120.790016 64.856812 363.000000
120.457260 65.268013 362.000000
120.457260 65.857887 362.000000
120.457260 66.447762 362.000000
120.457260 67.037636 362.000000
120.457260 67.627510 362.000000
120.457260 68.217384 362.000000
120.457260 68.807259 362.000000
120.457260 69.397133 362.000000
120.457260 69.987007 362.000000
120.457260 70.576881 362.000000
120.457260 71.166756 362.000000
120.457260 71.756630 362.000000
120.457260 72.346504 362.000000
120.457260 72.936386 362.000000
120.457260 73.526260 362.000000
120.457260 74.116135 362.000000
120.457260 74.706009 362.000000
120.457260 75.295883 362.000000
120.457260 75.885757 362.000000
120.457260 76.475632 362.000000
120.457260 77.065506 362.000000
120.457260 77.655380 362.000000
120.457260 78.245255 362.000000
120.457260 78.835129 362.000000
120.457260 79.425003 362.000000
120.457260 80.014877 362.000000
120.457260 80.604752 362.000000
120.457260 81.194626 362.000000
120.457260 81.784500 362.000000
120.457260 82.374374 362.000000
120.457260 82.964249 362.000000
120.457260 83.554123 362.000000
120.457260 84.143997 362.000000
120.457260 84.733871 362.000000
120.457260 85.323746 362.000000
120.457260 85.913620 362.000000
120.457260 86.503494 362.000000
120.457260 87.093369 362.000000
119.317703 86.853737 358.575378
119.317703 87.438034 358.575378
123.053169 -34.991272 368.000000
123.053169 -34.391621 368.000000
123.053169 -33.791969 368.000000
122.718781 -19.945639 367.000000
122.718781 -19.347616 367.000000
123.053169 -18.800684 368.000000
123.053169 -18.201033 368.000000
123.053169 -17.601381 368.000000
123.016869 -16.996714 367.891418
123.016869 -16.397238 367.891418
123.016869 -15.797764 367.891418
123.000717 -15.196295 367.843140
123.000717 -14.596900 367.843140
122.970612 -13.994079 367.753113
122.960281 -13.393705 367.722229
122.960281 -12.794505 367.722229
122.927246 -12.192031 367.623444
122.718781 -11.573333 367.000000
122.718781 -10.975311 367.000000
122.718781 -10.377289 367.000000
122.718781 -9.779267 367.000000
122.718781 -9.181246 367.000000
122.384407 -8.559835 366.000000
122.384407 -7.963443 366.000000
122.384407 -7.367051 366.000000
122.384407 -6.770658 366.000000
122.384407 -6.174266 366.000000
122.384407 -5.577874 366.000000
122.384407 -4.981482 366.000000
122.384407 -4.385089 366.000000
122.384407 -3.788697 366.000000
122.384407 -3.192305 366.000000
122.718781 -2.603005 367.000000
122.718781 -2.004983 367.000000
122.718781 -1.406961 367.000000
122.718781 -0.808939 367.000000
122.718781 -0.210917 367.000000
122.718781 0.387105 367.000000
122.718781 0.985126 367.000000
122.718781 1.583148 367.000000
122.718781 2.181170 367.000000
122.384407 2.771619 366.000000
122.384407 3.368011 366.000000
122.384407 3.964404 366.000000
122.384407 4.560796 366.000000
122.384407 5.157188 366.000000
122.384407 5.753581 366.000000
122.384407 6.349973 366.000000
122.384407 6.946366 366.000000
122.384407 7.542758 366.000000
122.384407 8.139151 366.000000
122.384407 8.735543 366.000000
122.384407 9.331936 366.000000
122.384407 9.928328 366.000000
122.384407 10.524720 366.000000
122.384407 11.121113 366.000000
122.384407 11.717505 366.000000
122.384407 12.313897 366.000000
122.384407 12.910290 366.000000
122.384407 13.506682 366.000000
122.384407 14.103075 366.000000
122.384407 14.699467 366.000000
122.384407 15.295859 366.000000
122.384407 15.892252 366.000000
122.384407 16.488644 366.000000
122.384407 17.085037 366.000000
122.384407 17.681429 366.000000
122.384407 18.277821 366.000000
122.384407 18.874214 366.000000
122.384407 19.470606 366.000000
122.384407 20.066998 366.000000
122.384407 20.663391 366.000000
122.384407 21.259783 366.000000
122.384407 21.856176 366.000000
122.384407 22.452568 366.000000
122.384407 23.048960 366.000000
122.384407 23.645353 366.000000
122.384407 24.241745 366.000000
122.384407 24.838137 366.000000
122.384407 25.434530 366.000000
122.384407 26.030922 366.000000
122.384407 26.627314 366.000000
122.050018 27.149324 365.000000
122.050018 27.744087 365.000000
122.050018 28.338850 365.000000
122.050018 28.933613 365.000000
122.050018 29.528376 365.000000
122.050018 30.123138 365.000000
122.050018 30.717901 365.000000
122.050018 31.312666 365.000000
122.050018 31.907429 365.000000
122.050018 32.502190 365.000000
122.050018 33.096954 365.000000
122.050018 33.691715 365.000000
122.050018 34.286480 365.000000
122.050018 34.881241 365.000000
122.050018 35.476006 365.000000
122.050018 36.070766 365.000000
122.050018 36.665531 365.000000
122.050018 37.260292 365.000000
122.050018 37.855057 365.000000
122.050018 38.449821 365.000000
122.050018 39.044582 365.000000
122.050018 39.639347 365.000000
122.050018 40.234108 365.000000
122.050018 40.828873 365.000000
122.050018 41.423634 365.000000
122.050018 42.018398 365.000000
122.050018 42.613159 365.000000
121.715630 43.089546 364.000000
121.715630 43.682678 364.000000
121.715630 44.275814 364.000000
121.715630 44.868946 364.000000
121.715630 45.462078 364.000000
121.715630 46.055214 364.000000
121.715630 46.648346 364.000000
121.715630 47.241482 364.000000
121.715630 47.834614 364.000000
121.715630 48.427746 364.000000
121.381256 48.886204 363.000000
121.381256 49.477711 363.000000
121.381256 50.069214 363.000000
121.381256 50.660717 363.000000
121.381256 51.252220 363.000000
121.381256 51.843723 363.000000
121.381256 52.435230 363.000000
121.381256 53.026733 363.000000
121.381256 53.618237 363.000000
121.381256 54.209740 363.000000
121.381256 54.801243 363.000000
121.381256 55.392750 363.000000
121.381256 55.984253 363.000000
121.381256 56.575756 363.000000
121.381256 57.167259 363.000000
121.381256 57.758762 363.000000
121.381256 58.350269 363.000000
121.381256 58.941772 363.000000
121.381256 59.533276 363.000000
121.381256 60.124779 363.000000
121.381256 60.716286 363.000000
121.381256 61.307789 363.000000
121.381256 61.899292 363.000000
121.381256 62.490795 363.000000
121.381256 63.082298 363.000000
121.046867 63.498390 362.000000
121.046867 64.088264 362.000000
121.046867 64.678139 362.000000
121.046867 65.268013 362.000000
121.046867 65.857887 362.000000
121.046867 66.447762 362.000000
121.046867 67.037636 362.000000
121.046867 67.627510 362.000000
121.046867 68.217384 362.000000
121.046867 68.807259 362.000000
121.046867 69.397133 362.000000
121.046867 69.987007 362.000000
121.046867 70.576881 362.000000
121.046867 71.166756 362.000000
121.046867 71.756630 362.000000
121.046867 72.346504 362.000000
121.046867 72.936386 362.000000
121.046867 73.526260 362.000000
121.046867 74.116135 362.000000
121.046867 74.706009 362.000000
121.046867 75.295883 362.000000
121.046867 75.885757 362.000000
121.046867 76.475632 362.000000
121.046867 77.065506 362.000000
121.046867 77.655380 362.000000
121.046867 78.245255 362.000000
121.046867 78.835129 362.000000
121.046867 79.425003 362.000000
121.046867 80.014877 362.000000
121.046867 80.604752 362.000000
121.046867 81.194626 362.000000
121.046867 81.784500 362.000000
121.046867 82.374374 362.000000
121.046867 82.964249 362.000000
121.046867 83.554123 362.000000
121.046867 84.143997 362.000000
121.046867 84.733871 362.000000
121.046867 85.323746 362.000000
121.046867 85.913620 362.000000
121.046867 86.503494 362.000000
121.046867 87.093369 362.000000
119.851944 86.817673 358.426483
119.851944 87.401726 358.426483
113.690422 83.462479 340.000000
123.652542 -34.991272 368.000000
123.652542 -34.391621 368.000000
123.652542 -33.791969 368.000000
123.316528 -19.945639 367.000000
123.316528 -19.347616 367.000000
123.652542 -18.800684 368.000000
123.652542 -18.201033 368.000000
123.652542 -17.601381 368.000000
123.616066 -16.996714 367.891418
123.616066 -16.397238 367.891418
123.616066 -15.797764 367.891418
123.599838 -15.196295 367.843140
123.599838 -14.596900 367.843140
123.569580 -13.994079 367.753113
123.559212 -13.393705 367.722229
123.559212 -12.794505 367.722229
123.526009 -12.192031 367.623444
123.316528 -11.573333 367.000000
123.316528 -10.975311 367.000000
123.316528 -10.377289 367.000000
123.316528 -9.779267 367.000000
123.316528 -9.181246 367.000000
122.980522 -8.559835 366.000000
122.980522 -7.963443 366.000000
122.980522 -7.367051 366.000000
122.980522 -6.770658 366.000000
122.980522 -6.174266 366.000000
122.980522 -5.577874 366.000000
122.980522 -4.981482 366.000000
122.980522 -4.385089 366.000000
122.980522 -3.788697 366.000000
122.980522 -3.192305 366.000000
123.316528 -2.603005 367.000000
123.316528 -2.004983 367.000000
123.316528 -1.406961 367.000000
123.316528 -0.808939 367.000000
123.316528 -0.210917 367.000000
123.316528 0.387105 367.000000
123.316528 0.985126 367.000000
123.316528 1.583148 367.000000
123.316528 2.181170 367.000000
122.980522 2.771619 366.000000
122.980522 3.368011 366.000000
122.980522 3.964404 366.000000
122.980522 4.560796 366.000000
122.980522 5.157188 366.000000
122.980522 5.753581 366.000000
122.980522 6.349973 366.000000
122.980522 6.946366 366.000000
122.980522 7.542758 366.000000
122.980522 8.139151 366.000000
122.980522 8.735543 366.000000
122.980522 9.331936 366.000000
122.980522 9.928328 366.000000
122.980522 10.524720 366.000000
122.980522 11.121113 366.000000
122.980522 11.717505 366.000000
122.980522 12.313897 366.000000
122.980522 12.910290 366.000000
122.980522 13.506682 366.000000
122.980522 14.103075 366.000000
122.980522 14.699467 366.000000
122.980522 15.295859 366.000000
122.980522 15.892252 366.000000
122.980522 16.488644 366.000000
122.980522 17.085037 366.000000
122.980522 17.681429 366.000000
122.980522 18.277821 366.000000
122.980522 18.874214 366.000000
122.980522 19.470606 366.000000
122.980522 20.066998 366.000000
122.980522 20.663391 366.000000
122.980522 21.259783 366.000000
122.980522 21.856176 366.000000
122.980522 22.452568 366.000000
122.980522 23.048960 366.000000
122.980522 23.645353 366.000000
122.980522 24.241745 366.000000
122.980522 24.838137 366.000000
122.980522 25.434530 366.000000
122.980522 26.030922 366.000000
122.980522 26.627314 366.000000
122.644508 27.149324 365.000000
122.644508 27.744087 365.000000
122.644508 28.338850 365.000000
122.644508 28.933613 365.000000
122.644508 29.528376 365.000000
122.644508 30.123138 365.000000
122.644508 30.717901 365.000000
122.644508 31.312666 365.000000
122.644508 31.907429 365.000000
122.644508 32.502190 365.000000
122.644508 33.096954 365.000000
122.644508 33.691715 365.000000
122.644508 34.286480 365.000000
122.644508 34.881241 365.000000
122.644508 35.476006 365.000000
122.644508 36.070766 365.000000
122.644508 36.665531 365.000000
122.644508 37.260292 365.000000
122.644508 37.855057 365.000000
122.644508 38.449821 365.000000
122.644508 39.044582 365.000000
122.644508 39.639347 365.000000
122.644508 40.234108 365.000000
122.644508 40.828873 365.000000
122.644508 41.423634 365.000000
122.644508 42.018398 365.000000
122.644508 42.613159 365.000000
122.308487 43.089546 364.000000
122.308487 43.682678 364.000000
122.308487 44.275814 364.000000
122.308487 44.868946 364.000000
122.308487 45.462078 364.000000
122.308487 46.055214 364.000000
122.308487 46.648346 364.000000
122.308487 47.241482 364.000000
122.308487 47.834614 364.000000
122.308487 48.427746 364.000000
122.308487 49.020882 364.000000
122.308487 49.614014 364.000000
122.308487 50.207146 364.000000
122.308487 50.800282 364.000000
122.308487 51.393414 364.000000
122.308487 51.986546 364.000000
121.972488 52.435230 363.000000
121.972488 53.026733 363.000000
121.972488 53.618237 363.000000
121.972488 54.209740 363.000000
121.972488 54.801243 363.000000
121.972488 55.392750 363.000000
121.972488 55.984253 363.000000
121.972488 56.575756 363.000000
121.972488 57.167259 363.000000
121.972488 57.758762 363.000000
121.972488 58.350269 363.000000
121.972488 58.941772 363.000000
121.972488 59.533276 363.000000
121.972488 60.124779 363.000000
121.972488 60.716286 363.000000
121.972488 61.307789 363.000000
121.972488 61.899292 363.000000
121.972488 62.490795 363.000000
121.972488 63.082298 363.000000
121.636467 63.498390 362.000000
121.636467 64.088264 362.000000
121.636467 64.678139 362.000000
121.636467 65.268013 362.000000
121.636467 65.857887 362.000000
121.636467 66.447762 362.000000
121.636467 67.037636 362.000000
121.636467 67.627510 362.000000
121.636467 68.217384 362.000000
121.636467 68.807259 362.000000
121.636467 69.397133 362.000000
121.636467 69.987007 362.000000
121.636467 70.576881 362.000000
121.636467 71.166756 362.000000
121.636467 71.756630 362.000000
121.636467 72.346504 362.000000
121.636467 72.936386 362.000000
121.636467 73.526260 362.000000
121.636467 74.116135 362.000000
121.636467 74.706009 362.000000
121.636467 75.295883 362.000000
121.636467 75.885757 362.000000
121.636467 76.475632 362.000000
121.636467 77.065506 362.000000
121.636467 77.655380 362.000000
121.636467 78.245255 362.000000
121.636467 78.835129 362.000000
121.636467 79.425003 362.000000
121.636467 80.014877 362.000000
121.636467 80.604752 362.000000
121.636467 81.194626 362.000000
121.636467 81.784500 362.000000
121.636467 82.374374 362.000000
121.636467 82.964249 362.000000
121.636467 83.554123 362.000000
121.636467 84.143997 362.000000
121.636467 84.733871 362.000000
121.636467 85.323746 362.000000
121.636467 85.913620 362.000000
121.636467 86.503494 362.000000
114.244194 81.800407 340.000000
114.244194 82.354431 340.000000
114.244194 82.908455 340.000000
114.244194 83.462479 340.000000
124.251923 -34.991272 368.000000
124.251923 -34.391621 368.000000
124.251923 -33.791969 368.000000
123.914276 -11.573333 367.000000
123.914276 -10.975311 367.000000
123.914276 -10.377289 367.000000
123.576645 -9.752621 366.000000
123.576645 -9.156228 366.000000
123.576645 -8.559835 366.000000
123.576645 -7.963443 366.000000
123.576645 -7.367051 366.000000
123.576645 -6.770658 366.000000
123.576645 -6.174266 366.000000
123.576645 -5.577874 366.000000
123.576645 -4.981482 366.000000
123.576645 -4.385089 366.000000
123.576645 -3.788697 366.000000
123.576645 -3.192305 366.000000
123.576645 -2.595912 366.000000
123.576645 -1.999520 366.000000
123.576645 -1.403127 366.000000
123.914276 -0.808939 367.000000
123.914276 -0.210917 367.000000
123.914276 0.387105 367.000000
123.576645 0.982442 366.000000
123.576645 1.578835 366.000000
123.576645 2.175227 366.000000
123.576645 2.771619 366.000000
123.576645 3.368011 366.000000
123.576645 3.964404 366.000000
123.576645 4.560796 366.000000
123.576645 5.157188 366.000000
123.576645 5.753581 366.000000
123.914276 6.367323 367.000000
123.914276 6.965345 367.000000
123.914276 7.563366 367.000000
123.914276 8.161388 367.000000
123.914276 8.759410 367.000000
123.914276 9.357432 367.000000
123.576645 9.928328 366.000000
123.576645 10.524720 366.000000
123.576645 11.121113 366.000000
123.576645 11.717505 366.000000
123.576645 12.313897 366.000000
123.576645 12.910290 366.000000
123.576645 13.506682 366.000000
123.576645 14.103075 366.000000
123.576645 14.699467 366.000000
123.576645 15.295859 366.000000
123.576645 15.892252 366.000000
123.576645 16.488644 366.000000
123.576645 17.085037 366.000000
123.576645 17.681429 366.000000
123.576645 18.277821 366.000000
123.576645 18.874214 366.000000
123.576645 19.470606 366.000000
123.576645 20.066998 366.000000
123.576645 20.663391 366.000000
123.576645 21.259783 366.000000
123.576645 21.856176 366.000000
123.576645 22.452568 366.000000
123.576645 23.048960 366.000000
123.576645 23.645353 366.000000
123.576645 24.241745 366.000000
123.576645 24.838137 366.000000
123.576645 25.434530 366.000000
123.576645 26.030922 366.000000
123.238998 26.554562 365.000000
123.238998 27.149324 365.000000
123.238998 27.744087 365.000000
123.238998 28.338850 365.000000
123.238998 28.933613 365.000000
123.238998 29.528376 365.000000
123.238998 30.123138 365.000000
123.238998 30.717901 365.000000
123.238998 31.312666 365.000000
123.238998 31.907429 365.000000
123.238998 32.502190 365.000000
123.238998 33.096954 365.000000
123.238998 33.691715 365.000000
123.238998 34.286480 365.000000
123.238998 34.881241 365.000000
123.238998 35.476006 365.000000
123.238998 36.070766 365.000000
123.238998 36.665531 365.000000
123.238998 37.260292 365.000000
123.238998 37.855057 365.000000
123.238998 38.449821 365.000000
123.238998 39.044582 365.000000
123.238998 39.639347 365.000000
123.238998 40.234108 365.000000
123.238998 40.828873 365.000000
123.238998 41.423634 365.000000
122.901352 41.903278 364.000000
122.901352 42.496414 364.000000
122.901352 43.089546 364.000000
122.901352 43.682678 364.000000
122.901352 44.275814 364.000000
122.901352 44.868946 364.000000
122.901352 45.462078 364.000000
122.901352 46.055214 364.000000
122.901352 46.648346 364.000000
122.901352 47.241482 364.000000
122.901352 47.834614 364.000000
122.901352 48.427746 364.000000
122.901352 49.020882 364.000000
122.901352 49.614014 364.000000
122.901352 50.207146 364.000000
122.901352 50.800282 364.000000
122.901352 51.393414 364.000000
122.901352 51.986546 364.000000
122.563721 52.435230 363.000000
122.563721 53.026733 363.000000
122.563721 53.618237 363.000000
122.563721 54.209740 363.000000
122.563721 54.801243 363.000000
122.563721 55.392750 363.000000
122.563721 55.984253 363.000000
122.563721 56.575756 363.000000
122.563721 57.167259 363.000000
122.563721 57.758762 363.000000
122.563721 58.350269 363.000000
122.563721 58.941772 363.000000
122.563721 59.533276 363.000000
122.563721 60.124779 363.000000
122.563721 60.716286 363.000000
122.563721 61.307789 363.000000
122.563721 61.899292 363.000000
122.563721 62.490795 363.000000
122.563721 63.082298 363.000000
122.226074 63.498390 362.000000
122.226074 64.088264 362.000000
122.226074 64.678139 362.000000
122.226074 65.268013 362.000000
122.226074 65.857887 362.000000
122.226074 66.447762 362.000000
122.226074 67.037636 362.000000
122.226074 67.627510 362.000000
122.226074 68.217384 362.000000
122.226074 68.807259 362.000000
122.226074 69.397133 362.000000
122.226074 69.987007 362.000000
122.226074 70.576881 362.000000
122.226074 71.166756 362.000000
122.226074 71.756630 362.000000
122.226074 72.346504 362.000000
122.226074 72.936386 362.000000
122.226074 73.526260 362.000000
122.226074 74.116135 362.000000
122.226074 74.706009 362.000000
122.226074 75.295883 362.000000
122.226074 75.885757 362.000000
122.226074 76.475632 362.000000
122.226074 77.065506 362.000000
122.226074 77.655380 362.000000
122.226074 78.245255 362.000000
122.226074 78.835129 362.000000
122.226074 79.425003 362.000000
122.226074 80.014877 362.000000
122.226074 80.604752 362.000000
122.226074 81.194626 362.000000
122.226074 81.784500 362.000000
122.226074 82.374374 362.000000
122.226074 82.964249 362.000000
122.226074 83.554123 362.000000
122.226074 84.143997 362.000000
122.226074 84.733871 362.000000
122.226074 85.323746 362.000000
122.226074 85.913620 362.000000
122.226074 86.503494 362.000000
114.797966 81.800407 340.000000
114.797966 82.354431 340.000000
114.797966 82.908455 340.000000
114.797966 83.462479 340.000000
123.833488 -6.752160 365.000000
123.833488 -6.157397 365.000000
123.833488 -5.562634 365.000000
123.833488 -4.967871 365.000000
123.833488 -4.373108 365.000000
123.833488 -3.778345 365.000000
124.172760 -3.192305 366.000000
124.172760 -2.595912 366.000000
124.172760 -1.999520 366.000000
124.172760 -1.403127 366.000000
124.172760 -0.806735 366.000000
124.189713 -0.210371 366.049988
124.189713 0.386102 366.049988
124.189713 0.982576 366.049988
124.172760 1.578835 366.000000
124.172760 2.175227 366.000000
124.172760 2.771619 366.000000
124.172760 3.368011 366.000000
124.172760 3.964404 366.000000
124.172760 4.560796 366.000000
124.172760 5.157188 366.000000
124.172760 5.753581 366.000000
124.512024 6.367323 367.000000
124.512024 6.965345 367.000000
124.512024 7.563366 367.000000
124.512024 8.161388 367.000000
124.512024 8.759410 367.000000
124.512024 9.357432 367.000000
124.172760 9.928328 366.000000
124.172760 10.524720 366.000000
124.172760 11.121113 366.000000
124.172760 11.717505 366.000000
124.172760 12.313897 366.000000
124.172760 12.910290 366.000000
124.172760 13.506682 366.000000
124.172760 14.103075 366.000000
124.172760 14.699467 366.000000
124.172760 15.295859 366.000000
124.172760 15.892252 366.000000
124.172760 16.488644 366.000000
124.172760 17.085037 366.000000
124.172760 17.681429 366.000000
124.172760 18.277821 366.000000
124.172760 18.874214 366.000000
124.172760 19.470606 366.000000
124.172760 20.066998 366.000000
124.172760 20.663391 366.000000
124.172760 21.259783 366.000000
124.172760 21.856176 366.000000
124.172760 22.452568 366.000000
124.172760 23.048960 366.000000
124.172760 23.645353 366.000000
124.172760 24.241745 366.000000
124.172760 24.838137 366.000000
124.172760 25.434530 366.000000
124.172760 26.030922 366.000000
123.833488 26.554562 365.000000
123.833488 27.149324 365.000000
123.833488 27.744087 365.000000
123.833488 28.338850 365.000000
123.833488 28.933613 365.000000
123.833488 29.528376 365.000000
123.833488 30.123138 365.000000
123.833488 30.717901 365.000000
123.833488 31.312666 365.000000
123.833488 31.907429 365.000000
123.833488 32.502190 365.000000
123.833488 33.096954 365.000000
123.833488 33.691715 365.000000
123.833488 34.286480 365.000000
123.833488 34.881241 365.000000
123.833488 35.476006 365.000000
123.833488 36.070766 365.000000
123.833488 36.665531 365.000000
123.833488 37.260292 365.000000
123.833488 37.855057 365.000000
123.833488 38.449821 365.000000
123.833488 39.044582 365.000000
123.833488 39.639347 365.000000
123.833488 40.234108 365.000000
123.833488 40.828873 365.000000
123.833488 41.423634 365.000000
123.833488 42.018398 365.000000
123.833488 42.613159 365.000000
123.833488 43.207924 365.000000
123.494217 43.682678 364.000000
123.494217 44.275814 364.000000
123.494217 44.868946 364.000000
123.494217 45.462078 364.000000
123.494217 46.055214 364.000000
123.494217 46.648346 364.000000
123.494217 47.241482 364.000000
123.494217 47.834614 364.000000
123.494217 48.427746 364.000000
123.494217 49.020882 364.000000
123.494217 49.614014 364.000000
123.494217 50.207146 364.000000
123.494217 50.800282 364.000000
123.494217 51.393414 364.000000
123.494217 51.986546 364.000000
123.494217 52.579681 364.000000
123.154953 53.026733 363.000000
123.154953 53.618237 363.000000
123.154953 54.209740 363.000000
123.154953 54.801243 363.000000
123.154953 55.392750 363.000000
123.154953 55.984253 363.000000
123.154953 56.575756 363.000000
123.154953 57.167259 363.000000
123.154953 57.758762 363.000000
123.154953 58.350269 363.000000
123.154953 58.941772 363.000000
123.154953 59.533276 363.000000
123.154953 60.124779 363.000000
123.154953 60.716286 363.000000
123.154953 61.307789 363.000000
123.154953 61.899292 363.000000
122.815674 62.318642 362.000000
122.815674 62.908516 362.000000
122.815674 63.498390 362.000000
122.815674 64.088264 362.000000
122.815674 64.678139 362.000000
122.815674 65.268013 362.000000
122.815674 65.857887 362.000000
122.815674 66.447762 362.000000
122.815674 67.037636 362.000000
122.815674 67.627510 362.000000
122.815674 68.217384 362.000000
122.815674 68.807259 362.000000
122.815674 69.397133 362.000000
122.815674 69.987007 362.000000
122.815674 70.576881 362.000000
122.815674 71.166756 362.000000
122.815674 71.756630 362.000000
122.815674 72.346504 362.000000
122.815674 72.936386 362.000000
122.815674 73.526260 362.000000
122.815674 74.116135 362.000000
122.815674 74.706009 362.000000
122.815674 75.295883 362.000000
122.815674 75.885757 362.000000
122.815674 76.475632 362.000000
122.815674 77.065506 362.000000
122.815674 77.655380 362.000000
122.815674 78.245255 362.000000
122.815674 78.835129 362.000000
122.815674 79.425003 362.000000
122.815674 80.014877 362.000000
122.815674 80.604752 362.000000
122.815674 81.194626 362.000000
122.815674 81.784500 362.000000
122.815674 82.374374 362.000000
122.815674 82.964249 362.000000
122.815674 83.554123 362.000000
122.815674 84.143997 362.000000
122.815674 84.733871 362.000000
122.815674 85.323746 362.000000
122.476402 85.676292 361.000000
122.476402 86.264542 361.000000
115.351738 81.800407 340.000000
115.351738 82.354431 340.000000
115.351738 82.908455 340.000000
115.351738 83.462479 340.000000
124.427979 -6.752160 365.000000
124.427979 -6.157397 365.000000
124.427979 -5.562634 365.000000
124.427979 -4.967871 365.000000
124.427979 -4.373108 365.000000
124.427979 -3.778345 365.000000
124.768883 -3.192305 366.000000
124.768883 -2.595912 366.000000
124.768883 -1.999520 366.000000
124.768883 -1.403127 366.000000
124.768883 -0.806735 366.000000
124.785919 -0.210371 366.049988
124.785919 0.386102 366.049988
124.785919 0.982576 366.049988
124.768883 1.578835 366.000000
124.768883 2.175227 366.000000
124.768883 2.771619 366.000000
124.768883 3.368011 366.000000
124.768883 3.964404 366.000000
124.768883 4.560796 366.000000
124.768883 5.157188 366.000000
124.768883 5.753581 366.000000
125.109772 6.367323 367.000000
125.109772 6.965345 367.000000
125.109772 7.563366 367.000000
125.109772 8.161388 367.000000
125.109772 8.759410 367.000000
125.109772 9.357432 367.000000
124.768883 9.928328 366.000000
124.768883 10.524720 366.000000
124.768883 11.121113 366.000000
124.768883 11.717505 366.000000
124.768883 12.313897 366.000000
124.768883 12.910290 366.000000
124.768883 13.506682 366.000000
124.768883 14.103075 366.000000
124.768883 14.699467 366.000000
124.768883 15.295859 366.000000
124.768883 15.892252 366.000000
124.768883 16.488644 366.000000
124.768883 17.085037 366.000000
124.768883 17.681429 366.000000
124.768883 18.277821 366.000000
124.768883 18.874214 366.000000
124.768883 19.470606 366.000000
124.768883 20.066998 366.000000
124.768883 20.663391 366.000000
124.768883 21.259783 366.000000
124.768883 21.856176 366.000000
124.768883 22.452568 366.000000
124.768883 23.048960 366.000000
124.768883 23.645353 366.000000
124.768883 24.241745 366.000000
124.768883 24.838137 366.000000
124.768883 25.434530 366.000000
124.768883 26.030922 366.000000
124.427979 26.554562 365.000000
124.427979 27.149324 365.000000
124.427979 27.744087 365.000000
124.427979 28.338850 365.000000
124.427979 28.933613 365.000000
124.427979 29.528376 365.000000
124.427979 30.123138 365.000000
124.427979 30.717901 365.000000
124.427979 31.312666 365.000000
124.427979 31.907429 365.000000
124.427979 32.502190 365.000000
124.427979 33.096954 365.000000
124.427979 33.691715 365.000000
124.427979 34.286480 365.000000
124.427979 34.881241 365.000000
124.427979 35.476006 365.000000
124.427979 36.070766 365.000000
124.427979 36.665531 365.000000
124.427979 37.260292 365.000000
124.427979 37.855057 365.000000
124.427979 38.449821 365.000000
124.427979 39.044582 365.000000
124.427979 39.639347 365.000000
124.427979 40.234108 365.000000
124.427979 40.828873 365.000000
124.427979 41.423634 365.000000
124.427979 42.018398 365.000000
124.427979 42.613159 365.000000
124.427979 43.207924 365.000000
124.087074 43.682678 364.000000
124.087074 44.275814 364.000000
124.087074 44.868946 364.000000
124.087074 45.462078 364.000000
124.087074 46.055214 364.000000
124.087074 46.648346 364.000000
124.087074 47.241482 364.000000
124.087074 47.834614 364.000000
124.087074 48.427746 364.000000
124.087074 49.020882 364.000000
124.087074 49.614014 364.000000
124.087074 50.207146 364.000000
124.087074 50.800282 364.000000
124.087074 51.393414 364.000000
124.087074 51.986546 364.000000
124.087074 52.579681 364.000000
123.746185 53.026733 363.000000
123.746185 53.618237 363.000000
123.746185 54.209740 363.000000
123.746185 54.801243 363.000000
123.746185 55.392750 363.000000
123.746185 55.984253 363.000000
123.746185 56.575756 363.000000
123.746185 57.167259 363.000000
123.746185 57.758762 363.000000
123.746185 58.350269 363.000000
123.746185 58.941772 363.000000
123.746185 59.533276 363.000000
123.746185 60.124779 363.000000
123.746185 60.716286 363.000000
123.746185 61.307789 363.000000
123.746185 61.899292 363.000000
123.405281 62.318642 362.000000
123.405281 62.908516 362.000000
123.405281 63.498390 362.000000
123.405281 64.088264 362.000000
123.405281 64.678139 362.000000
123.405281 65.268013 362.000000
123.405281 65.857887 362.000000
123.405281 66.447762 362.000000
123.405281 67.037636 362.000000
123.405281 67.627510 362.000000
123.405281 68.217384 362.000000
123.405281 68.807259 362.000000
123.405281 69.397133 362.000000
123.405281 69.987007 362.000000
123.405281 70.576881 362.000000
123.405281 71.166756 362.000000
123.405281 71.756630 362.000000
123.405281 72.346504 362.000000
123.405281 72.936386 362.000000
123.405281 73.526260 362.000000
123.405281 74.116135 362.000000
123.405281 74.706009 362.000000
123.405281 75.295883 362.000000
123.405281 75.885757 362.000000
123.405281 76.475632 362.000000
123.405281 77.065506 362.000000
123.405281 77.655380 362.000000
123.405281 78.245255 362.000000
123.405281 78.835129 362.000000
123.405281 79.425003 362.000000
123.405281 80.014877 362.000000
123.405281 80.604752 362.000000
123.405281 81.194626 362.000000
123.405281 81.784500 362.000000
123.405281 82.374374 362.000000
123.405281 82.964249 362.000000
123.405281 83.554123 362.000000
123.405281 84.143997 362.000000
123.405281 84.733871 362.000000
123.405281 85.323746 362.000000
123.299080 85.839691 361.688477
123.299080 86.429054 361.688477
115.905510 81.800407 340.000000
115.905510 82.354431 340.000000
115.905510 82.908455 340.000000
115.905510 83.462479 340.000000
125.022469 -6.157397 365.000000
125.022469 -5.562634 365.000000
125.022469 -4.967871 365.000000
125.022469 -4.373108 365.000000
125.022469 -3.778345 365.000000
125.022469 -3.183582 365.000000
125.022469 -2.588820 365.000000
125.364998 -1.999520 366.000000
125.364998 -1.403127 366.000000
125.364998 -0.806735 366.000000
125.382118 -0.210371 366.049988
125.382118 0.386102 366.049988
125.382118 0.982576 366.049988
125.364998 1.578835 366.000000
125.364998 2.175227 366.000000
125.364998 2.771619 366.000000
125.364998 3.368011 366.000000
125.364998 3.964404 366.000000
125.361313 4.560663 365.989258
125.362442 5.157084 365.992554
125.362442 5.753464 365.992554
125.384232 6.350948 366.056152
125.384232 6.947432 366.056152
125.384232 7.543915 366.056152
125.383858 8.140375 366.055084
125.382576 8.736768 366.051331
125.382576 9.333244 366.051331
125.366920 9.928480 366.005615
125.366844 10.524876 366.005402
125.366844 11.121277 366.005402
125.366768 11.717670 366.005188
125.366722 12.314067 366.005035
125.366722 12.910467 366.005035
125.364998 13.506682 366.000000
125.364998 14.103075 366.000000
125.364998 14.699467 366.000000
125.364998 15.295859 366.000000
125.364998 15.892252 366.000000
125.364998 16.488644 366.000000
125.364998 17.085037 366.000000
125.364998 17.681429 366.000000
125.364998 18.277821 366.000000
125.364998 18.874214 366.000000
125.364998 19.470606 366.000000
125.364998 20.066998 366.000000
125.364998 20.663391 366.000000
125.364998 21.259783 366.000000
125.364998 21.856176 366.000000
125.364998 22.452568 366.000000
125.364998 23.048960 366.000000
125.364998 23.645353 366.000000
125.364998 24.241745 366.000000
125.364998 24.838137 366.000000
125.022469 25.365036 365.000000
125.022469 25.959799 365.000000
125.022469 26.554562 365.000000
125.022469 27.149324 365.000000
125.022469 27.744087 365.000000
125.022469 28.338850 365.000000
125.022469 28.933613 365.000000
125.022469 29.528376 365.000000
125.022469 30.123138 365.000000
125.022469 30.717901 365.000000
125.022469 31.312666 365.000000
125.022469 31.907429 365.000000
125.022469 32.502190 365.000000
125.022469 33.096954 365.000000
125.022469 33.691715 365.000000
125.022469 34.286480 365.000000
125.022469 34.881241 365.000000
125.022469 35.476006 365.000000
125.022469 36.070766 365.000000
125.022469 36.665531 365.000000
125.022469 37.260292 365.000000
125.022469 37.855057 365.000000
125.022469 38.449821 365.000000
125.022469 39.044582 365.000000
125.022469 39.639347 365.000000
125.022469 40.234108 365.000000
125.022469 40.828873 365.000000
125.022469 41.423634 365.000000
125.022469 42.018398 365.000000
125.022469 42.613159 365.000000
125.022469 43.207924 365.000000
124.679939 43.682678 364.000000
124.679939 44.275814 364.000000
124.679939 44.868946 364.000000
124.679939 45.462078 364.000000
124.679939 46.055214 364.000000
124.679939 46.648346 364.000000
124.679939 47.241482 364.000000
124.679939 47.834614 364.000000
124.679939 48.427746 364.000000
124.679939 49.020882 364.000000
124.679939 49.614014 364.000000
124.679939 50.207146 364.000000
124.679939 50.800282 364.000000
124.679939 51.393414 364.000000
124.679939 51.986546 364.000000
124.679939 52.579681 364.000000
124.337418 53.026733 363.000000
124.337418 53.618237 363.000000
124.337418 54.209740 363.000000
124.337418 54.801243 363.000000
124.337418 55.392750 363.000000
124.337418 55.984253 363.000000
124.337418 56.575756 363.000000
124.337418 57.167259 363.000000
124.337418 57.758762 363.000000
124.337418 58.350269 363.000000
124.337418 58.941772 363.000000
124.337418 59.533276 363.000000
124.337418 60.124779 363.000000
124.337418 60.716286 363.000000
124.337418 61.307789 363.000000
124.337418 61.899292 363.000000
123.994888 62.318642 362.000000
123.994888 62.908516 362.000000
123.994888 63.498390 362.000000
123.994888 64.088264 362.000000
123.994888 64.678139 362.000000
123.994888 65.268013 362.000000
123.994888 65.857887 362.000000
123.994888 66.447762 362.000000
123.994888 67.037636 362.000000
123.994888 67.627510 362.000000
123.994888 68.217384 362.000000
123.994888 68.807259 362.000000
123.994888 69.397133 362.000000
123.994888 69.987007 362.000000
123.994888 70.576881 362.000000
123.994888 71.166756 362.000000
123.994888 71.756630 362.000000
123.994888 72.346504 362.000000
123.994888 72.936386 362.000000
123.994888 73.526260 362.000000
123.994888 74.116135 362.000000
123.994888 74.706009 362.000000
123.994888 75.295883 362.000000
123.994888 75.885757 362.000000
123.994888 76.475632 362.000000
123.994888 77.065506 362.000000
123.994888 77.655380 362.000000
123.994888 78.245255 362.000000
123.994888 78.835129 362.000000
123.994888 79.425003 362.000000
123.994888 80.014877 362.000000
123.994888 80.604752 362.000000
123.994888 81.194626 362.000000
123.994888 81.784500 362.000000
123.994888 82.374374 362.000000
123.994888 82.964249 362.000000
123.994888 83.554123 362.000000
123.994888 84.143997 362.000000
123.994888 84.733871 362.000000
123.994888 85.323746 362.000000
123.888176 85.839691 361.688477
123.888176 86.429054 361.688477
122.326927 85.921806 357.130432
122.326927 86.503746 357.130432
122.326927 87.085686 357.130432
116.459282 83.462479 340.000000
125.961121 2.771619 366.000000
125.961121 3.368011 366.000000
125.961121 3.964404 366.000000
125.957420 4.560663 365.989258
125.958549 5.157084 365.992554
125.958549 5.753464 365.992554
125.980438 6.350948 366.056152
125.980438 6.947432 366.056152
125.980438 7.543915 366.056152
125.986961 8.140821 366.075104
125.986961 8.737336 366.075104
125.986961 9.333850 366.075104
125.963043 9.928480 366.005615
125.962982 10.524876 366.005402
125.962982 11.121277 366.005402
125.962906 11.717670 366.005188
125.962852 12.314067 366.005035
125.962852 12.910467 366.005035
125.962456 13.506825 366.003906
125.961121 14.103075 366.000000
125.961121 14.699467 366.000000
125.961121 15.295859 366.000000
125.961121 15.892252 366.000000
125.961121 16.488644 366.000000
125.961121 17.085037 366.000000
125.961121 17.681429 366.000000
125.961121 18.277821 366.000000
125.961121 18.874214 366.000000
125.961121 19.470606 366.000000
125.961121 20.066998 366.000000
125.961121 20.663391 366.000000
125.961121 21.259783 366.000000
125.961121 21.856176 366.000000
125.961121 22.452568 366.000000
125.961121 23.048960 366.000000
125.961121 23.645353 366.000000
125.961121 24.241745 366.000000
125.616959 24.770273 365.000000
125.616959 25.365036 365.000000
125.616959 25.959799 365.000000
125.616959 26.554562 365.000000
125.616959 27.149324 365.000000
125.616959 27.744087 365.000000
125.616959 28.338850 365.000000
125.616959 28.933613 365.000000
125.616959 29.528376 365.000000
125.616959 30.123138 365.000000
125.616959 30.717901 365.000000
125.616959 31.312666 365.000000
125.616959 31.907429 365.000000
125.616959 32.502190 365.000000
125.616959 33.096954 365.000000
125.616959 33.691715 365.000000
125.616959 34.286480 365.000000
125.616959 34.881241 365.000000
125.616959 35.476006 365.000000
125.616959 36.070766 365.000000
125.616959 36.665531 365.000000
125.616959 37.260292 365.000000
125.616959 37.855057 365.000000
125.616959 38.449821 365.000000
125.616959 39.044582 365.000000
125.616959 39.639347 365.000000
125.616959 40.234108 365.000000
125.616959 40.828873 365.000000
125.616959 41.423634 365.000000
125.616959 42.018398 365.000000
125.616959 42.613159 365.000000
125.616959 43.207924 365.000000
125.616959 43.802685 365.000000
125.616959 44.397449 365.000000
125.272797 44.868946 364.000000
125.272797 45.462078 364.000000
125.272797 46.055214 364.000000
125.272797 46.648346 364.000000
125.272797 47.241482 364.000000
125.272797 47.834614 364.000000
125.272797 48.427746 364.000000
125.272797 49.020882 364.000000
125.272797 49.614014 364.000000
125.272797 50.207146 364.000000
125.272797 50.800282 364.000000
125.272797 51.393414 364.000000
125.272797 51.986546 364.000000
125.272797 52.579681 364.000000
125.272797 53.172813 364.000000
125.272797 53.765949 364.000000
124.928650 54.209740 363.000000
124.928650 54.801243 363.000000
124.928650 55.392750 363.000000
124.928650 55.984253 363.000000
124.928650 56.575756 363.000000
124.928650 57.167259 363.000000
124.928650 57.758762 363.000000
124.928650 58.350269 363.000000
124.928650 58.941772 363.000000
124.928650 59.533276 363.000000
124.928650 60.124779 363.000000
