16.151674 119.383949 307.000000
16.151674 119.884201 307.000000
16.151674 120.384453 307.000000
16.151674 120.884705 307.000000
16.151674 121.384956 307.000000
16.151674 121.885208 307.000000
16.151674 122.385460 307.000000
16.151674 122.885712 307.000000
16.151674 123.385963 307.000000
16.151674 123.886223 307.000000
16.151674 124.386475 307.000000
16.151674 124.886726 307.000000
16.151674 125.386978 307.000000
16.151674 125.887230 307.000000
16.151674 126.387482 307.000000
16.151674 126.887733 307.000000
16.151674 127.387985 307.000000
16.151674 127.888237 307.000000
16.151674 128.388489 307.000000
16.151674 128.888748 307.000000
16.151674 129.388992 307.000000
16.151674 129.889252 307.000000
16.204285 130.814209 308.000000
16.204285 131.316101 308.000000
16.204285 131.817978 308.000000
16.204285 132.319855 308.000000
16.204285 132.821747 308.000000
16.151674 132.890762 307.000000
16.151674 133.391022 307.000000
16.151674 133.891266 307.000000
16.151674 134.391525 307.000000
16.151674 134.891769 307.000000
16.151674 135.392029 307.000000
16.151674 135.892288 307.000000
16.151674 136.392532 307.000000
16.151674 136.892792 307.000000
16.151674 137.393036 307.000000
16.151674 137.893295 307.000000
16.151674 138.393539 307.000000
16.099062 138.441376 306.000000
16.099062 138.940002 306.000000
16.099062 139.438614 306.000000
16.099062 139.937241 306.000000
16.099062 140.435867 306.000000
16.099062 140.934494 306.000000
16.099062 141.433105 306.000000
16.099062 141.931732 306.000000
16.099062 142.430359 306.000000
16.046452 142.461899 305.000000
16.046452 142.958878 305.000000
16.046452 143.455872 305.000000
16.046452 143.952866 305.000000
16.046452 144.449860 305.000000
16.046452 144.946854 305.000000
16.046452 145.443848 305.000000
16.046452 145.940842 305.000000
16.046452 146.437836 305.000000
16.046452 146.934830 305.000000
16.046452 147.431824 305.000000
15.993839 147.443802 304.000000
15.993839 147.939178 304.000000
15.993839 148.434540 304.000000
15.993839 148.929901 304.000000
15.993839 149.425262 304.000000
15.941229 149.427460 303.000000
15.941229 149.921204 303.000000
15.941229 150.414932 303.000000
15.941229 150.908676 303.000000
15.941229 151.402405 303.000000
15.941229 151.896133 303.000000
15.941229 152.389877 303.000000
15.888618 152.379044 302.000000
15.888618 152.871140 302.000000
15.888618 153.363251 302.000000
15.888618 153.855362 302.000000
15.888618 154.347458 302.000000
15.888618 154.839569 302.000000
15.888618 155.331665 302.000000
15.888618 155.823776 302.000000
15.888618 156.315887 302.000000
15.888618 156.807983 302.000000
15.888618 157.300095 302.000000
15.836006 157.269699 301.000000
15.836006 157.760178 301.000000
15.783395 157.724915 300.000000
15.783395 158.213760 300.000000
15.811454 158.984741 300.533325
15.811454 159.474457 300.533325
15.811454 159.964157 300.533325
15.802356 160.361572 300.360413
15.792790 160.753632 300.178589
15.792790 161.242767 300.178589
15.789407 161.697266 300.114288
15.783395 162.124527 300.000000
15.783395 162.613373 300.000000
15.783395 163.102219 300.000000
15.730783 163.045761 299.000000
15.730783 163.532990 299.000000
15.730783 164.020203 299.000000
15.730783 164.507416 299.000000
15.730783 164.994629 299.000000
15.730783 165.481857 299.000000
15.678172 165.413986 298.000000
15.678172 165.899567 298.000000
15.678172 166.385162 298.000000
15.678172 166.870743 298.000000
15.678172 167.356339 298.000000
15.678172 167.841919 298.000000
15.625561 167.762650 297.000000
15.625561 168.246613 297.000000
15.625561 168.730560 297.000000
15.625561 169.214523 297.000000
15.625561 169.698486 297.000000
15.625561 170.182434 297.000000
15.625561 170.666397 297.000000
15.572948 170.574081 296.000000
15.572948 171.056412 296.000000
15.572948 171.538742 296.000000
15.572948 172.021072 296.000000
15.572948 172.503403 296.000000
15.572948 172.985733 296.000000
15.572948 173.468063 296.000000
15.572948 173.950378 296.000000
15.572948 174.432709 296.000000
15.520337 174.324112 295.000000
15.520337 174.804810 295.000000
15.520337 175.285507 295.000000
15.520337 175.766205 295.000000
15.520337 176.246902 295.000000
15.520337 176.727600 295.000000
15.467726 176.607605 294.000000
15.467726 177.086670 294.000000
15.467726 177.565750 294.000000
15.467726 178.044815 294.000000
15.467726 178.523880 294.000000
15.475504 179.092957 294.147827
15.475504 179.572266 294.147827
15.475504 180.051575 294.147827
15.467726 180.440155 294.000000
15.467726 180.919235 294.000000
15.467726 181.398300 294.000000
15.467726 181.877365 294.000000
15.467726 182.356445 294.000000
15.415114 182.213623 293.000000
15.415114 182.691055 293.000000
15.415114 183.168503 293.000000
15.415114 183.645935 293.000000
15.415114 184.123383 293.000000
15.362504 183.970779 292.000000
15.362504 184.446594 292.000000
15.362504 184.922394 292.000000
15.362504 185.398209 292.000000
15.362504 185.874023 292.000000
15.362504 186.349823 292.000000
15.362504 186.825638 292.000000
15.362504 187.301453 292.000000
15.362504 187.777267 292.000000
15.362504 188.253067 292.000000
15.362504 188.728882 292.000000
15.362504 189.204697 292.000000
15.362504 189.680496 292.000000
15.362504 190.156311 292.000000
15.362504 190.632126 292.000000
15.309893 190.453445 291.000000
15.309893 190.927628 291.000000
15.309893 191.401810 291.000000
15.257281 191.216629 290.000000
15.257281 191.689178 290.000000
15.257281 192.161728 290.000000
15.257281 192.634277 290.000000
15.257281 193.106827 290.000000
15.257281 193.579376 290.000000
15.257281 194.051926 290.000000
15.257281 194.524490 290.000000
15.257281 194.997040 290.000000
15.257281 195.469589 290.000000
15.257281 195.942139 290.000000
15.257281 196.414688 290.000000
15.257281 196.887238 290.000000
15.257281 197.359787 290.000000
15.257281 197.832336 290.000000
15.257281 198.304901 290.000000
16.950018 84.859276 312.500000
16.950018 85.368492 312.500000
16.950018 85.877708 312.500000
17.031378 86.801575 314.000000
17.031378 87.313232 314.000000
17.031378 87.824890 314.000000
17.031378 88.336555 314.000000
16.977139 88.565262 313.000000
16.977139 89.075287 313.000000
16.977139 89.585320 313.000000
16.977139 90.095352 313.000000
16.977139 90.605377 313.000000
16.977139 91.115410 313.000000
16.977139 91.625435 313.000000
16.977139 92.135468 313.000000
16.922899 92.349503 312.000000
16.922899 92.857903 312.000000
16.922899 93.366302 312.000000
16.922899 93.874702 312.000000
16.868656 94.080589 311.000000
16.868656 94.587364 311.000000
16.868656 95.094131 311.000000
16.868656 95.600906 311.000000
16.868656 96.107674 311.000000
16.868656 96.614441 311.000000
16.814417 96.808929 310.000000
16.814417 97.314064 310.000000
16.814417 97.819206 310.000000
16.814417 98.324348 310.000000
16.814417 98.829491 310.000000
16.760178 99.014198 309.000000
16.760178 99.517715 309.000000
16.760178 100.021225 309.000000
16.760178 100.524734 309.000000
16.705936 100.701294 308.000000
16.705936 101.203178 308.000000
16.705936 101.705055 308.000000
16.705936 102.206940 308.000000
16.705936 102.708824 308.000000
16.705936 103.210701 308.000000
16.705936 103.712585 308.000000
16.705936 104.214470 308.000000
16.705936 104.716354 308.000000
16.705936 105.218231 308.000000
16.651697 105.376869 307.000000
16.651697 105.877121 307.000000
16.651697 106.377373 307.000000
16.651697 106.877632 307.000000
16.651697 107.377884 307.000000
16.651697 107.878136 307.000000
16.651697 108.378387 307.000000
16.651697 108.878639 307.000000
16.597458 109.022606 306.000000
16.597458 109.521233 306.000000
16.597458 110.019852 306.000000
16.597458 110.518478 306.000000
16.597458 111.017097 306.000000
16.597458 111.515724 306.000000
16.597458 112.014351 306.000000
16.597458 112.512970 306.000000
16.597458 113.011597 306.000000
16.597458 113.510216 306.000000
16.597458 114.008842 306.000000
16.597458 114.507462 306.000000
16.597458 115.006088 306.000000
16.597458 115.504707 306.000000
16.651697 116.382431 307.000000
16.651697 116.882683 307.000000
16.651697 117.382935 307.000000
16.651697 117.883186 307.000000
16.651697 118.383438 307.000000
16.651697 118.883690 307.000000
16.651697 119.383949 307.000000
16.651697 119.884201 307.000000
16.651697 120.384453 307.000000
16.651697 120.884705 307.000000
16.651697 121.384956 307.000000
16.651697 121.885208 307.000000
16.651697 122.385460 307.000000
16.651697 122.885712 307.000000
16.651697 123.385963 307.000000
16.651697 123.886223 307.000000
16.651697 124.386475 307.000000
16.651697 124.886726 307.000000
16.705936 125.795395 308.000000
16.705936 126.297272 308.000000
16.705936 126.799156 308.000000
16.705936 127.301041 308.000000
16.705936 127.802917 308.000000
16.705936 128.304810 308.000000
16.705936 128.806686 308.000000
16.705936 129.308563 308.000000
16.705936 129.810455 308.000000
16.705936 130.312332 308.000000
16.705936 130.814209 308.000000
16.705936 131.316101 308.000000
16.705936 131.817978 308.000000
16.705936 132.319855 308.000000
16.705936 132.821747 308.000000
16.705936 133.323624 308.000000
16.705936 133.825500 308.000000
16.705936 134.327393 308.000000
16.705936 134.829269 308.000000
16.705936 135.331146 308.000000
16.705936 135.833038 308.000000
16.651697 135.892288 307.000000
16.651697 136.392532 307.000000
16.651697 136.892792 307.000000
16.651697 137.393036 307.000000
16.651697 137.893295 307.000000
16.651697 138.393539 307.000000
16.651697 138.893799 307.000000
16.597458 138.940002 306.000000
16.597458 139.438614 306.000000
16.597458 139.937241 306.000000
16.597458 140.435867 306.000000
16.597458 140.934494 306.000000
16.597458 141.433105 306.000000
16.597458 141.931732 306.000000
16.597458 142.430359 306.000000
16.543217 142.461899 305.000000
16.543217 142.958878 305.000000
16.543217 143.455872 305.000000
16.543217 143.952866 305.000000
16.543217 144.449860 305.000000
16.543217 144.946854 305.000000
16.543217 145.443848 305.000000
16.543217 145.940842 305.000000
16.543217 146.437836 305.000000
16.543217 146.934830 305.000000
16.543217 147.431824 305.000000
16.488977 147.443802 304.000000
16.488977 147.939178 304.000000
16.488977 148.434540 304.000000
16.488977 148.929901 304.000000
16.488977 149.425262 304.000000
16.434738 149.427460 303.000000
16.434738 149.921204 303.000000
16.434738 150.414932 303.000000
16.434738 150.908676 303.000000
16.434738 151.402405 303.000000
16.434738 151.896133 303.000000
16.434738 152.389877 303.000000
16.380497 152.379044 302.000000
16.380497 152.871140 302.000000
16.380497 153.363251 302.000000
16.380497 153.855362 302.000000
16.380497 154.347458 302.000000
16.380497 154.839569 302.000000
16.380497 155.331665 302.000000
16.380497 155.823776 302.000000
16.380497 156.315887 302.000000
16.326258 156.288757 301.000000
16.326258 156.779236 301.000000
16.326258 157.269699 301.000000
16.272017 157.236069 300.000000
16.299137 157.987793 300.500000
16.299137 158.477448 300.500000
16.300945 158.984741 300.533325
16.300945 159.474457 300.533325
16.300945 159.964157 300.533325
16.291565 160.361572 300.360413
16.281704 160.753632 300.178589
16.281704 161.242767 300.178589
16.269207 161.607773 299.948181
16.259914 162.003952 299.776886
16.259914 162.492447 299.776886
16.250317 162.884720 299.599945
16.217777 163.045761 299.000000
16.217777 163.532990 299.000000
16.217777 164.020203 299.000000
16.217777 164.507416 299.000000
16.217777 164.994629 299.000000
16.217777 165.481857 299.000000
16.163538 165.413986 298.000000
16.163538 165.899567 298.000000
16.163538 166.385162 298.000000
16.163538 166.870743 298.000000
16.163538 167.356339 298.000000
16.163538 167.841919 298.000000
16.109297 167.762650 297.000000
16.109297 168.246613 297.000000
16.109297 168.730560 297.000000
16.109297 169.214523 297.000000
16.109297 169.698486 297.000000
16.109297 170.182434 297.000000
16.109297 170.666397 297.000000
16.055056 170.574081 296.000000
16.055056 171.056412 296.000000
16.055056 171.538742 296.000000
16.055056 172.021072 296.000000
16.055056 172.503403 296.000000
16.055056 172.985733 296.000000
16.055056 173.468063 296.000000
16.055056 173.950378 296.000000
16.055056 174.432709 296.000000
16.000816 174.324112 295.000000
16.000816 174.804810 295.000000
16.000816 175.285507 295.000000
16.000816 175.766205 295.000000
16.000816 176.246902 295.000000
16.000816 176.727600 295.000000
15.946576 176.607605 294.000000
15.946576 177.086670 294.000000
15.946576 177.565750 294.000000
15.946576 178.044815 294.000000
15.946576 178.523880 294.000000
15.946576 179.002960 294.000000
15.892336 178.871536 293.000000
15.892336 179.348984 293.000000
15.892336 179.826416 293.000000
15.892336 180.303864 293.000000
15.892336 180.781296 293.000000
15.892336 181.258743 293.000000
15.892336 181.736176 293.000000
15.892336 182.213623 293.000000
15.892336 182.691055 293.000000
15.838096 182.543350 292.000000
15.838096 183.019150 292.000000
15.838096 183.494965 292.000000
15.838096 183.970779 292.000000
15.838096 184.446594 292.000000
15.838096 184.922394 292.000000
15.838096 185.398209 292.000000
15.838096 185.874023 292.000000
15.838096 186.349823 292.000000
15.783856 186.185822 291.000000
15.783856 186.660004 291.000000
15.783856 187.134186 291.000000
15.783856 187.608368 291.000000
15.783856 188.082550 291.000000
15.783856 188.556732 291.000000
15.783856 189.030914 291.000000
15.783856 189.505096 291.000000
15.783856 189.979263 291.000000
15.729616 189.798965 290.000000
15.729616 190.271515 290.000000
15.729616 190.744080 290.000000
15.729616 191.216629 290.000000
15.729616 191.689178 290.000000
15.729616 192.161728 290.000000
15.729616 192.634277 290.000000
17.450783 86.346268 312.352936
17.450783 86.855240 312.352936
17.450783 87.364212 312.352936
17.455374 87.896309 312.435120
17.486935 88.565262 313.000000
17.486935 89.075287 313.000000
17.598671 90.157745 315.000000
17.598671 90.671036 315.000000
17.598671 91.184326 315.000000
17.598671 91.697609 315.000000
17.598671 92.210899 315.000000
17.598671 92.724190 315.000000
17.486935 92.645500 313.000000
17.486935 93.155525 313.000000
17.486935 93.665558 313.000000
17.486935 94.175583 313.000000
17.431067 94.383102 312.000000
17.431067 94.891502 312.000000
17.375195 95.094131 311.000000
17.375195 95.600906 311.000000
17.375195 96.107674 311.000000
17.375195 96.614441 311.000000
17.375195 97.121216 311.000000
17.375195 97.627983 311.000000
17.319326 97.819206 310.000000
17.319326 98.324348 310.000000
17.319326 98.829491 310.000000
17.263458 99.014198 309.000000
17.263458 99.517715 309.000000
17.263458 100.021225 309.000000
17.263458 100.524734 309.000000
17.207590 100.701294 308.000000
17.207590 101.203178 308.000000
17.207590 101.705055 308.000000
17.207590 102.206940 308.000000
17.207590 102.708824 308.000000
17.207590 103.210701 308.000000
17.207590 103.712585 308.000000
17.207590 104.214470 308.000000
17.207590 104.716354 308.000000
17.207590 105.218231 308.000000
17.151720 105.376869 307.000000
17.151720 105.877121 307.000000
17.151720 106.377373 307.000000
17.151720 106.877632 307.000000
17.151720 107.377884 307.000000
17.151720 107.878136 307.000000
17.151720 108.378387 307.000000
17.151720 108.878639 307.000000
17.095852 109.022606 306.000000
17.095852 109.521233 306.000000
17.095852 110.019852 306.000000
17.095852 110.518478 306.000000
17.095852 111.017097 306.000000
17.095852 111.515724 306.000000
17.095852 112.014351 306.000000
17.095852 112.512970 306.000000
17.095852 113.011597 306.000000
17.095852 113.510216 306.000000
17.095852 114.008842 306.000000
17.095852 114.507462 306.000000
17.095852 115.006088 306.000000
17.095852 115.504707 306.000000
17.151720 116.382431 307.000000
17.151720 116.882683 307.000000
17.151720 117.382935 307.000000
17.151720 117.883186 307.000000
17.151720 118.383438 307.000000
17.151720 118.883690 307.000000
17.151720 119.383949 307.000000
17.151720 119.884201 307.000000
17.151720 120.384453 307.000000
17.151720 120.884705 307.000000
17.151720 121.384956 307.000000
17.151720 121.885208 307.000000
17.151720 122.385460 307.000000
17.151720 122.885712 307.000000
17.151720 123.385963 307.000000
17.151720 123.886223 307.000000
17.151720 124.386475 307.000000
17.151720 124.886726 307.000000
17.207590 125.795395 308.000000
17.207590 126.297272 308.000000
17.207590 126.799156 308.000000
17.207590 127.301041 308.000000
17.207590 127.802917 308.000000
17.207590 128.304810 308.000000
17.207590 128.806686 308.000000
17.207590 129.308563 308.000000
17.207590 129.810455 308.000000
17.207590 130.312332 308.000000
17.207590 130.814209 308.000000
17.207590 131.316101 308.000000
17.207590 131.817978 308.000000
17.207590 132.319855 308.000000
17.207590 132.821747 308.000000
17.207590 133.323624 308.000000
17.207590 133.825500 308.000000
17.207590 134.327393 308.000000
17.207590 134.829269 308.000000
17.207590 135.331146 308.000000
17.207590 135.833038 308.000000
17.151720 135.892288 307.000000
17.151720 136.392532 307.000000
17.151720 136.892792 307.000000
17.151720 137.393036 307.000000
17.151720 137.893295 307.000000
17.151720 138.393539 307.000000
17.151720 138.893799 307.000000
17.095852 138.940002 306.000000
17.095852 139.438614 306.000000
17.095852 139.937241 306.000000
17.095852 140.435867 306.000000
17.095852 140.934494 306.000000
17.095852 141.433105 306.000000
17.095852 141.931732 306.000000
17.095852 142.430359 306.000000
17.039984 142.461899 305.000000
17.039984 142.958878 305.000000
17.039984 143.455872 305.000000
17.039984 143.952866 305.000000
17.039984 144.449860 305.000000
17.039984 144.946854 305.000000
17.039984 145.443848 305.000000
17.039984 145.940842 305.000000
17.039984 146.437836 305.000000
17.039984 146.934830 305.000000
17.039984 147.431824 305.000000
16.984114 147.443802 304.000000
16.984114 147.939178 304.000000
16.984114 148.434540 304.000000
16.928246 148.440002 303.000000
16.928246 148.933731 303.000000
16.928246 149.427460 303.000000
16.928246 149.921204 303.000000
16.928246 150.414932 303.000000
16.928246 150.908676 303.000000
16.928246 151.402405 303.000000
16.928246 151.896133 303.000000
16.928246 152.389877 303.000000
16.872377 152.379044 302.000000
16.872377 152.871140 302.000000
16.872377 153.363251 302.000000
16.872377 153.855362 302.000000
16.872377 154.347458 302.000000
16.872377 154.839569 302.000000
16.872377 155.331665 302.000000
16.872377 155.823776 302.000000
16.872377 156.315887 302.000000
16.816509 156.288757 301.000000
16.816509 156.779236 301.000000
16.760639 156.747223 300.000000
16.760639 157.236069 300.000000
16.788574 157.987793 300.500000
16.788574 158.477448 300.500000
16.788574 158.967102 300.500000
16.778156 159.357834 300.313538
16.778156 159.847183 300.313538
16.769140 160.250381 300.152161
16.760639 160.657990 300.000000
16.760639 161.146835 300.000000
16.760639 161.635681 300.000000
16.760639 162.124527 300.000000
16.760639 162.613373 300.000000
16.704771 162.558548 299.000000
16.704771 163.045761 299.000000
16.704771 163.532990 299.000000
16.704771 164.020203 299.000000
16.704771 164.507416 299.000000
16.704771 164.994629 299.000000
16.648903 164.928391 298.000000
16.648903 165.413986 298.000000
16.648903 165.899567 298.000000
16.648903 166.385162 298.000000
16.648903 166.870743 298.000000
16.648903 167.356339 298.000000
16.593033 167.278687 297.000000
16.593033 167.762650 297.000000
16.593033 168.246613 297.000000
16.593033 168.730560 297.000000
16.593033 169.214523 297.000000
16.593033 169.698486 297.000000
16.593033 170.182434 297.000000
16.537163 170.091766 296.000000
16.537163 170.574081 296.000000
16.537163 171.056412 296.000000
16.537163 171.538742 296.000000
16.537163 172.021072 296.000000
16.537163 172.503403 296.000000
16.537163 172.985733 296.000000
16.481295 172.882019 295.000000
16.481295 173.362717 295.000000
16.481295 173.843414 295.000000
16.481295 174.324112 295.000000
16.481295 174.804810 295.000000
16.481295 175.285507 295.000000
16.481295 175.766205 295.000000
16.481295 176.246902 295.000000
16.425426 176.128540 294.000000
16.425426 176.607605 294.000000
16.425426 177.086670 294.000000
16.425426 177.565750 294.000000
16.425426 178.044815 294.000000
16.425426 178.523880 294.000000
16.425426 179.002960 294.000000
16.369556 178.871536 293.000000
16.369556 179.348984 293.000000
16.369556 179.826416 293.000000
16.369556 180.303864 293.000000
16.369556 180.781296 293.000000
16.369556 181.258743 293.000000
16.369556 181.736176 293.000000
16.369556 182.213623 293.000000
16.369556 182.691055 293.000000
16.313688 182.543350 292.000000
16.313688 183.019150 292.000000
16.313688 183.494965 292.000000
16.313688 183.970779 292.000000
16.313688 184.446594 292.000000
16.313688 184.922394 292.000000
16.313688 185.398209 292.000000
16.313688 185.874023 292.000000
16.313688 186.349823 292.000000
16.257820 186.185822 291.000000
16.257820 186.660004 291.000000
16.257820 187.134186 291.000000
16.257820 187.608368 291.000000
16.257820 188.082550 291.000000
16.257820 188.556732 291.000000
16.257820 189.030914 291.000000
16.257820 189.505096 291.000000
16.257820 189.979263 291.000000
16.201952 189.798965 290.000000
16.201952 190.271515 290.000000
16.201952 190.744080 290.000000
16.201952 191.216629 290.000000
16.201952 191.689178 290.000000
16.201952 192.161728 290.000000
16.201952 192.634277 290.000000
17.964251 87.896309 312.435120
17.964251 88.405418 312.435120
17.964251 88.914528 312.435120
18.111725 90.157745 315.000000
18.111725 90.671036 315.000000
18.111725 91.184326 315.000000
18.111725 91.697609 315.000000
18.111725 92.210899 315.000000
18.111725 92.724190 315.000000
18.054228 92.941483 314.000000
18.054228 93.453140 314.000000
18.054228 93.964806 314.000000
17.996731 94.175583 313.000000
17.939234 94.383102 312.000000
17.939234 94.891502 312.000000
17.939234 95.399902 312.000000
17.881735 95.600906 311.000000
17.881735 96.107674 311.000000
17.881735 96.614441 311.000000
17.881735 97.121216 311.000000
17.881735 97.627983 311.000000
17.881735 98.134758 311.000000
17.824236 98.324348 310.000000
17.824236 98.829491 310.000000
17.824236 99.334633 310.000000
17.766739 99.517715 309.000000
17.766739 100.021225 309.000000
17.766739 100.524734 309.000000
17.766739 101.028252 309.000000
17.709242 101.203178 308.000000
17.709242 101.705055 308.000000
17.709242 102.206940 308.000000
17.709242 102.708824 308.000000
17.709242 103.210701 308.000000
17.709242 103.712585 308.000000
17.709242 104.214470 308.000000
17.709242 104.716354 308.000000
17.709242 105.218231 308.000000
17.651745 105.376869 307.000000
17.651745 105.877121 307.000000
17.651745 106.377373 307.000000
17.651745 106.877632 307.000000
17.651745 107.377884 307.000000
17.651745 107.878136 307.000000
17.651745 108.378387 307.000000
17.651745 108.878639 307.000000
17.651745 109.378891 307.000000
17.651745 109.879143 307.000000
17.651745 110.379402 307.000000
17.651745 110.879654 307.000000
17.594248 111.017097 306.000000
17.594248 111.515724 306.000000
17.594248 112.014351 306.000000
17.594248 112.512970 306.000000
17.594248 113.011597 306.000000
17.651745 113.881165 307.000000
17.651745 114.381416 307.000000
17.651745 114.881676 307.000000
17.651745 115.381927 307.000000
17.651745 115.882179 307.000000
17.651745 116.382431 307.000000
17.651745 116.882683 307.000000
17.651745 117.382935 307.000000
17.651745 117.883186 307.000000
17.651745 118.383438 307.000000
17.651745 118.883690 307.000000
17.651745 119.383949 307.000000
17.651745 119.884201 307.000000
17.651745 120.384453 307.000000
17.651745 120.884705 307.000000
17.651745 121.384956 307.000000
17.651745 121.885208 307.000000
17.651745 122.385460 307.000000
17.651745 122.885712 307.000000
17.651745 123.385963 307.000000
17.651745 123.886223 307.000000
17.651745 124.386475 307.000000
17.709242 125.293510 308.000000
17.709242 125.795395 308.000000
17.709242 126.297272 308.000000
17.709242 126.799156 308.000000
17.709242 127.301041 308.000000
17.709242 127.802917 308.000000
17.709242 128.304810 308.000000
17.709242 128.806686 308.000000
17.709242 129.308563 308.000000
17.709242 129.810455 308.000000
17.709242 130.312332 308.000000
17.709242 130.814209 308.000000
17.709242 131.316101 308.000000
17.709242 131.817978 308.000000
17.709242 132.319855 308.000000
17.709242 132.821747 308.000000
17.709242 133.323624 308.000000
17.709242 133.825500 308.000000
17.709242 134.327393 308.000000
17.709242 134.829269 308.000000
17.709242 135.331146 308.000000
17.709242 135.833038 308.000000
17.709242 136.334915 308.000000
17.709242 136.836792 308.000000
17.709242 137.338684 308.000000
17.709242 137.840561 308.000000
17.651745 137.893295 307.000000
17.651745 138.393539 307.000000
17.651745 138.893799 307.000000
17.594248 138.940002 306.000000
17.594248 139.438614 306.000000
17.594248 139.937241 306.000000
17.594248 140.435867 306.000000
17.594248 140.934494 306.000000
17.594248 141.433105 306.000000
17.594248 141.931732 306.000000
17.594248 142.430359 306.000000
17.536749 142.461899 305.000000
17.536749 142.958878 305.000000
17.536749 143.455872 305.000000
17.536749 143.952866 305.000000
17.536749 144.449860 305.000000
17.536749 144.946854 305.000000
17.536749 145.443848 305.000000
17.536749 145.940842 305.000000
17.536749 146.437836 305.000000
17.536749 146.934830 305.000000
17.536749 147.431824 305.000000
17.479252 147.443802 304.000000
17.479252 147.939178 304.000000
17.479252 148.434540 304.000000
17.421755 148.440002 303.000000
17.421755 148.933731 303.000000
17.421755 149.427460 303.000000
17.421755 149.921204 303.000000
17.421755 150.414932 303.000000
17.421755 150.908676 303.000000
17.421755 151.402405 303.000000
17.421755 151.896133 303.000000
17.421755 152.389877 303.000000
17.364258 152.379044 302.000000
17.364258 152.871140 302.000000
17.364258 153.363251 302.000000
17.364258 153.855362 302.000000
17.364258 154.347458 302.000000
17.364258 154.839569 302.000000
17.364258 155.331665 302.000000
17.364258 155.823776 302.000000
17.364258 156.315887 302.000000
17.306759 156.288757 301.000000
17.306759 156.779236 301.000000
17.249262 156.747223 300.000000
17.249262 157.236069 300.000000
17.278009 157.987793 300.500000
17.278009 158.477448 300.500000
17.278009 158.967102 300.500000
17.267290 159.357834 300.313538
17.267290 159.847183 300.313538
17.258011 160.250381 300.152161
17.249262 160.657990 300.000000
17.249262 161.146835 300.000000
17.249262 161.635681 300.000000
17.249262 162.124527 300.000000
17.249262 162.613373 300.000000
17.191765 162.558548 299.000000
17.191765 163.045761 299.000000
17.191765 163.532990 299.000000
17.191765 164.020203 299.000000
17.191765 164.507416 299.000000
17.191765 164.994629 299.000000
17.134268 164.928391 298.000000
17.134268 165.413986 298.000000
17.134268 165.899567 298.000000
17.134268 166.385162 298.000000
17.076771 166.310776 297.000000
17.076771 166.794739 297.000000
17.076771 167.278687 297.000000
17.076771 167.762650 297.000000
17.076771 168.246613 297.000000
17.076771 168.730560 297.000000
17.076771 169.214523 297.000000
17.019272 169.127106 296.000000
17.019272 169.609436 296.000000
17.019272 170.091766 296.000000
17.019272 170.574081 296.000000
17.019272 171.056412 296.000000
17.019272 171.538742 296.000000
16.961773 171.439911 295.000000
16.961773 171.920624 295.000000
16.961773 172.401321 295.000000
16.961773 172.882019 295.000000
16.961773 173.362717 295.000000
16.961773 173.843414 295.000000
16.961773 174.324112 295.000000
16.961773 174.804810 295.000000
16.904276 174.691330 294.000000
16.904276 175.170395 294.000000
16.904276 175.649475 294.000000
16.904276 176.128540 294.000000
16.904276 176.607605 294.000000
16.904276 177.086670 294.000000
16.846779 176.961777 293.000000
16.846779 177.439224 293.000000
16.846779 177.916656 293.000000
16.846779 178.394104 293.000000
16.846779 178.871536 293.000000
16.846779 179.348984 293.000000
16.846779 179.826416 293.000000
16.846779 180.303864 293.000000
16.846779 180.781296 293.000000
16.846779 181.258743 293.000000
16.789282 181.115921 292.000000
16.789282 181.591721 292.000000
16.789282 182.067535 292.000000
16.789282 182.543350 292.000000
16.789282 183.019150 292.000000
16.789282 183.494965 292.000000
16.789282 183.970779 292.000000
16.731783 183.814926 291.000000
16.731783 184.289093 291.000000
16.731783 184.763275 291.000000
16.731783 185.237457 291.000000
16.731783 185.711639 291.000000
16.731783 186.185822 291.000000
16.674286 186.018555 290.000000
16.674286 186.491104 290.000000
16.674286 186.963669 290.000000
16.674286 187.436218 290.000000
16.674286 187.908768 290.000000
16.674286 188.381317 290.000000
16.674286 188.853867 290.000000
16.674286 189.326416 290.000000
16.674286 189.798965 290.000000
16.674286 190.271515 290.000000
16.674286 190.744080 290.000000
18.473125 87.896309 312.435120
18.473125 88.405418 312.435120
18.473125 88.914528 312.435120
18.624779 90.157745 315.000000
18.624779 90.671036 315.000000
18.624779 91.184326 315.000000
18.624779 91.697609 315.000000
18.624779 92.210899 315.000000
18.624779 92.724190 315.000000
18.565653 92.941483 314.000000
18.565653 93.453140 314.000000
18.565653 93.964806 314.000000
18.506527 94.175583 313.000000
18.447401 94.383102 312.000000
18.447401 94.891502 312.000000
18.447401 95.399902 312.000000
18.388273 95.600906 311.000000
18.388273 96.107674 311.000000
18.388273 96.614441 311.000000
18.388273 97.121216 311.000000
18.388273 97.627983 311.000000
18.388273 98.134758 311.000000
18.329147 98.324348 310.000000
18.329147 98.829491 310.000000
18.329147 99.334633 310.000000
18.329147 99.839775 310.000000
18.329147 100.344910 310.000000
18.270020 100.524734 309.000000
18.270020 101.028252 309.000000
18.210894 101.203178 308.000000
18.210894 101.705055 308.000000
18.210894 102.206940 308.000000
18.210894 102.708824 308.000000
18.210894 103.210701 308.000000
18.210894 103.712585 308.000000
18.210894 104.214470 308.000000
18.210894 104.716354 308.000000
18.210894 105.218231 308.000000
18.210894 105.720116 308.000000
18.210894 106.222000 308.000000
18.151768 106.377373 307.000000
18.151768 106.877632 307.000000
18.151768 107.377884 307.000000
18.151768 107.878136 307.000000
18.151768 108.378387 307.000000
18.151768 108.878639 307.000000
18.151768 109.378891 307.000000
18.151768 109.879143 307.000000
18.151768 110.379402 307.000000
18.151768 110.879654 307.000000
18.151768 111.379906 307.000000
18.151768 111.880157 307.000000
18.151768 112.380409 307.000000
18.151768 112.880661 307.000000
18.151768 113.380913 307.000000
18.151768 113.881165 307.000000
18.151768 114.381416 307.000000
18.151768 114.881676 307.000000
18.151768 115.381927 307.000000
18.151768 115.882179 307.000000
18.151768 116.382431 307.000000
18.151768 116.882683 307.000000
18.151768 117.382935 307.000000
18.151768 117.883186 307.000000
18.151768 118.383438 307.000000
18.151768 118.883690 307.000000
18.151768 119.383949 307.000000
18.151768 119.884201 307.000000
18.151768 120.384453 307.000000
18.151768 120.884705 307.000000
18.151768 121.384956 307.000000
18.151768 121.885208 307.000000
18.151768 122.385460 307.000000
18.151768 122.885712 307.000000
18.210894 123.787865 308.000000
18.210894 124.289749 308.000000
18.210894 124.791626 308.000000
18.210894 125.293510 308.000000
18.210894 125.795395 308.000000
18.210894 126.297272 308.000000
18.210894 126.799156 308.000000
18.210894 127.301041 308.000000
18.210894 127.802917 308.000000
18.210894 128.304810 308.000000
18.210894 128.806686 308.000000
18.210894 129.308563 308.000000
18.210894 129.810455 308.000000
18.210894 130.312332 308.000000
18.210894 130.814209 308.000000
18.210894 131.316101 308.000000
18.210894 131.817978 308.000000
18.210894 132.319855 308.000000
18.210894 132.821747 308.000000
18.210894 133.323624 308.000000
18.210894 133.825500 308.000000
18.210894 134.327393 308.000000
18.210894 134.829269 308.000000
18.210894 135.331146 308.000000
18.210894 135.833038 308.000000
18.210894 136.334915 308.000000
18.210894 136.836792 308.000000
18.210894 137.338684 308.000000
18.210894 137.840561 308.000000
18.210894 138.342438 308.000000
18.210894 138.844330 308.000000
18.151768 138.893799 307.000000
18.151768 139.394043 307.000000
18.151768 139.894302 307.000000
18.092642 139.937241 306.000000
18.092642 140.435867 306.000000
18.092642 140.934494 306.000000
18.092642 141.433105 306.000000
18.092642 141.931732 306.000000
18.092642 142.430359 306.000000
18.092642 142.928986 306.000000
18.033516 142.958878 305.000000
18.033516 143.455872 305.000000
18.033516 143.952866 305.000000
18.033516 144.449860 305.000000
18.033516 144.946854 305.000000
18.033516 145.443848 305.000000
18.033516 145.940842 305.000000
18.033516 146.437836 305.000000
18.033516 146.934830 305.000000
17.974390 146.948441 304.000000
17.974390 147.443802 304.000000
17.974390 147.939178 304.000000
17.974390 148.434540 304.000000
17.915264 148.440002 303.000000
17.915264 148.933731 303.000000
17.915264 149.427460 303.000000
17.915264 149.921204 303.000000
17.915264 150.414932 303.000000
17.915264 150.908676 303.000000
17.915264 151.402405 303.000000
17.915264 151.896133 303.000000
17.856136 151.886932 302.000000
17.856136 152.379044 302.000000
17.856136 152.871140 302.000000
17.856136 153.363251 302.000000
17.856136 153.855362 302.000000
17.856136 154.347458 302.000000
17.856136 154.839569 302.000000
17.856136 155.331665 302.000000
17.856136 155.823776 302.000000
17.797010 155.798279 301.000000
17.737885 155.769531 300.000000
17.737885 156.258377 300.000000
17.737885 156.747223 300.000000
17.737885 157.236069 300.000000
17.757313 157.897675 300.328583
17.757313 158.387054 300.328583
17.757313 158.876434 300.328583
17.746626 159.269913 300.147858
17.746626 159.759003 300.147858
17.737885 160.169144 300.000000
17.737885 160.657990 300.000000
17.737885 161.146835 300.000000
17.737885 161.635681 300.000000
17.737885 162.124527 300.000000
17.737885 162.613373 300.000000
17.678759 162.558548 299.000000
17.678759 163.045761 299.000000
17.678759 163.532990 299.000000
17.678759 164.020203 299.000000
17.678759 164.507416 299.000000
17.678759 164.994629 299.000000
17.619633 164.928391 298.000000
17.619633 165.413986 298.000000
17.619633 165.899567 298.000000
17.619633 166.385162 298.000000
17.560507 166.310776 297.000000
17.560507 166.794739 297.000000
17.560507 167.278687 297.000000
17.560507 167.762650 297.000000
17.560507 168.246613 297.000000
17.560507 168.730560 297.000000
17.560507 169.214523 297.000000
17.501379 169.127106 296.000000
17.501379 169.609436 296.000000
17.501379 170.091766 296.000000
17.501379 170.574081 296.000000
17.501379 171.056412 296.000000
17.501379 171.538742 296.000000
17.442253 171.439911 295.000000
17.442253 171.920624 295.000000
17.442253 172.401321 295.000000
17.442253 172.882019 295.000000
17.442253 173.362717 295.000000
17.442253 173.843414 295.000000
17.442253 174.324112 295.000000
17.442253 174.804810 295.000000
17.383125 174.691330 294.000000
17.383125 175.170395 294.000000
17.383125 175.649475 294.000000
17.383125 176.128540 294.000000
17.362146 176.394455 293.645172
17.362146 176.872940 293.645172
17.362146 177.351425 293.645172
17.340775 177.611023 293.283691
17.340775 178.088913 293.283691
17.328812 178.443634 293.081360
17.264874 178.261047 292.000000
17.264874 178.736862 292.000000
17.264874 179.212677 292.000000
17.264874 179.688492 292.000000
17.264874 180.164291 292.000000
17.264874 180.640106 292.000000
17.264874 181.115921 292.000000
17.264874 181.591721 292.000000
17.264874 182.067535 292.000000
17.205748 181.918198 291.000000
17.205748 182.392380 291.000000
17.205748 182.866562 291.000000
17.205748 183.340744 291.000000
17.205748 183.814926 291.000000
17.205748 184.289093 291.000000
17.205748 184.763275 291.000000
17.146622 184.600906 290.000000
17.146622 185.073456 290.000000
17.146622 185.546005 290.000000
17.146622 186.018555 290.000000
17.146622 186.491104 290.000000
17.146622 186.963669 290.000000
17.146622 187.436218 290.000000
17.146622 187.908768 290.000000
17.146622 188.381317 290.000000
17.146622 188.853867 290.000000
17.146622 189.326416 290.000000
18.980112 88.396614 312.403992
18.980112 88.905670 312.403992
18.987194 89.448097 312.520569
19.137833 90.671036 315.000000
19.137833 91.184326 315.000000
19.137833 91.697609 315.000000
19.137833 92.210899 315.000000
19.137833 92.724190 315.000000
19.077078 92.941483 314.000000
19.077078 93.453140 314.000000
19.077078 93.964806 314.000000
19.016323 94.175583 313.000000
19.016323 94.685616 313.000000
19.016323 95.195641 313.000000
18.955568 95.399902 312.000000
18.955568 95.908302 312.000000
18.955568 96.416702 312.000000
18.955568 96.925102 312.000000
18.894812 97.121216 311.000000
18.894812 97.627983 311.000000
18.894812 98.134758 311.000000
18.894812 98.641525 311.000000
18.894812 99.148300 311.000000
18.834057 99.334633 310.000000
18.834057 99.839775 310.000000
18.834057 100.344910 310.000000
18.773302 100.524734 309.000000
18.773302 101.028252 309.000000
18.712547 101.203178 308.000000
18.712547 101.705055 308.000000
18.712547 102.206940 308.000000
18.712547 102.708824 308.000000
18.712547 103.210701 308.000000
18.712547 103.712585 308.000000
18.712547 104.214470 308.000000
18.712547 104.716354 308.000000
18.712547 105.218231 308.000000
18.712547 105.720116 308.000000
18.712547 106.222000 308.000000
18.651793 106.377373 307.000000
18.651793 106.877632 307.000000
18.651793 107.377884 307.000000
18.651793 107.878136 307.000000
18.651793 108.378387 307.000000
18.651793 108.878639 307.000000
18.651793 109.378891 307.000000
18.651793 109.879143 307.000000
18.651793 110.379402 307.000000
18.651793 110.879654 307.000000
18.651793 111.379906 307.000000
18.651793 111.880157 307.000000
18.651793 112.380409 307.000000
18.651793 112.880661 307.000000
18.651793 113.380913 307.000000
18.651793 113.881165 307.000000
18.651793 114.381416 307.000000
18.651793 114.881676 307.000000
18.651793 115.381927 307.000000
18.651793 115.882179 307.000000
18.651793 116.382431 307.000000
18.651793 116.882683 307.000000
18.651793 117.382935 307.000000
18.651793 117.883186 307.000000
18.651793 118.383438 307.000000
18.651793 118.883690 307.000000
18.651793 119.383949 307.000000
18.651793 119.884201 307.000000
18.651793 120.384453 307.000000
18.651793 120.884705 307.000000
18.651793 121.384956 307.000000
18.651793 121.885208 307.000000
18.651793 122.385460 307.000000
18.651793 122.885712 307.000000
18.712547 123.787865 308.000000
18.712547 124.289749 308.000000
18.712547 124.791626 308.000000
18.712547 125.293510 308.000000
18.712547 125.795395 308.000000
18.712547 126.297272 308.000000
18.712547 126.799156 308.000000
18.712547 127.301041 308.000000
18.712547 127.802917 308.000000
18.712547 128.304810 308.000000
18.712547 128.806686 308.000000
18.712547 129.308563 308.000000
18.712547 129.810455 308.000000
18.712547 130.312332 308.000000
18.712547 130.814209 308.000000
18.712547 131.316101 308.000000
18.712547 131.817978 308.000000
18.712547 132.319855 308.000000
18.712547 132.821747 308.000000
18.712547 133.323624 308.000000
18.712547 133.825500 308.000000
18.712547 134.327393 308.000000
18.712547 134.829269 308.000000
18.712547 135.331146 308.000000
18.712547 135.833038 308.000000
18.712547 136.334915 308.000000
18.712547 136.836792 308.000000
18.712547 137.338684 308.000000
18.712547 137.840561 308.000000
18.712547 138.342438 308.000000
18.712547 138.844330 308.000000
18.651793 138.893799 307.000000
18.651793 139.394043 307.000000
18.651793 139.894302 307.000000
18.591036 139.937241 306.000000
18.591036 140.435867 306.000000
18.591036 140.934494 306.000000
18.591036 141.433105 306.000000
18.591036 141.931732 306.000000
18.591036 142.430359 306.000000
18.591036 142.928986 306.000000
18.530281 142.958878 305.000000
18.530281 143.455872 305.000000
18.530281 143.952866 305.000000
18.530281 144.449860 305.000000
18.530281 144.946854 305.000000
18.530281 145.443848 305.000000
18.530281 145.940842 305.000000
18.530281 146.437836 305.000000
18.530281 146.934830 305.000000
18.469526 146.948441 304.000000
18.469526 147.443802 304.000000
18.469526 147.939178 304.000000
18.469526 148.434540 304.000000
18.408772 148.440002 303.000000
18.408772 148.933731 303.000000
18.408772 149.427460 303.000000
18.408772 149.921204 303.000000
18.408772 150.414932 303.000000
18.408772 150.908676 303.000000
18.408772 151.402405 303.000000
18.408772 151.896133 303.000000
18.348017 151.886932 302.000000
18.348017 152.379044 302.000000
18.348017 152.871140 302.000000
18.348017 153.363251 302.000000
18.348017 153.855362 302.000000
18.348017 154.347458 302.000000
18.348017 154.839569 302.000000
18.287262 154.817322 301.000000
18.287262 155.307800 301.000000
18.287262 155.798279 301.000000
18.226507 155.769531 300.000000
18.226507 156.258377 300.000000
18.226507 156.747223 300.000000
18.226507 157.236069 300.000000
18.226507 157.724915 300.000000
18.226507 158.213760 300.000000
18.226507 158.702606 300.000000
18.226507 159.191452 300.000000
18.226507 159.680298 300.000000
18.226507 160.169144 300.000000
18.226507 160.657990 300.000000
18.226507 161.146835 300.000000
18.226507 161.635681 300.000000
18.165752 161.584122 299.000000
18.165752 162.071335 299.000000
18.165752 162.558548 299.000000
18.165752 163.045761 299.000000
18.165752 163.532990 299.000000
18.165752 164.020203 299.000000
18.104998 163.957230 298.000000
18.104998 164.442810 298.000000
18.104998 164.928391 298.000000
18.104998 165.413986 298.000000
18.104998 165.899567 298.000000
18.044243 165.826813 297.000000
18.044243 166.310776 297.000000
18.044243 166.794739 297.000000
18.044243 167.278687 297.000000
18.044243 167.762650 297.000000
18.044243 168.246613 297.000000
18.044243 168.730560 297.000000
18.044243 169.214523 297.000000
17.983486 169.127106 296.000000
17.983486 169.609436 296.000000
17.983486 170.091766 296.000000
17.983486 170.574081 296.000000
17.983486 171.056412 296.000000
17.922731 170.959213 295.000000
17.922731 171.439911 295.000000
17.922731 171.920624 295.000000
17.922731 172.401321 295.000000
17.922731 172.882019 295.000000
17.922731 173.362717 295.000000
17.922731 173.843414 295.000000
17.861977 173.733185 294.000000
17.861977 174.212265 294.000000
17.861977 174.691330 294.000000
17.861977 175.170395 294.000000
17.861977 175.649475 294.000000
17.861977 176.128540 294.000000
17.840420 176.394455 293.645172
17.840420 176.872940 293.645172
17.840420 177.351425 293.645172
17.818457 177.611023 293.283691
17.818457 178.088913 293.283691
17.806164 178.443634 293.081360
17.740467 178.261047 292.000000
17.740467 178.736862 292.000000
17.740467 179.212677 292.000000
17.740467 179.688492 292.000000
17.740467 180.164291 292.000000
17.740467 180.640106 292.000000
17.740467 181.115921 292.000000
17.740467 181.591721 292.000000
17.740467 182.067535 292.000000
17.679710 181.918198 291.000000
17.679710 182.392380 291.000000
17.679710 182.866562 291.000000
17.679710 183.340744 291.000000
17.679710 183.814926 291.000000
17.679710 184.289093 291.000000
17.679710 184.763275 291.000000
17.618956 184.600906 290.000000
17.618956 185.073456 290.000000
17.618956 185.546005 290.000000
17.618956 186.018555 290.000000
17.618956 186.491104 290.000000
17.618956 186.963669 290.000000
17.618956 187.436218 290.000000
17.618956 187.908768 290.000000
17.618956 188.381317 290.000000
17.618956 188.853867 290.000000
17.618956 189.326416 290.000000
19.496210 89.448097 312.520569
19.496210 89.957344 312.520569
19.496210 90.466591 312.520569
19.650887 91.697609 315.000000
19.650887 92.210899 315.000000
19.650887 92.724190 315.000000
19.588503 92.941483 314.000000
19.588503 93.453140 314.000000
19.588503 93.964806 314.000000
19.526119 94.175583 313.000000
19.526119 94.685616 313.000000
19.526119 95.195641 313.000000
19.526119 95.705673 313.000000
19.526119 96.215706 313.000000
19.526119 96.725731 313.000000
19.463736 96.925102 312.000000
19.463736 97.433502 312.000000
19.463736 97.941902 312.000000
19.463736 98.450302 312.000000
19.401350 98.641525 311.000000
19.401350 99.148300 311.000000
19.401350 99.655067 311.000000
19.338966 99.839775 310.000000
19.338966 100.344910 310.000000
19.338966 100.850052 310.000000
19.276583 101.028252 309.000000
19.276583 101.531761 309.000000
19.276583 102.035271 309.000000
19.276583 102.538780 309.000000
19.214199 102.708824 308.000000
19.214199 103.210701 308.000000
19.214199 103.712585 308.000000
19.214199 104.214470 308.000000
19.214199 104.716354 308.000000
19.214199 105.218231 308.000000
19.214199 105.720116 308.000000
19.214199 106.222000 308.000000
19.214199 106.723877 308.000000
19.214199 107.225754 308.000000
19.214199 107.727638 308.000000
19.214199 108.229523 308.000000
19.214199 108.731400 308.000000
19.214199 109.233284 308.000000
19.214199 109.735168 308.000000
19.214199 110.237045 308.000000
19.214199 110.738930 308.000000
19.214199 111.240814 308.000000
19.214199 111.742691 308.000000
19.214199 112.244576 308.000000
19.151815 112.380409 307.000000
19.151815 112.880661 307.000000
19.151815 113.380913 307.000000
19.151815 113.881165 307.000000
19.151815 114.381416 307.000000
19.151815 114.881676 307.000000
19.151815 115.381927 307.000000
19.151815 115.882179 307.000000
19.151815 116.382431 307.000000
19.151815 116.882683 307.000000
19.151815 117.382935 307.000000
19.151815 117.883186 307.000000
19.151815 118.383438 307.000000
19.214199 119.270927 308.000000
19.214199 119.772804 308.000000
19.214199 120.274689 308.000000
19.214199 120.776573 308.000000
19.214199 121.278450 308.000000
19.214199 121.780334 308.000000
19.214199 122.282219 308.000000
19.214199 122.784103 308.000000
19.214199 123.285980 308.000000
19.214199 123.787865 308.000000
19.214199 124.289749 308.000000
19.214199 124.791626 308.000000
19.214199 125.293510 308.000000
19.214199 125.795395 308.000000
19.214199 126.297272 308.000000
19.214199 126.799156 308.000000
19.214199 127.301041 308.000000
19.214199 127.802917 308.000000
19.214199 128.304810 308.000000
19.214199 128.806686 308.000000
19.214199 129.308563 308.000000
19.214199 129.810455 308.000000
19.214199 130.312332 308.000000
19.214199 130.814209 308.000000
19.214199 131.316101 308.000000
19.214199 131.817978 308.000000
19.214199 132.319855 308.000000
19.214199 132.821747 308.000000
19.214199 133.323624 308.000000
19.214199 133.825500 308.000000
19.214199 134.327393 308.000000
19.214199 134.829269 308.000000
19.214199 135.331146 308.000000
19.214199 135.833038 308.000000
19.214199 136.334915 308.000000
19.214199 136.836792 308.000000
19.214199 137.338684 308.000000
19.214199 137.840561 308.000000
19.214199 138.342438 308.000000
19.214199 138.844330 308.000000
19.214199 139.346207 308.000000
19.151815 139.394043 307.000000
19.151815 139.894302 307.000000
19.151815 140.394562 307.000000
19.089432 140.435867 306.000000
19.089432 140.934494 306.000000
19.089432 141.433105 306.000000
19.089432 141.931732 306.000000
19.089432 142.430359 306.000000
19.089432 142.928986 306.000000
19.027048 142.958878 305.000000
19.027048 143.455872 305.000000
19.027048 143.952866 305.000000
19.027048 144.449860 305.000000
19.027048 144.946854 305.000000
19.027048 145.443848 305.000000
19.027048 145.940842 305.000000
19.027048 146.437836 305.000000
19.027048 146.934830 305.000000
18.964664 146.948441 304.000000
18.964664 147.443802 304.000000
18.964664 147.939178 304.000000
18.964664 148.434540 304.000000
18.902281 148.440002 303.000000
18.902281 148.933731 303.000000
18.902281 149.427460 303.000000
18.902281 149.921204 303.000000
18.902281 150.414932 303.000000
18.902281 150.908676 303.000000
18.902281 151.402405 303.000000
18.902281 151.896133 303.000000
18.839897 151.886932 302.000000
18.839897 152.379044 302.000000
18.839897 152.871140 302.000000
18.839897 153.363251 302.000000
18.839897 153.855362 302.000000
18.839897 154.347458 302.000000
18.839897 154.839569 302.000000
18.777514 154.817322 301.000000
18.777514 155.307800 301.000000
18.777514 155.798279 301.000000
18.715130 155.769531 300.000000
18.715130 156.258377 300.000000
18.715130 156.747223 300.000000
18.715130 157.236069 300.000000
18.715130 157.724915 300.000000
18.715130 158.213760 300.000000
18.715130 158.702606 300.000000
18.715130 159.191452 300.000000
18.715130 159.680298 300.000000
18.715130 160.169144 300.000000
