0.149933 102.205406 305.000000
0.149933 102.702400 305.000000
0.149933 103.199394 305.000000
0.149933 103.696388 305.000000
0.149933 104.193382 305.000000
0.149933 104.690376 305.000000
0.149933 105.187370 305.000000
0.149933 105.684364 305.000000
0.149933 106.181358 305.000000
0.149933 106.678352 305.000000
0.149933 107.175339 305.000000
0.149933 107.672333 305.000000
0.149933 108.169327 305.000000
0.149933 108.666321 305.000000
0.149933 109.163315 305.000000
0.149933 109.660309 305.000000
0.149933 110.157303 305.000000
0.149933 110.654297 305.000000
0.149933 111.151291 305.000000
0.150425 112.014351 306.000000
0.150425 112.512970 306.000000
0.150425 113.011597 306.000000
0.150425 113.510216 306.000000
0.150425 114.008842 306.000000
0.150425 114.507462 306.000000
0.150425 115.006088 306.000000
0.150425 115.504707 306.000000
0.150425 116.003334 306.000000
0.150425 116.501953 306.000000
0.150917 117.382935 307.000000
0.150917 117.883186 307.000000
0.150917 118.383438 307.000000
0.151408 119.270927 308.000000
0.151408 119.772804 308.000000
0.151408 120.274689 308.000000
0.151408 120.776573 308.000000
0.151408 121.278450 308.000000
0.151408 121.780334 308.000000
0.151408 122.282219 308.000000
0.151900 123.182755 309.000000
0.151900 123.686264 309.000000
0.151900 124.189774 309.000000
0.151900 124.693283 309.000000
0.151900 125.196800 309.000000
0.151900 125.700310 309.000000
0.152391 126.612251 310.000000
0.152391 127.117393 310.000000
0.152391 127.622528 310.000000
0.152391 128.127670 310.000000
0.152391 128.632813 310.000000
0.152391 129.137955 310.000000
0.152883 130.061295 311.000000
0.152883 130.568069 311.000000
0.152883 131.074844 311.000000
0.152883 131.581619 311.000000
0.152883 132.088379 311.000000
0.152883 132.595154 311.000000
0.153374 133.529907 312.000000
0.153374 134.038315 312.000000
0.153374 134.546707 312.000000
0.153374 135.055115 312.000000
0.153374 135.563507 312.000000
0.153374 136.071915 312.000000
0.153374 136.580307 312.000000
0.153374 137.088715 312.000000
0.153374 137.597107 312.000000
0.153866 138.548157 313.000000
0.153866 139.058182 313.000000
0.153866 139.568222 313.000000
0.153866 140.078247 313.000000
0.153866 140.588272 313.000000
0.153866 141.098297 313.000000
0.154358 142.060760 314.000000
0.154358 142.572418 314.000000
0.154358 143.084076 314.000000
0.153699 142.982925 312.660004
0.153731 143.522705 312.726013
0.153731 144.032288 312.726013
0.153767 144.575424 312.798615
0.153806 145.122162 312.878479
0.153806 145.632004 312.878479
0.153850 146.182861 312.966309
0.153850 146.692825 312.966309
0.153850 147.202805 312.966309
0.152883 146.784729 311.000000
0.152757 147.170120 310.743713
0.152734 147.654053 310.696533
0.152734 148.160339 310.696533
0.152734 148.666611 310.696533
0.152719 149.158310 310.666168
0.152719 149.664536 310.666168
0.152702 150.154617 310.632782
0.152684 150.642990 310.596069
0.152684 151.149094 310.596069
0.151751 150.728241 308.697601
0.151634 151.114166 308.458588
0.151634 151.616791 308.458588
0.151537 152.022400 308.261841
0.151435 152.421951 308.054169
0.151435 152.923920 308.054169
0.151327 153.316696 307.834930
0.151272 153.761963 307.722168
0.151272 154.263397 307.722168
0.670448 30.217691 316.200256
0.670448 30.732937 316.200256
0.670448 31.248182 316.200256
0.669908 31.737869 315.945831
0.669908 32.252697 315.945831
0.669618 32.753323 315.808868
0.669007 33.237595 315.520905
0.669007 33.751732 315.520905
0.667872 34.207703 314.985291
0.669046 34.782024 315.539215
0.669046 35.296192 315.539215
0.669046 35.810360 315.539215
0.669046 36.324524 315.539215
0.669046 36.838692 315.539215
0.669046 37.352859 315.539215
0.669046 37.867027 315.539215
0.669046 38.381195 315.539215
0.669046 38.895359 315.539215
0.668906 39.401276 315.473114
0.668906 39.915333 315.473114
0.668806 40.423332 315.425842
0.668725 40.932346 315.387543
0.668779 41.449623 315.413086
0.668779 41.963585 315.413086
0.668914 42.486153 315.476990
0.668914 43.000217 315.476990
0.668914 43.514282 315.476990
0.668901 44.027481 315.470764
0.668886 44.540569 315.463928
0.668886 45.054615 315.463928
0.668871 45.567570 315.456390
0.668853 46.080395 315.448120
0.668853 46.594414 315.448120
0.668834 47.107071 315.438995
0.668828 47.620705 315.436554
0.668828 48.134705 315.436554
0.668839 48.649464 315.441467
0.668853 49.164516 315.448181
0.668853 49.678535 315.448181
0.668861 50.193111 315.451691
0.668861 50.707138 315.451691
0.668861 51.221161 315.451691
0.668855 51.734772 315.449158
0.668851 52.248436 315.447021
0.668851 52.762455 315.447021
0.667605 53.177223 314.859375
0.666464 53.598537 314.321350
0.666464 54.110718 314.321350
0.663387 54.370735 312.870270
0.662579 54.813675 312.489014
0.662579 55.322872 312.489014
0.661829 55.768867 312.135284
0.661129 56.218006 311.805389
0.660474 56.669880 311.496399
0.660474 57.177456 311.496399
0.659858 57.631237 311.205872
0.659277 58.087132 310.931763
0.659277 58.593792 310.931763
0.658615 59.041145 310.619751
0.656010 59.311741 309.391022
0.656010 59.815891 309.391022
0.655798 60.300579 309.291199
0.655181 60.747322 309.000000
0.655181 61.250832 309.000000
0.655181 61.754345 309.000000
0.655181 62.257854 309.000000
0.655181 62.761368 309.000000
0.655181 63.264877 309.000000
0.655181 63.768391 309.000000
0.655181 64.271904 309.000000
0.655181 64.775414 309.000000
0.655181 65.278923 309.000000
0.655181 65.782440 309.000000
0.655181 66.285950 309.000000
0.653061 66.573311 308.000000
0.653061 67.075195 308.000000
0.653061 67.577072 308.000000
0.653061 68.078957 308.000000
0.653061 68.580841 308.000000
0.653061 69.082718 308.000000
0.650940 69.358681 307.000000
0.650940 69.858932 307.000000
0.650940 70.359184 307.000000
0.648820 70.628624 306.000000
0.648820 71.127251 306.000000
0.648820 71.625870 306.000000
0.648820 72.124496 306.000000
0.648820 72.623123 306.000000
0.648820 73.121742 306.000000
0.648820 73.620369 306.000000
0.648820 74.118988 306.000000
0.648820 74.617615 306.000000
0.648820 75.116234 306.000000
0.648820 75.614861 306.000000
0.648820 76.113480 306.000000
0.646700 76.361740 305.000000
0.646700 76.858727 305.000000
0.646700 77.355721 305.000000
0.646700 77.852715 305.000000
0.646700 78.349709 305.000000
0.646700 78.846703 305.000000
0.646700 79.343697 305.000000
0.646700 79.840691 305.000000
0.646700 80.337685 305.000000
0.646700 80.834679 305.000000
0.646700 81.331673 305.000000
0.646700 81.828667 305.000000
0.646700 82.325661 305.000000
0.646700 82.822655 305.000000
0.646700 83.319649 305.000000
0.646700 83.816643 305.000000
0.646700 84.313637 305.000000
0.646700 84.810631 305.000000
0.646700 85.307625 305.000000
0.646700 85.804619 305.000000
0.646700 86.301613 305.000000
0.646700 86.798607 305.000000
0.646700 87.295593 305.000000
0.646700 87.792587 305.000000
0.646700 88.289581 305.000000
0.646700 88.786575 305.000000
0.646700 89.283569 305.000000
0.646700 89.780563 305.000000
0.646700 90.277557 305.000000
0.646700 90.774551 305.000000
0.646700 91.271545 305.000000
0.646700 91.768539 305.000000
0.646700 92.265533 305.000000
0.646700 92.762527 305.000000
0.646700 93.259521 305.000000
0.646700 93.756516 305.000000
0.646700 94.253510 305.000000
0.644579 94.439842 304.000000
0.646700 95.247498 305.000000
0.646700 95.744492 305.000000
0.646700 96.241486 305.000000
0.646700 96.738480 305.000000
0.646700 97.235466 305.000000
0.646700 97.732460 305.000000
0.646700 98.229454 305.000000
0.646700 98.726448 305.000000
0.646700 99.223442 305.000000
0.646700 99.720436 305.000000
0.646700 100.217430 305.000000
0.646700 100.714424 305.000000
0.646700 101.211418 305.000000
0.646700 101.708412 305.000000
0.646700 102.205406 305.000000
0.646700 102.702400 305.000000
0.646700 103.199394 305.000000
0.646700 103.696388 305.000000
0.646700 104.193382 305.000000
0.646700 104.690376 305.000000
0.646700 105.187370 305.000000
0.646700 105.684364 305.000000
0.646700 106.181358 305.000000
0.646700 106.678352 305.000000
0.646700 107.175339 305.000000
0.646700 107.672333 305.000000
0.646700 108.169327 305.000000
0.646700 108.666321 305.000000
0.646700 109.163315 305.000000
0.646700 109.660309 305.000000
0.646700 110.157303 305.000000
0.646700 110.654297 305.000000
0.646700 111.151291 305.000000
0.646700 111.648285 305.000000
0.646700 112.145279 305.000000
0.646700 112.642273 305.000000
0.646700 113.139267 305.000000
0.646700 113.636261 305.000000
0.646700 114.133255 305.000000
0.646700 114.630249 305.000000
0.646700 115.127243 305.000000
0.648820 116.003334 306.000000
0.648820 116.501953 306.000000
0.648820 117.000580 306.000000
0.650940 117.883186 307.000000
0.650940 118.383438 307.000000
0.650940 118.883690 307.000000
0.653061 119.772804 308.000000
0.653061 120.274689 308.000000
0.653061 120.776573 308.000000
0.653061 121.278450 308.000000
0.653061 121.780334 308.000000
0.653061 122.282219 308.000000
0.653061 122.784103 308.000000
0.653061 123.285980 308.000000
0.653061 123.787865 308.000000
0.653061 124.289749 308.000000
0.653061 124.791626 308.000000
0.655181 125.700310 309.000000
0.655181 126.203819 309.000000
0.655181 126.707336 309.000000
0.655181 127.210846 309.000000
0.655181 127.714355 309.000000
0.655181 128.217865 309.000000
0.657301 129.137955 310.000000
0.657301 129.643097 310.000000
0.657301 130.148239 310.000000
0.659422 131.074844 311.000000
0.659422 131.581619 311.000000
0.659422 132.088379 311.000000
0.659422 132.595154 311.000000
0.659422 133.101929 311.000000
0.659422 133.608688 311.000000
0.659422 134.115463 311.000000
0.659422 134.622238 311.000000
0.659422 135.129013 311.000000
0.659422 135.635773 311.000000
0.659422 136.142548 311.000000
0.659422 136.649323 311.000000
0.659422 137.156082 311.000000
0.659422 137.662857 311.000000
0.659422 138.169632 311.000000
0.659422 138.676407 311.000000
0.659422 139.183167 311.000000
0.659422 139.689941 311.000000
0.659422 140.196716 311.000000
0.659422 140.703476 311.000000
0.659422 141.210251 311.000000
0.659422 141.717026 311.000000
0.659422 142.223801 311.000000
0.659422 142.730560 311.000000
0.659422 143.237335 311.000000
0.659422 143.744110 311.000000
0.659422 144.250885 311.000000
0.659422 144.757645 311.000000
0.659422 145.264420 311.000000
0.659422 145.771194 311.000000
0.659422 146.277954 311.000000
0.659422 146.784729 311.000000
0.659422 147.291504 311.000000
0.659422 147.798279 311.000000
0.659422 148.305038 311.000000
0.659422 148.811813 311.000000
0.659422 149.318588 311.000000
0.659422 149.825348 311.000000
0.659422 150.332123 311.000000
0.659422 150.838898 311.000000
0.659422 151.345673 311.000000
0.659422 151.852432 311.000000
0.654275 151.170197 308.572937
0.654275 151.673004 308.572937
0.653891 152.086441 308.391724
0.653487 152.494568 308.200928
0.653487 152.996780 308.200928
0.653061 153.398941 308.000031
0.652602 153.792648 307.783569
0.652602 154.294189 307.783569
0.652306 154.725555 307.644073
0.651946 155.141327 307.474579
0.651946 155.642349 307.474579
0.651515 156.040085 307.271179
0.650988 156.414154 307.022614
0.650988 156.914444 307.022614
0.650426 157.278778 306.757446
1.178988 34.664696 314.474823
1.178988 35.177128 314.474823
1.179299 35.699001 314.558014
1.179299 36.211571 314.558014
1.179299 36.724140 314.558014
1.176953 37.162636 313.932281
1.175931 37.641438 313.659424
1.175931 38.152542 313.659424
1.177179 38.704712 313.992554
1.177179 39.216358 313.992554
1.177179 39.728004 313.992554
1.177179 40.239651 313.992554
1.177179 40.751297 313.992554
1.177179 41.262943 313.992554
1.177179 41.774590 313.992554
1.177179 42.286236 313.992554
1.177179 42.797886 313.992554
1.177179 43.309532 313.992554
1.176999 43.814453 313.944336
1.176769 44.317352 313.882965
1.176769 44.828819 313.882965
1.176832 45.342735 313.899902
1.177043 45.862434 313.956055
1.177043 46.374023 313.956055
1.177043 46.885609 313.956055
1.177029 47.396645 313.952393
1.177029 47.908226 313.952393
1.177014 48.419193 313.948395
1.176997 48.930077 313.943970
1.176997 49.441643 313.943970
1.176979 49.952442 313.939117
1.176959 50.463142 313.933777
1.176959 50.974693 313.933777
1.176937 51.485275 313.927887
1.176947 51.997265 313.930573
1.176947 52.508812 313.930573
1.176947 53.020355 313.930573
1.172972 53.351097 312.870270
1.172972 53.860916 312.870270
1.172972 54.370735 312.870270
1.171543 54.813675 312.489014
1.171543 55.322872 312.489014
1.170216 55.768867 312.135284
1.168980 56.218006 311.805389
1.167821 56.669880 311.496399
1.167821 57.177456 311.496399
1.166732 57.631237 311.205872
1.165704 58.087132 310.931763
1.165704 58.593792 310.931763
1.164535 59.041145 310.619751
1.159928 59.311741 309.391022
1.159928 59.815891 309.391022
1.159554 60.300579 309.291199
1.158462 60.747322 309.000000
1.158462 61.250832 309.000000
1.158462 61.754345 309.000000
1.158462 62.257854 309.000000
1.158462 62.761368 309.000000
1.158462 63.264877 309.000000
1.158462 63.768391 309.000000
1.158462 64.271904 309.000000
1.158462 64.775414 309.000000
1.158462 65.278923 309.000000
1.158462 65.782440 309.000000
1.158462 66.285950 309.000000
1.154713 66.573311 308.000000
1.154713 67.075195 308.000000
1.154713 67.577072 308.000000
1.154713 68.078957 308.000000
1.154713 68.580841 308.000000
1.154713 69.082718 308.000000
1.154713 69.584602 308.000000
1.154713 70.086487 308.000000
1.154713 70.588371 308.000000
1.154713 71.090248 308.000000
1.150964 71.359688 307.000000
1.150964 71.859940 307.000000
1.150964 72.360191 307.000000
1.150964 72.860443 307.000000
1.150964 73.360695 307.000000
1.150964 73.860954 307.000000
1.150964 74.361206 307.000000
1.150964 74.861458 307.000000
1.150964 75.361710 307.000000
1.147215 75.614861 306.000000
1.147215 76.113480 306.000000
1.147215 76.612106 306.000000
1.147215 77.110725 306.000000
1.147215 77.609352 306.000000
1.147215 78.107971 306.000000
1.147215 78.606598 306.000000
1.147215 79.105217 306.000000
1.143466 79.343697 305.000000
1.143466 79.840691 305.000000
1.143466 80.337685 305.000000
1.147215 81.099716 306.000000
1.147215 81.598335 306.000000
1.147215 82.096962 306.000000
1.143466 82.325661 305.000000
1.143466 82.822655 305.000000
1.143466 83.319649 305.000000
1.143466 83.816643 305.000000
1.143466 84.313637 305.000000
1.143466 84.810631 305.000000
1.143466 85.307625 305.000000
1.143466 85.804619 305.000000
1.143466 86.301613 305.000000
1.143466 86.798607 305.000000
1.143466 87.295593 305.000000
1.143466 87.792587 305.000000
1.143466 88.289581 305.000000
1.143466 88.786575 305.000000
1.143466 89.283569 305.000000
1.143466 89.780563 305.000000
1.143466 90.277557 305.000000
1.143466 90.774551 305.000000
1.143466 91.271545 305.000000
1.143466 91.768539 305.000000
1.143466 92.265533 305.000000
1.143466 92.762527 305.000000
1.143466 93.259521 305.000000
1.143466 93.756516 305.000000
1.143466 94.253510 305.000000
1.139717 94.439842 304.000000
1.139717 94.935204 304.000000
1.139717 95.430573 304.000000
1.139717 95.925934 304.000000
1.139717 96.421295 304.000000
1.139717 96.916664 304.000000
1.139717 97.412025 304.000000
1.143466 98.229454 305.000000
1.143466 98.726448 305.000000
1.143466 99.223442 305.000000
1.143466 99.720436 305.000000
1.143466 100.217430 305.000000
1.143466 100.714424 305.000000
1.143466 101.211418 305.000000
1.143466 101.708412 305.000000
1.143466 102.205406 305.000000
1.143466 102.702400 305.000000
1.143466 103.199394 305.000000
1.143466 103.696388 305.000000
1.143466 104.193382 305.000000
1.143466 104.690376 305.000000
1.143466 105.187370 305.000000
1.143466 105.684364 305.000000
1.143466 106.181358 305.000000
1.143466 106.678352 305.000000
1.143466 107.175339 305.000000
1.143466 107.672333 305.000000
1.143466 108.169327 305.000000
1.143466 108.666321 305.000000
1.143466 109.163315 305.000000
1.143466 109.660309 305.000000
1.143466 110.157303 305.000000
1.143466 110.654297 305.000000
1.143466 111.151291 305.000000
1.143466 111.648285 305.000000
1.143466 112.145279 305.000000
1.143466 112.642273 305.000000
1.143466 113.139267 305.000000
1.143466 113.636261 305.000000
1.143466 114.133255 305.000000
1.143466 114.630249 305.000000
1.143466 115.127243 305.000000
1.143466 115.624237 305.000000
1.143466 116.121231 305.000000
1.147215 117.000580 306.000000
1.147215 117.499199 306.000000
1.147215 117.997826 306.000000
1.150964 118.883690 307.000000
1.150964 119.383949 307.000000
1.150964 119.884201 307.000000
1.154713 120.776573 308.000000
1.154713 121.278450 308.000000
1.154713 121.780334 308.000000
1.154713 122.282219 308.000000
1.154713 122.784103 308.000000
1.154713 123.285980 308.000000
1.154713 123.787865 308.000000
1.154713 124.289749 308.000000
1.154713 124.791626 308.000000
1.154713 125.293510 308.000000
1.154713 125.795395 308.000000
1.154713 126.297272 308.000000
1.154713 126.799156 308.000000
1.154713 127.301041 308.000000
1.154713 127.802917 308.000000
1.158462 128.721375 309.000000
1.158462 129.224884 309.000000
1.158462 129.728409 309.000000
1.165960 131.074844 311.000000
1.165960 131.581619 311.000000
1.165960 132.088379 311.000000
1.165960 132.595154 311.000000
1.165960 133.101929 311.000000
1.165960 133.608688 311.000000
1.165960 134.115463 311.000000
1.165960 134.622238 311.000000
1.165960 135.129013 311.000000
1.165960 135.635773 311.000000
1.165960 136.142548 311.000000
1.165960 136.649323 311.000000
1.165960 137.156082 311.000000
1.165960 137.662857 311.000000
1.165960 138.169632 311.000000
1.165960 138.676407 311.000000
1.165960 139.183167 311.000000
1.165960 139.689941 311.000000
1.165960 140.196716 311.000000
1.165960 140.703476 311.000000
1.165960 141.210251 311.000000
1.165960 141.717026 311.000000
1.165960 142.223801 311.000000
1.165960 142.730560 311.000000
1.165960 143.237335 311.000000
1.165960 143.744110 311.000000
1.165960 144.250885 311.000000
1.165960 144.757645 311.000000
1.165960 145.264420 311.000000
1.165960 145.771194 311.000000
1.165960 146.277954 311.000000
1.165960 146.784729 311.000000
1.165960 147.291504 311.000000
1.165960 147.798279 311.000000
1.165960 148.305038 311.000000
1.165960 148.811813 311.000000
1.165960 149.318588 311.000000
1.165960 149.825348 311.000000
1.165960 150.332123 311.000000
1.165960 150.838898 311.000000
1.165960 151.345673 311.000000
1.165960 151.852432 311.000000
1.156861 151.170197 308.572937
1.156861 151.673004 308.572937
1.156182 152.086441 308.391724
1.155466 152.494568 308.200928
1.155466 152.996780 308.200928
1.154713 153.398941 308.000031
1.153902 153.792648 307.783569
1.153902 154.294189 307.783569
1.156646 155.163925 308.515686
1.156646 155.666641 308.515686
1.156646 156.169373 308.515686
1.156090 156.596725 308.367279
1.155478 157.016006 308.203979
1.155478 157.518234 308.203979
1.154804 157.928360 308.024384
1.148449 157.558411 306.329285
1.148449 158.057571 306.329285
1.148114 158.510437 306.239838
1.147674 158.948517 306.122498
1.147674 159.447342 306.122498
1.147205 159.880768 305.997314
1.146704 160.309418 305.863831
1.146379 160.762146 305.776947
1.146379 161.260391 305.776947
1.145825 161.680603 305.629395
1.145104 162.076523 305.436981
1.145104 162.574219 305.436981
1.144704 163.014984 305.330322
1.143935 163.402603 305.125061
1.143935 163.899796 305.125061
1.143158 164.285416 304.917969
1.683380 38.585243 313.023376
1.683380 39.095310 313.023376
1.683380 39.605377 313.023376
1.682470 40.093758 312.854126
1.681130 40.571209 312.604950
1.679699 41.045639 312.338959
1.679699 41.554592 312.338959
1.679183 42.050617 312.242981
1.678029 42.530163 312.028381
1.678029 43.038612 312.028381
1.676512 43.507694 311.746338
1.674719 43.968594 311.412842
1.674719 44.476040 311.412842
1.673953 44.962910 311.270416
1.673530 45.458618 311.191681
1.673530 45.965698 311.191681
1.672877 46.454659 311.070313
1.671155 46.913216 310.750183
1.671155 47.419579 310.750183
1.670462 47.906048 310.621185
1.669809 48.393288 310.499847
1.669809 48.899246 310.499847
1.669255 49.388809 310.396851
1.668028 49.857922 310.168671
1.668028 50.363335 310.168671
1.667795 50.861633 310.125275
1.667358 51.353527 310.044037
1.667358 51.858738 310.044037
1.666564 52.339020 309.896423
1.664989 52.794044 309.603516
1.664989 53.298538 309.603516
1.667439 53.882202 310.059052
1.667439 54.387436 310.059052
1.667439 54.892673 310.059052
1.666654 55.371853 309.913208
1.665984 55.854370 309.788513
1.665407 56.339672 309.681366
1.665407 56.844296 309.681366
1.664907 57.331673 309.588257
1.664514 57.822498 309.515198
1.664514 58.326843 309.515198
1.664158 58.818619 309.449005
1.663846 59.311741 309.391022
1.663846 59.815891 309.391022
1.663309 60.300579 309.291199
1.661743 60.747322 309.000000
1.661743 61.250832 309.000000
1.661743 61.754345 309.000000
1.661743 62.257854 309.000000
1.661743 62.761368 309.000000
1.661743 63.264877 309.000000
1.661743 63.768391 309.000000
1.661743 64.271904 309.000000
1.661743 64.775414 309.000000
1.661743 65.278923 309.000000
1.661743 65.782440 309.000000
1.661743 66.285950 309.000000
1.661743 66.789459 309.000000
1.661743 67.292969 309.000000
1.661743 67.796486 309.000000
1.656365 68.078957 308.000000
1.656365 68.580841 308.000000
1.656365 69.082718 308.000000
1.656365 69.584602 308.000000
1.656365 70.086487 308.000000
1.656365 70.588371 308.000000
1.656365 71.090248 308.000000
1.650988 71.359688 307.000000
1.650988 71.859940 307.000000
1.650988 72.360191 307.000000
1.650988 72.860443 307.000000
1.650988 73.360695 307.000000
1.650988 73.860954 307.000000
1.650988 74.361206 307.000000
1.650988 74.861458 307.000000
1.650988 75.361710 307.000000
1.645610 75.614861 306.000000
1.645610 76.113480 306.000000
1.645610 76.612106 306.000000
1.645610 77.110725 306.000000
1.645610 77.609352 306.000000
1.645610 78.107971 306.000000
1.645610 78.606598 306.000000
1.645610 79.105217 306.000000
1.640232 79.343697 305.000000
1.640232 79.840691 305.000000
1.640232 80.337685 305.000000
1.645610 81.099716 306.000000
1.645610 81.598335 306.000000
1.645610 82.096962 306.000000
1.640232 82.325661 305.000000
1.640232 82.822655 305.000000
1.640232 83.319649 305.000000
1.640232 83.816643 305.000000
1.640232 84.313637 305.000000
1.640232 84.810631 305.000000
1.640232 85.307625 305.000000
1.640232 85.804619 305.000000
1.640232 86.301613 305.000000
1.640232 86.798607 305.000000
1.640232 87.295593 305.000000
1.640232 87.792587 305.000000
1.640232 88.289581 305.000000
1.640232 88.786575 305.000000
1.640232 89.283569 305.000000
1.640232 89.780563 305.000000
1.640232 90.277557 305.000000
1.640232 90.774551 305.000000
1.640232 91.271545 305.000000
1.640232 91.768539 305.000000
1.640232 92.265533 305.000000
1.640232 92.762527 305.000000
1.640232 93.259521 305.000000
1.640232 93.756516 305.000000
1.640232 94.253510 305.000000
1.634854 94.439842 304.000000
1.634854 94.935204 304.000000
1.634854 95.430573 304.000000
1.634854 95.925934 304.000000
1.634854 96.421295 304.000000
1.634854 96.916664 304.000000
1.634854 97.412025 304.000000
1.640232 98.229454 305.000000
1.640232 98.726448 305.000000
1.640232 99.223442 305.000000
1.640232 99.720436 305.000000
1.640232 100.217430 305.000000
1.640232 100.714424 305.000000
1.640232 101.211418 305.000000
1.640232 101.708412 305.000000
1.640232 102.205406 305.000000
1.640232 102.702400 305.000000
1.640232 103.199394 305.000000
1.640232 103.696388 305.000000
1.640232 104.193382 305.000000
1.640232 104.690376 305.000000
1.640232 105.187370 305.000000
1.640232 105.684364 305.000000
1.640232 106.181358 305.000000
1.640232 106.678352 305.000000
1.640232 107.175339 305.000000
1.640232 107.672333 305.000000
1.640232 108.169327 305.000000
1.640232 108.666321 305.000000
1.640232 109.163315 305.000000
1.640232 109.660309 305.000000
1.640232 110.157303 305.000000
1.640232 110.654297 305.000000
1.640232 111.151291 305.000000
1.640232 111.648285 305.000000
1.640232 112.145279 305.000000
1.640232 112.642273 305.000000
1.640232 113.139267 305.000000
1.640232 113.636261 305.000000
1.640232 114.133255 305.000000
1.640232 114.630249 305.000000
1.640232 115.127243 305.000000
1.640232 115.624237 305.000000
1.640232 116.121231 305.000000
1.645610 117.000580 306.000000
1.645610 117.499199 306.000000
1.645610 117.997826 306.000000
1.650988 118.883690 307.000000
1.650988 119.383949 307.000000
1.650988 119.884201 307.000000
1.656365 120.776573 308.000000
1.656365 121.278450 308.000000
1.656365 121.780334 308.000000
1.656365 122.282219 308.000000
1.656365 122.784103 308.000000
1.656365 123.285980 308.000000
1.656365 123.787865 308.000000
1.656365 124.289749 308.000000
1.656365 124.791626 308.000000
1.656365 125.293510 308.000000
1.656365 125.795395 308.000000
1.656365 126.297272 308.000000
1.656365 126.799156 308.000000
1.656365 127.301041 308.000000
1.656365 127.802917 308.000000
1.661743 128.721375 309.000000
1.661743 129.224884 309.000000
1.661743 129.728409 309.000000
1.667121 130.653381 310.000000
1.667121 131.158524 310.000000
1.667121 131.663666 310.000000
1.667121 132.168808 310.000000
1.667121 132.673950 310.000000
1.667121 133.179077 310.000000
1.667121 133.684219 310.000000
1.667121 134.189362 310.000000
1.667121 134.694504 310.000000
1.667121 135.199646 310.000000
1.667121 135.704788 310.000000
1.667121 136.209930 310.000000
1.667121 136.715073 310.000000
1.667121 137.220215 310.000000
1.667121 137.725357 310.000000
1.667121 138.230499 310.000000
1.672499 139.183167 311.000000
1.672499 139.689941 311.000000
1.672499 140.196716 311.000000
1.672499 140.703476 311.000000
1.672499 141.210251 311.000000
1.672499 141.717026 311.000000
1.672499 142.223801 311.000000
1.672499 142.730560 311.000000
1.672499 143.237335 311.000000
1.672499 143.744110 311.000000
1.672499 144.250885 311.000000
1.672499 144.757645 311.000000
1.672499 145.264420 311.000000
1.672499 145.771194 311.000000
1.672499 146.277954 311.000000
1.672499 146.784729 311.000000
1.672499 147.291504 311.000000
1.672499 147.798279 311.000000
1.672499 148.305038 311.000000
1.672499 148.811813 311.000000
1.672499 149.318588 311.000000
1.672499 149.825348 311.000000
1.672499 150.332123 311.000000
1.672499 150.838898 311.000000
1.672499 151.345673 311.000000
1.672499 151.852432 311.000000
1.659446 151.170197 308.572937
1.659446 151.673004 308.572937
1.658472 152.086441 308.391724
1.657446 152.494568 308.200928
1.657446 152.996780 308.200928
1.656366 153.398941 308.000031
1.655201 153.792648 307.783569
1.655201 154.294189 307.783569
1.659139 155.163925 308.515686
1.659139 155.666641 308.515686
1.659139 156.169373 308.515686
1.658341 156.596725 308.367279
1.657462 157.016006 308.203979
1.657462 157.518234 308.203979
1.656497 157.928360 308.024384
1.647381 157.558411 306.329285
1.647381 158.057571 306.329285
1.646899 158.510437 306.239838
1.646268 158.948517 306.122498
1.646268 159.447342 306.122498
1.645595 159.880768 305.997314
1.645066 160.327744 305.898804
1.644410 160.762146 305.776947
1.644410 161.260391 305.776947
1.643617 161.680603 305.629395
1.642582 162.076523 305.436981
1.642582 162.574219 305.436981
1.642008 163.014984 305.330322
1.640904 163.402603 305.125061
1.640904 163.899796 305.125061
1.642416 164.548401 305.406097
1.642416 165.046066 305.406097
1.642416 165.543716 305.406097
1.641430 165.941696 305.222748
1.640398 166.334396 305.030823
1.640398 166.831436 305.030823
1.640111 167.299255 304.977539
1.639843 167.768738 304.927612
1.639843 168.265610 304.927612
1.638766 168.651688 304.727417
1.637791 169.047607 304.546112
1.637791 169.543854 304.546112
1.636710 169.927872 304.345093
1.635035 170.249435 304.033722
1.635035 170.744858 304.033722
1.632076 170.930313 303.483368
1.632076 171.424835 303.483368
1.632076 171.919357 303.483368
2.164263 53.679279 308.891357
2.164263 54.182613 308.891357
2.164263 54.685947 308.891357
2.163778 55.176899 308.822052
2.163778 55.680119 308.822052
2.163325 56.171574 308.757385
2.163325 56.674690 308.757385
2.163325 57.177807 308.757385
2.164019 57.699440 308.856506
2.164019 58.202717 308.856506
2.164110 58.708481 308.869568
2.164181 59.213707 308.879608
2.164181 59.717018 308.879608
2.164181 60.220333 308.879608
2.163741 60.711311 308.816864
2.163741 61.214531 308.816864
2.163741 61.717743 308.816864
2.163484 62.213573 308.780212
2.163484 62.716721 308.780212
2.165024 63.264877 309.000000
2.165024 63.768391 309.000000
2.165024 64.271904 309.000000
2.165024 64.775414 309.000000
2.165024 65.278923 309.000000
2.165024 65.782440 309.000000
2.165024 66.285950 309.000000
2.165024 66.789459 309.000000
2.165024 67.292969 309.000000
2.165024 67.796486 309.000000
2.165024 68.299995 309.000000
2.165024 68.803505 309.000000
2.165024 69.307014 309.000000
2.158018 69.584602 308.000000
2.158018 70.086487 308.000000
2.158018 70.588371 308.000000
2.158018 71.090248 308.000000
2.158018 71.592133 308.000000
2.158018 72.094017 308.000000
2.158018 72.595894 308.000000
2.158018 73.097778 308.000000
2.158018 73.599663 308.000000
2.151011 73.860954 307.000000
2.151011 74.361206 307.000000
2.151011 74.861458 307.000000
2.151011 75.361710 307.000000
2.151011 75.861961 307.000000
2.151011 76.362213 307.000000
2.151011 76.862465 307.000000
2.144005 77.110725 306.000000
2.144005 77.609352 306.000000
2.144005 78.107971 306.000000
2.144005 78.606598 306.000000
2.144005 79.105217 306.000000
2.144005 79.603844 306.000000
2.144005 80.102470 306.000000
2.144005 80.601089 306.000000
2.144005 81.099716 306.000000
2.144005 81.598335 306.000000
2.144005 82.096962 306.000000
2.144005 82.595581 306.000000
2.144005 83.094208 306.000000
2.144005 83.592827 306.000000
2.136998 83.816643 305.000000
2.136998 84.313637 305.000000
2.136998 84.810631 305.000000
2.136998 85.307625 305.000000
2.136998 85.804619 305.000000
2.136998 86.301613 305.000000
2.136998 86.798607 305.000000
2.136998 87.295593 305.000000
2.136998 87.792587 305.000000
2.136998 88.289581 305.000000
2.136998 88.786575 305.000000
2.136998 89.283569 305.000000
2.136998 89.780563 305.000000
2.136998 90.277557 305.000000
2.136998 90.774551 305.000000
2.136998 91.271545 305.000000
2.136998 91.768539 305.000000
2.136998 92.265533 305.000000
2.136998 92.762527 305.000000
2.136998 93.259521 305.000000
2.136998 93.756516 305.000000
2.136998 94.253510 305.000000
2.129992 94.439842 304.000000
2.129992 94.935204 304.000000
2.129992 95.430573 304.000000
2.129992 95.925934 304.000000
2.129992 96.421295 304.000000
2.129992 96.916664 304.000000
2.129992 97.412025 304.000000
2.129992 97.907394 304.000000
2.129992 98.402756 304.000000
2.129992 98.898117 304.000000
2.129992 99.393486 304.000000
2.129992 99.888847 304.000000
2.129992 100.384209 304.000000
2.129992 100.879578 304.000000
2.129992 101.374939 304.000000
2.129992 101.870308 304.000000
2.129992 102.365669 304.000000
2.129992 102.861031 304.000000
2.129992 103.356400 304.000000
2.129992 103.851761 304.000000
2.129992 104.347122 304.000000
2.129992 104.842491 304.000000
2.129992 105.337852 304.000000
2.129992 105.833221 304.000000
2.129992 106.328583 304.000000
2.129992 106.823944 304.000000
2.129992 107.319313 304.000000
2.129992 107.814674 304.000000
2.129992 108.310036 304.000000
2.136998 109.163315 305.000000
2.136998 109.660309 305.000000
2.136998 110.157303 305.000000
2.136998 110.654297 305.000000
2.136998 111.151291 305.000000
2.136998 111.648285 305.000000
2.136998 112.145279 305.000000
2.136998 112.642273 305.000000
2.136998 113.139267 305.000000
2.136998 113.636261 305.000000
2.136998 114.133255 305.000000
2.136998 114.630249 305.000000
2.136998 115.127243 305.000000
2.136998 115.624237 305.000000
2.136998 116.121231 305.000000
2.136998 116.618225 305.000000
2.144005 117.499199 306.000000
2.144005 117.997826 306.000000
2.144005 118.496445 306.000000
2.144005 118.995071 306.000000
2.144005 119.493690 306.000000
2.151011 120.384453 307.000000
2.151011 120.884705 307.000000
2.151011 121.384956 307.000000
2.151011 121.885208 307.000000
2.151011 122.385460 307.000000
2.151011 122.885712 307.000000
2.151011 123.385963 307.000000
2.151011 123.886223 307.000000
2.151011 124.386475 307.000000
2.158018 125.293510 308.000000
2.158018 125.795395 308.000000
2.158018 126.297272 308.000000
2.158018 126.799156 308.000000
2.158018 127.301041 308.000000
2.158018 127.802917 308.000000
2.158018 128.304810 308.000000
2.158018 128.806686 308.000000
2.158018 129.308563 308.000000
2.165024 130.231918 309.000000
2.165024 130.735428 309.000000
2.165024 131.238937 309.000000
2.165024 131.742447 309.000000
2.165024 132.245956 309.000000
2.165024 132.749466 309.000000
2.165024 133.252991 309.000000
2.165024 133.756500 309.000000
2.165024 134.260010 309.000000
2.165024 134.763519 309.000000
2.165024 135.267029 309.000000
2.165024 135.770538 309.000000
2.165024 136.274048 309.000000
2.165024 136.777557 309.000000
2.165024 137.281082 309.000000
2.165024 137.784592 309.000000
2.172031 138.735641 310.000000
2.172031 139.240784 310.000000
2.172031 139.745911 310.000000
2.172031 140.251053 310.000000
2.179038 141.210251 311.000000
2.179038 141.717026 311.000000
2.179038 142.223801 311.000000
2.179038 142.730560 311.000000
2.179038 143.237335 311.000000
2.179038 143.744110 311.000000
2.179038 144.250885 311.000000
2.179038 144.757645 311.000000
2.179038 145.264420 311.000000
2.172031 145.302475 310.000000
2.172031 145.807617 310.000000
2.172031 146.312759 310.000000
2.172031 146.817886 310.000000
2.172031 147.323029 310.000000
2.172031 147.828171 310.000000
2.172031 148.333313 310.000000
2.172031 148.838455 310.000000
2.172031 149.343597 310.000000
2.172031 149.848740 310.000000
2.172031 150.353882 310.000000
2.172031 150.859024 310.000000
2.165024 150.875885 309.000000
2.158018 150.889496 308.000000
2.158018 151.391373 308.000000
2.158018 151.893265 308.000000
2.158018 152.395142 308.000000
2.158018 152.897034 308.000000
2.158018 153.398911 308.000000
2.160820 154.100677 308.399994
2.160820 154.603195 308.399994
2.161631 155.163925 308.515686
2.161631 155.666641 308.515686
2.161631 156.169373 308.515686
2.160591 156.596725 308.367279
2.159447 157.016006 308.203979
2.159447 157.518234 308.203979
2.158189 157.928360 308.024384
2.156148 158.280502 307.733185
2.156148 158.781952 307.733185
2.155961 159.269592 307.706512
2.155756 159.755753 307.677155
2.155756 160.257095 307.677155
2.143986 159.880768 305.997314
2.154735 161.183472 307.531494
2.154735 161.684601 307.531494
2.154735 162.185715 307.531494
2.154127 162.640884 307.444641
2.153569 163.099670 307.365112
2.153569 163.600510 307.365112
2.153080 164.064041 307.295227
2.152677 164.533966 307.237701
2.152677 165.034607 307.237701
2.152313 165.507248 307.185730
2.139843 165.046066 305.406097
2.139843 165.543716 305.406097
2.138559 165.941696 305.222748
2.137214 166.334396 305.030823
2.137214 166.831436 305.030823
2.136841 167.299255 304.977539
2.136491 167.768738 304.927612
2.136491 168.265610 304.927612
2.135088 168.651688 304.727417
2.133818 169.047607 304.546112
2.133818 169.543854 304.546112
2.132409 169.927872 304.345093
2.130228 170.249435 304.033722
2.130228 170.744858 304.033722
2.126372 170.930313 303.483368
2.126372 171.424835 303.483368
2.126372 171.919357 303.483368
2.667367 53.679279 308.891357
2.667367 54.182613 308.891357
2.667367 54.685947 308.891357
2.666769 55.176899 308.822052
2.666769 55.680119 308.822052
2.666210 56.171574 308.757385
2.666210 56.674690 308.757385
2.666210 57.177807 308.757385
2.667066 57.699440 308.856506
2.667066 58.202717 308.856506
2.667179 58.708481 308.869568
2.667266 59.213707 308.879608
2.667266 59.717018 308.879608
2.667266 60.220333 308.879608
2.666724 60.711311 308.816864
2.666724 61.214531 308.816864
2.666724 61.717743 308.816864
2.666408 62.213573 308.780212
2.666408 62.716721 308.780212
2.669054 63.282623 309.086700
2.669054 63.786282 309.086700
2.669054 64.289932 309.086700
2.668979 64.791771 309.078033
2.668305 65.278923 309.000000
2.668305 65.782440 309.000000
2.668305 66.285950 309.000000
2.668305 66.789459 309.000000
2.668305 67.292969 309.000000
2.668305 67.796486 309.000000
2.668305 68.299995 309.000000
2.668305 68.803505 309.000000
2.668305 69.307014 309.000000
2.668305 69.810532 309.000000
2.668305 70.314041 309.000000
2.668305 70.817551 309.000000
2.668305 71.321060 309.000000
2.659670 71.592133 308.000000
2.659670 72.094017 308.000000
2.659670 72.595894 308.000000
2.659670 73.097778 308.000000
2.659670 73.599663 308.000000
2.659670 74.101540 308.000000
2.659670 74.603424 308.000000
2.659670 75.105309 308.000000
2.651035 75.361710 307.000000
2.651035 75.861961 307.000000
2.651035 76.362213 307.000000
2.651035 76.862465 307.000000
2.651035 77.362717 307.000000
2.651035 77.862968 307.000000
2.651035 78.363228 307.000000
2.651035 78.863480 307.000000
2.651035 79.363731 307.000000
2.651035 79.863983 307.000000
2.642400 80.102470 306.000000
2.642400 80.601089 306.000000
2.642400 81.099716 306.000000
2.642400 81.598335 306.000000
2.642400 82.096962 306.000000
2.642400 82.595581 306.000000
2.642400 83.094208 306.000000
2.642400 83.592827 306.000000
2.642400 84.091454 306.000000
2.633764 84.313637 305.000000
2.633764 84.810631 305.000000
2.633764 85.307625 305.000000
2.633764 85.804619 305.000000
2.633764 86.301613 305.000000
2.633764 86.798607 305.000000
2.633764 87.295593 305.000000
2.633764 87.792587 305.000000
2.633764 88.289581 305.000000
2.633764 88.786575 305.000000
2.633764 89.283569 305.000000
2.633764 89.780563 305.000000
2.633764 90.277557 305.000000
2.633764 90.774551 305.000000
2.633764 91.271545 305.000000
2.633764 91.768539 305.000000
2.633764 92.265533 305.000000
2.633764 92.762527 305.000000
2.633764 93.259521 305.000000
2.633764 93.756516 305.000000
2.633764 94.253510 305.000000
2.633764 94.750504 305.000000
2.625129 94.935204 304.000000
2.625129 95.430573 304.000000
2.625129 95.925934 304.000000
2.625129 96.421295 304.000000
2.625129 96.916664 304.000000
2.625129 97.412025 304.000000
2.625129 97.907394 304.000000
2.625129 98.402756 304.000000
2.625129 98.898117 304.000000
2.625129 99.393486 304.000000
2.625129 99.888847 304.000000
2.625129 100.384209 304.000000
2.625129 100.879578 304.000000
2.625129 101.374939 304.000000
2.625129 101.870308 304.000000
2.625129 102.365669 304.000000
2.625129 102.861031 304.000000
2.625129 103.356400 304.000000
2.625129 103.851761 304.000000
2.625129 104.347122 304.000000
2.625129 104.842491 304.000000
2.625129 105.337852 304.000000
2.625129 105.833221 304.000000
2.625129 106.328583 304.000000
2.625129 106.823944 304.000000
2.625129 107.319313 304.000000
2.625129 107.814674 304.000000
2.625129 108.310036 304.000000
2.625129 108.805405 304.000000
2.625129 109.300766 304.000000
2.625129 109.796127 304.000000
2.633764 110.654297 305.000000
2.633764 111.151291 305.000000
2.633764 111.648285 305.000000
2.633764 112.145279 305.000000
2.633764 112.642273 305.000000
2.633764 113.139267 305.000000
2.633764 113.636261 305.000000
2.633764 114.133255 305.000000
2.633764 114.630249 305.000000
2.633764 115.127243 305.000000
2.633764 115.624237 305.000000
2.633764 116.121231 305.000000
2.633764 116.618225 305.000000
2.633764 117.115219 305.000000
2.633764 117.612206 305.000000
2.633764 118.109200 305.000000
2.642400 118.995071 306.000000
2.642400 119.493690 306.000000
2.642400 119.992317 306.000000
2.651035 120.884705 307.000000
2.651035 121.384956 307.000000
2.651035 121.885208 307.000000
2.651035 122.385460 307.000000
2.651035 122.885712 307.000000
2.651035 123.385963 307.000000
2.651035 123.886223 307.000000
2.651035 124.386475 307.000000
2.651035 124.886726 307.000000
2.651035 125.386978 307.000000
2.651035 125.887230 307.000000
2.651035 126.387482 307.000000
2.651035 126.887733 307.000000
2.651035 127.387985 307.000000
2.659670 128.304810 308.000000
2.659670 128.806686 308.000000
2.659670 129.308563 308.000000
2.659670 129.810455 308.000000
2.659670 130.312332 308.000000
2.659670 130.814209 308.000000
2.659670 131.316101 308.000000
2.659670 131.817978 308.000000
2.659670 132.319855 308.000000
2.659670 132.821747 308.000000
2.659670 133.323624 308.000000
2.659670 133.825500 308.000000
2.659670 134.327393 308.000000
2.659670 134.829269 308.000000
2.659670 135.331146 308.000000
2.659670 135.833038 308.000000
2.659670 136.334915 308.000000
2.668305 137.281082 309.000000
2.668305 137.784592 309.000000
2.668305 138.288101 309.000000
2.668305 138.791611 309.000000
2.668305 139.295120 309.000000
2.676941 140.251053 310.000000
2.676941 140.756195 310.000000
2.676941 141.261337 310.000000
2.676941 141.766479 310.000000
2.685576 142.730560 311.000000
2.685576 143.237335 311.000000
2.685576 143.744110 311.000000
2.685576 144.250885 311.000000
2.685576 144.757645 311.000000
2.676941 144.797333 310.000000
2.676941 145.302475 310.000000
2.676941 145.807617 310.000000
2.676941 146.312759 310.000000
2.676941 146.817886 310.000000
2.676941 147.323029 310.000000
2.676941 147.828171 310.000000
2.676941 148.333313 310.000000
2.676941 148.838455 310.000000
2.676941 149.343597 310.000000
2.676941 149.848740 310.000000
2.668305 149.868866 309.000000
2.668305 150.372375 309.000000
2.659670 150.387619 308.000000
2.659670 150.889496 308.000000
2.659670 151.391373 308.000000
2.659670 151.893265 308.000000
2.651035 151.900360 307.000000
2.651035 152.400620 307.000000
2.651035 152.900864 307.000000
2.663124 154.100677 308.399994
2.663124 154.603195 308.399994
2.663124 155.105728 308.399994
2.661742 155.527527 308.239990
2.661742 156.029800 308.239990
2.660223 156.442703 308.063995
2.658551 156.846069 307.870392
2.658551 157.347733 307.870392
2.657576 157.791504 307.757446
2.657366 158.280502 307.733185
2.657366 158.781952 307.733185
2.657136 159.269592 307.706512
2.656882 159.755753 307.677155
2.656882 160.257095 307.677155
2.647882 160.213882 306.634888
2.655625 161.183472 307.531494
2.655625 161.684601 307.531494
2.655625 162.185715 307.531494
2.654874 162.640884 307.444641
2.654188 163.099670 307.365112
2.654188 163.600510 307.365112
2.653584 164.064041 307.295227
2.653087 164.533966 307.237701
2.653087 165.034607 307.237701
2.652639 165.507248 307.185730
2.645267 165.546432 306.332001
2.645267 166.045609 306.332001
2.635688 165.941696 305.222748
2.634030 166.334396 305.030823
2.634030 166.831436 305.030823
2.633570 167.299255 304.977539
2.633139 167.768738 304.927612
2.633139 168.265610 304.927612
2.633764 168.802551 305.000000
2.633764 169.299545 305.000000
2.633764 169.796539 305.000000
2.633764 170.293533 305.000000
2.625420 170.249435 304.033722
2.625420 170.744858 304.033722
2.621188 170.964249 303.543640
2.620668 171.424835 303.483368
2.620668 171.919357 303.483368
2.617621 172.213470 303.130615
2.616857 172.656952 303.042053
2.616857 173.150772 303.042053
2.615205 173.534943 302.850739
2.614424 173.976486 302.760345
2.612039 174.310684 302.484161
2.612039 174.803574 302.484161
2.609820 175.147537 302.227173
2.607367 175.474899 301.943054
2.607367 175.966904 301.943054
3.167404 57.650131 308.592529
3.167404 58.152973 308.592529
3.167404 58.655823 308.592529
3.166639 59.144371 308.517944
3.166639 59.647099 308.517944
3.166639 60.149822 308.517944
3.169080 60.699306 308.755798
3.169080 61.202423 308.755798
3.169331 61.710419 308.780212
3.169331 62.213573 308.780212
3.169331 62.716721 308.780212
3.172477 63.282623 309.086700
3.172477 63.786282 309.086700
3.172477 64.289932 309.086700
3.172388 64.791771 309.078033
3.171587 65.278923 309.000000
3.171587 65.782440 309.000000
3.171587 66.285950 309.000000
3.181851 67.005600 310.000000
3.181851 67.510742 310.000000
3.181851 68.015884 310.000000
3.181851 68.521027 310.000000
3.181851 69.026169 310.000000
3.171587 69.307014 309.000000
3.171587 69.810532 309.000000
3.171587 70.314041 309.000000
3.171587 70.817551 309.000000
3.171587 71.321060 309.000000
3.161323 71.592133 308.000000
3.161323 72.094017 308.000000
3.161323 72.595894 308.000000
3.161323 73.097778 308.000000
3.161323 73.599663 308.000000
3.161323 74.101540 308.000000
3.161323 74.603424 308.000000
3.161323 75.105309 308.000000
3.151059 75.361710 307.000000
3.151059 75.861961 307.000000
3.151059 76.362213 307.000000
3.151059 76.862465 307.000000
3.151059 77.362717 307.000000
3.151059 77.862968 307.000000
3.151059 78.363228 307.000000
3.151059 78.863480 307.000000
3.151059 79.363731 307.000000
3.151059 79.863983 307.000000
3.140795 80.102470 306.000000
3.140795 80.601089 306.000000
3.140795 81.099716 306.000000
3.140795 81.598335 306.000000
3.140795 82.096962 306.000000
3.140795 82.595581 306.000000
3.140795 83.094208 306.000000
3.140795 83.592827 306.000000
3.140795 84.091454 306.000000
3.130530 84.313637 305.000000
3.130530 84.810631 305.000000
3.130530 85.307625 305.000000
3.130530 85.804619 305.000000
3.130530 86.301613 305.000000
3.130530 86.798607 305.000000
3.130530 87.295593 305.000000
3.130530 87.792587 305.000000
3.130530 88.289581 305.000000
3.130530 88.786575 305.000000
3.130530 89.283569 305.000000
3.130530 89.780563 305.000000
3.130530 90.277557 305.000000
3.130530 90.774551 305.000000
3.130530 91.271545 305.000000
3.130530 91.768539 305.000000
3.130530 92.265533 305.000000
3.130530 92.762527 305.000000
3.130530 93.259521 305.000000
3.130530 93.756516 305.000000
3.130530 94.253510 305.000000
3.130530 94.750504 305.000000
3.120266 94.935204 304.000000
3.120266 95.430573 304.000000
3.120266 95.925934 304.000000
3.120266 96.421295 304.000000
3.120266 96.916664 304.000000
3.120266 97.412025 304.000000
3.120266 97.907394 304.000000
3.120266 98.402756 304.000000
3.120266 98.898117 304.000000
3.120266 99.393486 304.000000
3.120266 99.888847 304.000000
3.120266 100.384209 304.000000
3.110003 100.547737 303.000000
3.110003 101.041466 303.000000
3.110003 101.535202 303.000000
3.110003 102.028938 303.000000
3.110003 102.522675 303.000000
3.110003 103.016411 303.000000
3.110003 103.510139 303.000000
3.120266 104.347122 304.000000
3.120266 104.842491 304.000000
3.120266 105.337852 304.000000
3.120266 105.833221 304.000000
3.120266 106.328583 304.000000
3.120266 106.823944 304.000000
3.120266 107.319313 304.000000
3.120266 107.814674 304.000000
3.120266 108.310036 304.000000
3.120266 108.805405 304.000000
3.120266 109.300766 304.000000
3.120266 109.796127 304.000000
3.130530 110.654297 305.000000
3.130530 111.151291 305.000000
3.130530 111.648285 305.000000
3.130530 112.145279 305.000000
3.130530 112.642273 305.000000
3.130530 113.139267 305.000000
3.130530 113.636261 305.000000
3.130530 114.133255 305.000000
3.130530 114.630249 305.000000
3.130530 115.127243 305.000000
3.130530 115.624237 305.000000
3.130530 116.121231 305.000000
3.130530 116.618225 305.000000
3.130530 117.115219 305.000000
3.130530 117.612206 305.000000
3.130530 118.109200 305.000000
3.140795 118.995071 306.000000
3.140795 119.493690 306.000000
3.140795 119.992317 306.000000
3.151059 120.884705 307.000000
3.151059 121.384956 307.000000
3.151059 121.885208 307.000000
3.151059 122.385460 307.000000
3.151059 122.885712 307.000000
3.151059 123.385963 307.000000
3.151059 123.886223 307.000000
3.151059 124.386475 307.000000
3.151059 124.886726 307.000000
3.151059 125.386978 307.000000
3.151059 125.887230 307.000000
3.151059 126.387482 307.000000
3.151059 126.887733 307.000000
3.151059 127.387985 307.000000
3.161323 128.304810 308.000000
3.161323 128.806686 308.000000
3.161323 129.308563 308.000000
3.161323 129.810455 308.000000
3.161323 130.312332 308.000000
3.161323 130.814209 308.000000
3.161323 131.316101 308.000000
3.161323 131.817978 308.000000
3.161323 132.319855 308.000000
3.161323 132.821747 308.000000
3.161323 133.323624 308.000000
3.161323 133.825500 308.000000
3.161323 134.327393 308.000000
3.161323 134.829269 308.000000
3.161323 135.331146 308.000000
3.161323 135.833038 308.000000
3.161323 136.334915 308.000000
3.171587 137.281082 309.000000
3.171587 137.784592 309.000000
3.171587 138.288101 309.000000
3.171587 138.791611 309.000000
3.171587 139.295120 309.000000
3.181851 140.251053 310.000000
3.181851 140.756195 310.000000
3.181851 141.261337 310.000000
3.181851 141.766479 310.000000
3.192115 142.730560 311.000000
3.192115 143.237335 311.000000
3.192115 143.744110 311.000000
3.192115 144.250885 311.000000
3.192115 144.757645 311.000000
3.181851 144.797333 310.000000
3.181851 145.302475 310.000000
3.181851 145.807617 310.000000
3.181851 146.312759 310.000000
3.181851 146.817886 310.000000
3.181851 147.323029 310.000000
3.181851 147.828171 310.000000
