-55.071888 50.283085 419.000000
-54.940449 50.844200 418.000000
-54.940449 51.525326 418.000000
-54.809010 52.081558 417.000000
-54.809010 52.761055 417.000000
-54.809010 53.440548 417.000000
-54.677578 53.990261 416.000000
-54.677578 54.668129 416.000000
-54.677578 55.345997 416.000000
-54.677578 56.023865 416.000000
-54.797604 56.826195 416.913177
-54.797604 57.505550 416.913177
-54.797604 58.184906 416.913177
-54.754894 58.818382 416.588226
-54.754894 59.497204 416.588226
-54.751503 60.172310 416.562469
-54.751503 60.851093 416.562469
-54.751503 61.529877 416.562469
-54.732613 62.187195 416.418732
-54.724972 62.856964 416.360596
-54.716568 63.525665 416.296661
-54.716568 64.204018 416.296661
-54.507782 64.634789 414.708160
-54.489586 65.288750 414.569733
-54.489586 65.964287 414.569733
-54.432793 66.570358 414.137604
-54.373432 67.171860 413.686005
-54.373432 67.845963 413.686005
-54.325218 68.459297 413.319153
-54.525269 69.387375 414.841187
-54.525269 70.063347 414.841187
-54.525269 70.739326 414.841187
-54.502644 71.385674 414.669067
-54.502644 72.061371 414.669067
-54.479645 72.706375 414.494080
-54.455109 73.348747 414.307434
-54.455109 74.023857 414.307434
-54.428967 74.663101 414.108521
-54.421085 75.326973 414.048553
-54.421085 76.001656 414.048553
-54.414234 76.666695 413.996429
-54.416275 77.344200 414.011932
-54.416275 78.018822 414.011932
-54.429272 78.712250 414.110870
-54.448486 79.415062 414.257050
-54.448486 80.090096 414.257050
-54.448486 80.765121 414.257050
-54.440807 81.428650 414.198608
-54.440807 82.103584 414.198608
-54.434624 82.769119 414.151581
-54.430126 83.437080 414.117340
-54.427624 84.108017 414.098328
-54.427624 84.782784 414.098328
-54.427490 85.457336 414.097290
-53.875881 85.259171 409.900513
-53.875881 85.927101 409.900513
-53.890762 86.618950 410.013763
-53.890762 87.287071 410.013763
-53.890762 87.955177 410.013763
-53.119160 87.354385 404.143188
-52.985920 87.792168 403.129456
-52.985920 88.449059 403.129456
-52.254230 87.875481 397.562622
-52.127163 88.308044 396.595856
-52.127163 88.954285 396.595856
-51.136383 87.897499 389.057770
-48.101105 86.854561 365.964661
-48.101105 87.450897 365.964661
-48.101105 88.047226 365.964661
-47.721233 87.943512 363.074493
-47.721233 88.535133 363.074493
-47.351521 88.436264 360.261627
-46.981606 88.327843 357.447235
-46.981606 88.910301 357.447235
-46.621822 88.807426 354.709900
-46.230980 88.636078 351.736298
-46.230980 89.209236 351.736298
-45.679424 88.711235 347.539917
-45.313259 88.561905 344.754059
-45.313259 89.123680 344.754059
-45.393913 89.845085 345.367706
-45.393913 90.407852 345.367706
-45.393913 90.970634 345.367706
-45.254982 91.253250 344.310669
-45.254982 91.814308 344.310669
-45.254982 92.375351 344.310669
-44.899670 92.206726 341.607361
-44.579967 92.102859 339.174988
-43.908768 91.260506 334.068329
-43.908768 91.804863 334.068329
-42.979729 90.395271 327.000000
-42.848293 90.650047 326.000000
-42.848293 91.181259 326.000000
-42.848293 91.712479 326.000000
-42.585419 91.677773 324.000000
-42.585419 92.205727 324.000000
-42.453983 92.447472 323.000000
-42.453983 92.973793 323.000000
-42.453983 93.500114 323.000000
-42.191109 93.444229 321.000000
-42.191109 93.967300 321.000000
-42.191109 94.490364 321.000000
-42.059673 94.717438 320.000000
-42.059673 95.238876 320.000000
-42.059673 95.760315 320.000000
-41.928238 95.980865 319.000000
-41.796803 96.198158 318.000000
-41.796803 96.716339 318.000000
-41.796803 97.234512 318.000000
-41.665367 97.445290 317.000000
-41.665367 97.961838 317.000000
-41.665367 98.478386 317.000000
-41.665367 98.994934 317.000000
-41.665367 99.511482 317.000000
-41.665367 100.028030 317.000000
-41.533928 100.227409 316.000000
-41.533928 100.742325 316.000000
-41.533928 101.257240 316.000000
-41.533928 101.772163 316.000000
-41.533928 102.287079 316.000000
-41.402493 102.476669 315.000000
-41.402493 102.989960 315.000000
-41.402493 103.503250 315.000000
-41.402493 104.016541 315.000000
-41.402493 104.529823 315.000000
-41.402493 105.043114 315.000000
-41.402493 105.556404 315.000000
-41.402493 106.069695 315.000000
-41.402493 106.582977 315.000000
-41.402493 107.096260 315.000000
-41.402493 107.609550 315.000000
-41.402493 108.122841 315.000000
-41.402493 108.636124 315.000000
-41.402493 109.149414 315.000000
-41.402493 109.662704 315.000000
-41.402493 110.175995 315.000000
-41.402493 110.689278 315.000000
-41.533928 111.555595 316.000000
-41.533928 112.070511 316.000000
-41.533928 112.585434 316.000000
-41.533928 113.100349 316.000000
-41.533928 113.615265 316.000000
-41.665367 114.491356 317.000000
-41.665367 115.007904 317.000000
-41.665367 115.524452 317.000000
-41.665367 116.041000 317.000000
-54.634998 40.222534 420.891663
-54.634998 40.908371 420.891663
-54.739346 41.673653 421.695557
-54.908676 42.491833 423.000000
-54.908676 43.181107 423.000000
-54.908676 43.870380 423.000000
-54.908676 44.559654 423.000000
-54.778866 45.141956 422.000000
-54.778866 45.829597 422.000000
-54.778866 46.517242 422.000000
-54.649059 47.093029 421.000000
-54.649059 47.779041 421.000000
-54.649059 48.465057 421.000000
-54.519249 49.034321 420.000000
-54.519249 49.718704 420.000000
-54.389446 50.283085 419.000000
-54.129826 50.722565 417.000000
-54.129826 51.402061 417.000000
-54.129826 52.081558 417.000000
-54.129826 52.761055 417.000000
-54.129826 53.440548 417.000000
-54.000023 53.990261 416.000000
-54.000023 54.668129 416.000000
-54.000023 55.345997 416.000000
-54.000023 56.023865 416.000000
-53.870213 56.565426 415.000000
-53.870213 57.241665 415.000000
-53.870213 57.917900 415.000000
-53.870213 58.594139 415.000000
-53.870213 59.270374 415.000000
-53.740406 59.802162 414.000000
-53.740406 60.476768 414.000000
-53.740406 61.151375 414.000000
-53.610596 61.676651 413.000000
-53.762836 62.526684 414.172821
-53.762836 63.201569 414.172821
-53.762836 63.876465 414.172821
-53.708759 64.486420 413.756195
-53.686565 65.133713 413.585266
-53.686565 65.807640 413.585266
-53.622417 66.402130 413.091034
-53.560703 66.998062 412.615631
-53.560703 67.670410 412.615631
-53.652027 68.459297 413.319153
-53.652027 69.132790 413.319153
-53.652027 69.806290 413.319153
-53.643188 70.468178 413.251068
-53.635750 71.131706 413.193787
-53.635750 71.804993 413.193787
-53.638264 72.481689 413.213165
-53.638264 73.155022 413.213165
-53.638264 73.828339 413.213165
-53.625809 74.484360 413.117188
-53.617512 75.145912 413.053284
-53.617512 75.818970 413.053284
-53.199921 75.896286 409.836273
-53.518417 77.022484 412.289886
-53.518417 77.694305 412.289886
-53.522560 78.372200 412.321808
-53.522560 79.044067 412.321808
-53.522560 79.715942 412.321808
-53.509621 80.368370 412.222076
-53.039165 80.327591 408.597870
-53.312042 81.410088 410.700012
-53.312042 82.079315 410.700012
-53.312042 82.748543 410.700012
-53.279411 83.366722 410.448669
-53.279411 84.035545 410.448669
-53.244778 84.649300 410.181824
-53.208260 85.259171 409.900513
-53.208260 85.927101 409.900513
-53.222961 86.618950 410.013763
-53.222961 87.287071 410.013763
-53.222961 87.955177 410.013763
-53.014198 88.275673 408.405518
-53.014118 88.941032 408.404907
-53.014118 89.606522 408.404907
-53.013500 90.270958 408.400146
-51.481213 88.308044 396.595856
-51.481213 88.954285 396.595856
-50.502712 87.897499 389.057770
-49.897495 87.470520 384.395355
-49.897495 88.096886 384.395355
-49.392796 87.825851 380.507324
-48.878830 87.525536 376.547882
-48.878830 88.139114 376.547882
-47.505047 86.854561 365.964661
-47.505047 87.450897 365.964661
-47.505047 88.047226 365.964661
-47.129879 87.943512 363.074493
-47.129879 88.535133 363.074493
-47.071674 89.016685 362.626099
-47.071674 89.607582 362.626099
-47.071674 90.198479 362.626099
-46.802349 90.269913 360.551300
-46.504753 90.279694 358.258698
-46.504753 90.863480 358.258698
-45.949680 90.355759 353.982605
-45.512859 90.068115 350.617462
-45.512859 90.639442 350.617462
-45.503048 91.191109 350.541870
-45.503048 91.762314 350.541870
-45.503048 92.333511 350.541870
-45.078316 92.037529 347.269867
-44.694187 91.814308 344.310669
-44.694187 92.375351 344.310669
-44.343277 92.206726 341.607361
-44.027538 92.102859 339.174988
-43.667706 91.898285 336.402954
-43.667706 92.446442 336.402954
-43.390045 92.403297 334.263916
-42.317326 90.650047 326.000000
-42.317326 91.181259 326.000000
-42.187515 91.431145 325.000000
-42.057709 91.677773 324.000000
-42.057709 92.205727 324.000000
-41.927898 92.447472 323.000000
-41.927898 92.973793 323.000000
-41.927898 93.500114 323.000000
-41.668282 93.444229 321.000000
-41.668282 93.967300 321.000000
-41.668282 94.490364 321.000000
-41.538475 94.717438 320.000000
-41.538475 95.238876 320.000000
-41.538475 95.760315 320.000000
-41.408672 95.980865 319.000000
-41.278862 96.198158 318.000000
-41.278862 96.716339 318.000000
-41.278862 97.234512 318.000000
-41.149055 97.445290 317.000000
-41.149055 97.961838 317.000000
-41.149055 98.478386 317.000000
-41.149055 98.994934 317.000000
-41.149055 99.511482 317.000000
-41.019245 99.712486 316.000000
-41.019245 100.227409 316.000000
-41.019245 100.742325 316.000000
-40.889439 100.936806 315.000000
-40.889439 101.450096 315.000000
-40.889439 101.963379 315.000000
-40.889439 102.476669 315.000000
-40.759628 102.663002 314.000000
-40.759628 103.174667 314.000000
-40.759628 103.686325 314.000000
-40.759628 104.197983 314.000000
-40.759628 104.709641 314.000000
-40.759628 105.221298 314.000000
-40.759628 105.732964 314.000000
-40.759628 106.244621 314.000000
-40.759628 106.756279 314.000000
-40.759628 107.267944 314.000000
-40.759628 107.779602 314.000000
-40.759628 108.291260 314.000000
-40.759628 108.802917 314.000000
-40.759628 109.314583 314.000000
-40.759628 109.826241 314.000000
-40.759628 110.337898 314.000000
-40.889439 111.202568 315.000000
-40.889439 111.715858 315.000000
-40.889439 112.229149 315.000000
-40.889439 112.742432 315.000000
-40.889439 113.255722 315.000000
-41.019245 114.130188 316.000000
-41.019245 114.645103 316.000000
-41.019245 115.160019 316.000000
-40.889439 115.308876 315.000000
-40.889439 115.822166 315.000000
-40.889439 116.335457 315.000000
-53.949474 40.222534 420.891663
-53.949474 40.908371 420.891663
-54.219719 41.802559 423.000000
-54.219719 42.491833 423.000000
-54.219719 43.181107 423.000000
-54.219719 43.870380 423.000000
-54.219719 44.559654 423.000000
-54.091537 45.141956 422.000000
-54.091537 45.829597 422.000000
-53.963356 46.407013 421.000000
-53.963356 47.093029 421.000000
-53.963356 47.779041 421.000000
-53.835178 48.349937 420.000000
-53.835178 49.034321 420.000000
-53.835178 49.718704 420.000000
-53.707001 50.283085 419.000000
-53.450642 50.722565 417.000000
-53.450642 51.402061 417.000000
-53.450642 52.081558 417.000000
-53.450642 52.761055 417.000000
-53.450642 53.440548 417.000000
-53.322464 53.990261 416.000000
-53.322464 54.668129 416.000000
-53.322464 55.345997 416.000000
-53.322464 56.023865 416.000000
-53.194286 56.565426 415.000000
-53.194286 57.241665 415.000000
-53.194286 57.917900 415.000000
-53.194286 58.594139 415.000000
-53.194286 59.270374 415.000000
-53.066105 59.802162 414.000000
-53.066105 60.476768 414.000000
-53.066105 61.151375 414.000000
-52.937927 61.676651 413.000000
-53.088257 62.526684 414.172821
-53.088257 63.201569 414.172821
-53.088257 63.876465 414.172821
-53.034855 64.486420 413.756195
-53.012947 65.133713 413.585266
-53.012947 65.807640 413.585266
-52.949596 66.402130 413.091034
-52.888657 66.998062 412.615631
-52.888657 67.670410 412.615631
-52.978832 68.459297 413.319153
-52.978832 69.132790 413.319153
-52.978832 69.806290 413.319153
-52.970108 70.468178 413.251068
-52.962765 71.131706 413.193787
-52.962765 71.804993 413.193787
-52.965252 72.481689 413.213165
-52.965252 73.155022 413.213165
-52.965252 73.828339 413.213165
-52.952946 74.484360 413.117188
-52.944759 75.145912 413.053284
-52.944759 75.818970 413.053284
-52.352272 75.636047 408.430969
-52.846905 77.022484 412.289886
-52.846905 77.694305 412.289886
-52.850998 78.372200 412.321808
-52.850998 79.044067 412.321808
-52.850998 79.715942 412.321808
-52.838211 80.368370 412.222076
-52.373669 80.327591 408.597870
-52.643116 81.410088 410.700012
-52.643116 82.079315 410.700012
-52.643116 82.748543 410.700012
-52.610901 83.366722 410.448669
-52.610901 84.035545 410.448669
-52.339375 84.267212 408.330353
-52.348972 84.948151 408.405212
-52.348972 85.613640 408.405212
-52.348972 86.279137 408.405212
-52.349010 86.944687 408.405518
-52.349010 87.610184 408.405518
-52.349010 88.275673 408.405518
-52.348930 88.941032 408.404907
-52.348930 89.606522 408.404907
-52.348324 90.270958 408.400146
-52.010109 90.348915 405.761536
-52.010109 91.010101 405.761536
-52.010109 91.671288 405.761536
-49.271412 87.470520 384.395355
-49.271412 88.096886 384.395355
-48.773048 87.825851 380.507324
-48.265530 87.525536 376.547882
-48.265530 88.139114 376.547882
-48.101036 88.450218 375.264557
-47.692818 88.305862 372.079803
-47.692818 88.912163 372.079803
-47.342556 88.861038 369.347229
-47.036072 88.883720 366.956146
-47.036072 89.481667 366.956146
-46.757465 89.546051 364.782562
-46.481049 89.607582 362.626099
-46.481049 90.198479 362.626099
-46.215107 90.269913 360.551300
-45.921242 90.279694 358.258698
-45.921242 90.863480 358.258698
-45.373135 90.355759 353.982605
-45.307526 90.801079 353.470734
-45.307526 91.377052 353.470734
-45.307526 91.953033 353.470734
-45.400295 92.718468 354.194489
-45.400295 93.295624 354.194489
-45.400295 93.872780 354.194489
-44.765366 93.129044 349.241028
-44.366879 92.864052 346.132202
-44.366879 93.428070 346.132202
-43.475109 92.102859 339.174988
-43.119793 91.898285 336.402954
-43.119793 92.446442 336.402954
-42.845615 92.403297 334.263916
-41.786354 90.650047 326.000000
-41.786354 91.181259 326.000000
-41.529995 91.149818 324.000000
-41.529995 91.677773 324.000000
-41.529995 92.205727 324.000000
-41.401814 92.447472 323.000000
-41.401814 92.973793 323.000000
-41.401814 93.500114 323.000000
-41.145458 93.444229 321.000000
-41.145458 93.967300 321.000000
-41.145458 94.490364 321.000000
-41.017281 94.717438 320.000000
-40.889103 94.941254 319.000000
-40.889103 95.461060 319.000000
-40.889103 95.980865 319.000000
-40.760921 96.198158 318.000000
-40.760921 96.716339 318.000000
-40.760921 97.234512 318.000000
-40.632744 97.445290 317.000000
-40.632744 97.961838 317.000000
-40.632744 98.478386 317.000000
-40.632744 98.994934 317.000000
-40.632744 99.511482 317.000000
-40.504562 99.712486 316.000000
-40.504562 100.227409 316.000000
-40.504562 100.742325 316.000000
-40.376385 100.936806 315.000000
-40.376385 101.450096 315.000000
-40.376385 101.963379 315.000000
-40.376385 102.476669 315.000000
-40.248203 102.663002 314.000000
-40.248203 103.174667 314.000000
-40.248203 103.686325 314.000000
-40.248203 104.197983 314.000000
-40.248203 104.709641 314.000000
-40.248203 105.221298 314.000000
-40.248203 105.732964 314.000000
-40.248203 106.244621 314.000000
-40.248203 106.756279 314.000000
-40.248203 107.267944 314.000000
-40.248203 107.779602 314.000000
-40.248203 108.291260 314.000000
-40.248203 108.802917 314.000000
-40.248203 109.314583 314.000000
-40.248203 109.826241 314.000000
-40.248203 110.337898 314.000000
-40.376385 111.202568 315.000000
-40.376385 111.715858 315.000000
-40.376385 112.229149 315.000000
-40.376385 112.742432 315.000000
-40.376385 113.255722 315.000000
-40.504562 114.130188 316.000000
-40.504562 114.645103 316.000000
-40.504562 115.160019 316.000000
-40.376385 115.308876 315.000000
-40.376385 115.822166 315.000000
-40.376385 116.335457 315.000000
-53.233456 40.199505 420.650696
-53.233456 40.884949 420.650696
-53.530762 41.802559 423.000000
-53.530762 42.491833 423.000000
-53.530762 43.181107 423.000000
-53.530762 43.870380 423.000000
-53.404209 44.454311 422.000000
-53.277657 45.034985 421.000000
-53.277657 45.721001 421.000000
-53.277657 46.407013 421.000000
-53.151108 46.981167 420.000000
-53.151108 47.665550 420.000000
-53.151108 48.349937 420.000000
-53.024555 48.917572 419.000000
-53.024555 49.600327 419.000000
-52.898006 50.163074 418.000000
-52.771454 50.722565 417.000000
-52.771454 51.402061 417.000000
-52.771454 52.081558 417.000000
-52.644905 52.634529 416.000000
-52.644905 53.312397 416.000000
-52.644905 53.990261 416.000000
-52.644905 54.668129 416.000000
-52.644905 55.345997 416.000000
-52.518356 55.889187 415.000000
-52.518356 56.565426 415.000000
-52.518356 57.241665 415.000000
-52.518356 57.917900 415.000000
-52.391808 58.452946 414.000000
-52.391808 59.127552 414.000000
-52.391808 59.802162 414.000000
-52.265259 60.330692 413.000000
-52.265259 61.003674 413.000000
-52.265259 61.676651 413.000000
-52.138706 62.198658 412.000000
-52.138706 62.870007 412.000000
-52.012157 63.387127 411.000000
-51.885605 63.900990 410.000000
-51.885605 64.569077 410.000000
-51.885605 65.237167 410.000000
-51.885605 65.905258 410.000000
-51.759056 66.410980 409.000000
-51.759056 67.077438 409.000000
-51.632504 67.578262 408.000000
-51.632504 68.243095 408.000000
-51.632504 68.907928 408.000000
-51.860294 69.879692 409.799988
-51.860294 70.547455 409.799988
-51.860294 71.215225 409.799988
-51.819801 71.826859 409.480011
-51.787910 72.449486 409.227997
-51.787910 73.116318 409.227997
-51.650368 73.587196 408.141174
-51.642456 74.240883 408.078644
-51.642456 74.905838 408.078644
-51.687046 75.636047 408.430969
-51.687046 76.301582 408.430969
-51.687046 76.967110 408.430969
-51.684578 77.628937 408.411469
-51.689785 78.302330 408.452606
-51.689785 78.967888 408.452606
-51.708164 79.661789 408.597870
-51.708164 80.327591 408.597870
-51.708164 80.993393 408.597870
-51.692951 81.635178 408.477661
-51.680267 82.280586 408.377411
-51.671417 82.931824 408.307465
-51.671417 83.597160 408.307465
-51.674309 84.267212 408.330353
-51.683784 84.948151 408.405212
-51.683784 85.613640 408.405212
-51.683784 86.279137 408.405212
-51.683823 86.944687 408.405518
-51.683823 87.610184 408.405518
-51.683823 88.275673 408.405518
-51.683746 88.941032 408.404907
-51.683746 89.606522 408.404907
-51.683144 90.270958 408.400146
-51.349228 90.348915 405.761536
-51.349228 91.010101 405.761536
-51.349228 91.671288 405.761536
-50.571861 90.934669 399.618805
-50.571861 91.585838 399.618805
-50.564571 92.223717 399.561188
-50.560101 92.866592 399.525879
-50.560101 93.517609 399.525879
-47.489826 88.450218 375.264557
-47.086796 88.305862 372.079803
-47.086796 88.912163 372.079803
-46.917393 89.196404 370.741180
-46.917393 89.800529 370.741180
-46.917393 90.404640 370.741180
-46.669071 90.527077 368.778931
-46.424938 90.651299 366.849823
-46.424938 91.249069 366.849823
-46.192841 91.387665 365.015778
-45.933384 91.465805 362.965546
-45.933384 92.057251 362.965546
-45.593174 91.962494 360.277222
-45.155792 91.661728 356.821045
-45.155792 92.243156 356.821045
-45.494904 93.521683 359.500671
-45.494904 94.107483 359.500671
-45.494904 94.693283 359.500671
-44.823402 93.872780 354.194489
-44.196541 93.129044 349.241028
-43.953270 93.182381 347.318695
-43.953270 93.748329 347.318695
-42.978912 92.223518 339.619324
-42.855770 92.511093 338.646240
-42.855770 93.062920 338.646240
-42.855770 93.614738 338.646240
-41.255383 90.650047 326.000000
-41.255383 91.181259 326.000000
-41.002285 91.149818 324.000000
-41.002285 91.677773 324.000000
-41.002285 92.205727 324.000000
-40.875732 92.447472 323.000000
-40.749184 92.685944 322.000000
-40.749184 93.210640 322.000000
-40.622631 93.444229 321.000000
-40.496082 93.674568 320.000000
-40.496082 94.196007 320.000000
-40.496082 94.717438 320.000000
-40.369534 94.941254 319.000000
-40.369534 95.461060 319.000000
-40.369534 95.980865 319.000000
-40.242981 96.198158 318.000000
-40.242981 96.716339 318.000000
-40.242981 97.234512 318.000000
-40.116432 97.445290 317.000000
-40.116432 97.961838 317.000000
-40.116432 98.478386 317.000000
-39.989880 98.682655 316.000000
-39.989880 99.197571 316.000000
-39.989880 99.712486 316.000000
-39.989880 100.227409 316.000000
-39.989880 100.742325 316.000000
-39.863331 100.936806 315.000000
-39.736778 101.128029 314.000000
-39.736778 101.639687 314.000000
-39.736778 102.151344 314.000000
-39.736778 102.663002 314.000000
-39.736778 103.174667 314.000000
-39.736778 103.686325 314.000000
-39.736778 104.197983 314.000000
-39.736778 104.709641 314.000000
-39.736778 105.221298 314.000000
-39.736778 105.732964 314.000000
-39.610229 105.906265 313.000000
-39.610229 106.416298 313.000000
-39.610229 106.926323 313.000000
-39.610229 107.436356 313.000000
-39.610229 107.946381 313.000000
-39.736778 108.802917 314.000000
-39.736778 109.314583 314.000000
-39.736778 109.826241 314.000000
-39.736778 110.337898 314.000000
-39.736778 110.849556 314.000000
-39.736778 111.361214 314.000000
-39.736778 111.872871 314.000000
-39.736778 112.384537 314.000000
-39.736778 112.896194 314.000000
-39.863331 113.769012 315.000000
-39.863331 114.282303 315.000000
-39.863331 114.795586 315.000000
-39.863331 115.308876 315.000000
-39.863331 115.822166 315.000000
-39.863331 116.335457 315.000000
-52.548321 40.199505 420.650696
-52.548321 40.884949 420.650696
-52.841801 41.802559 423.000000
-52.841801 42.491833 423.000000
-52.841801 43.181107 423.000000
-52.841801 43.870380 423.000000
-52.716881 44.454311 422.000000
-52.591957 45.034985 421.000000
-52.591957 45.721001 421.000000
-52.591957 46.407013 421.000000
-52.467037 46.981167 420.000000
-52.467037 47.665550 420.000000
-52.342113 48.234818 419.000000
-52.342113 48.917572 419.000000
-52.342113 49.600327 419.000000
-52.092270 50.043068 417.000000
-52.092270 50.722565 417.000000
-52.092270 51.402061 417.000000
-52.092270 52.081558 417.000000
-51.967350 52.634529 416.000000
-51.967350 53.312397 416.000000
-51.967350 53.990261 416.000000
-51.967350 54.668129 416.000000
-51.967350 55.345997 416.000000
-51.842430 55.889187 415.000000
-51.842430 56.565426 415.000000
-51.842430 57.241665 415.000000
-51.842430 57.917900 415.000000
-51.717506 58.452946 414.000000
-51.717506 59.127552 414.000000
-51.592587 59.657715 413.000000
-51.467663 60.184612 412.000000
-51.467663 60.855961 412.000000
-51.467663 61.527309 412.000000
-51.342743 62.047691 411.000000
-51.342743 62.717407 411.000000
-51.342743 63.387127 411.000000
-51.217819 63.900990 410.000000
-51.217819 64.569077 410.000000
-51.217819 65.237167 410.000000
-51.092899 65.744522 409.000000
-51.092899 66.410980 409.000000
-51.092899 67.077438 409.000000
-50.967976 67.578262 408.000000
-50.843056 68.075829 407.000000
-50.843056 68.739037 407.000000
-50.718136 69.231720 406.000000
-50.718136 69.893288 406.000000
-50.718136 70.554863 406.000000
-50.593216 71.041023 405.000000
-50.593216 71.700966 405.000000
-50.593216 72.360909 405.000000
-50.839775 73.376709 406.973724
-50.839775 74.039864 406.973724
-50.839775 74.703026 406.973724
-50.780270 75.277969 406.497375
-50.749004 75.893593 406.247101
-50.749004 76.555573 406.247101
-50.714615 77.165230 405.971832
-50.689281 77.787872 405.769012
-50.689281 78.449066 405.769012
-50.673901 79.086258 405.645905
-50.669479 79.740295 405.610504
-50.671749 80.404831 405.628693
-50.671749 81.065796 405.628693
-50.679604 81.739433 405.691559
-50.713230 82.455170 405.960724
-50.713230 83.116684 405.960724
-50.713230 83.778191 405.960724
-50.700573 84.418625 405.859436
-50.700573 85.079971 405.859436
-50.692604 85.727829 405.795624
-50.686966 86.379471 405.750488
-50.686966 87.040634 405.750488
-50.684196 87.697006 405.728333
-50.684673 88.358955 405.732117
-50.684673 89.020096 405.732117
-50.686188 89.683914 405.744263
-50.688347 90.348915 405.761536
-50.688347 91.010101 405.761536
-50.688347 91.671288 405.761536
-49.920986 90.934669 399.618805
-49.920986 91.585838 399.618805
-49.913792 92.223717 399.561188
-49.909378 92.866592 399.525879
-49.909378 93.517609 399.525879
-46.878616 88.450218 375.264557
-46.480774 88.305862 372.079803
-46.480774 88.912163 372.079803
-46.313549 89.196404 370.741180
-46.313549 89.800529 370.741180
-46.313549 90.404640 370.741180
-46.068424 90.527077 368.778931
-45.827438 90.651299 366.849823
-45.827438 91.249069 366.849823
-45.598324 91.387665 365.015778
-45.342205 91.465805 362.965546
-45.342205 92.057251 362.965546
-45.279541 92.520653 362.463898
-44.846977 92.221771 359.001221
-45.232296 93.604141 362.085693
-45.232296 94.194160 362.085693
-45.232296 94.784172 362.085693
-44.909367 94.693283 359.500671
-44.583481 94.587677 356.891907
-43.970081 93.859856 351.981628
-43.387577 93.182381 347.318695
-43.387577 93.748329 347.318695
-42.425758 92.223518 339.619324
-42.466587 92.866203 339.946136
-42.466587 93.420143 339.946136
-42.466587 93.974075 339.946136
-42.160648 93.847023 337.497101
-42.160648 94.396965 337.497101
-40.474571 91.149818 324.000000
-40.474571 91.677773 324.000000
-40.474571 92.205727 324.000000
-40.349648 92.447472 323.000000
-40.224728 92.685944 322.000000
-40.224728 93.210640 322.000000
-40.099804 93.444229 321.000000
-39.974884 93.674568 320.000000
-39.974884 94.196007 320.000000
-39.974884 94.717438 320.000000
-39.849964 94.941254 319.000000
-39.849964 95.461060 319.000000
-39.725040 95.679985 318.000000
-39.725040 96.198158 318.000000
-39.725040 96.716339 318.000000
-39.600121 96.928741 317.000000
-39.600121 97.445290 317.000000
-39.600121 97.961838 317.000000
-39.600121 98.478386 317.000000
-39.475197 98.682655 316.000000
-39.475197 99.197571 316.000000
-39.475197 99.712486 316.000000
-39.350277 99.910225 315.000000
-39.350277 100.423515 315.000000
-39.225357 100.616371 314.000000
-39.225357 101.128029 314.000000
-39.225357 101.639687 314.000000
-39.225357 102.151344 314.000000
-39.225357 102.663002 314.000000
-39.225357 103.174667 314.000000
-39.100433 103.356117 313.000000
-39.100433 103.866150 313.000000
-39.100433 104.376175 313.000000
-39.100433 104.886208 313.000000
-39.100433 105.396233 313.000000
-39.100433 105.906265 313.000000
-39.100433 106.416298 313.000000
-39.100433 106.926323 313.000000
-39.100433 107.436356 313.000000
-39.100433 107.946381 313.000000
-39.100433 108.456413 313.000000
-39.100433 108.966438 313.000000
-39.100433 109.476471 313.000000
-39.225357 110.337898 314.000000
-39.225357 110.849556 314.000000
-39.225357 111.361214 314.000000
-39.225357 111.872871 314.000000
-39.225357 112.384537 314.000000
-39.225357 112.896194 314.000000
-39.225357 113.407852 314.000000
-39.225357 113.919510 314.000000
-39.225357 114.431168 314.000000
-39.225357 114.942825 314.000000
-39.225357 115.454491 314.000000
-39.225357 115.966148 314.000000
-52.152843 41.802559 423.000000
-52.152843 42.491833 423.000000
-52.152843 43.181107 423.000000
-52.029552 43.766666 422.000000
-52.029552 44.454311 422.000000
-51.906258 45.034985 421.000000
-51.906258 45.721001 421.000000
-51.906258 46.407013 421.000000
-51.782967 46.981167 420.000000
-51.782967 47.665550 420.000000
-51.659672 48.234818 419.000000
-51.659672 48.917572 419.000000
-51.659672 49.600327 419.000000
-51.413086 50.043068 417.000000
-51.413086 50.722565 417.000000
-51.413086 51.402061 417.000000
-51.413086 52.081558 417.000000
-51.289795 52.634529 416.000000
-51.289795 53.312397 416.000000
-51.289795 53.990261 416.000000
-51.289795 54.668129 416.000000
-51.289795 55.345997 416.000000
-51.166504 55.889187 415.000000
-51.166504 56.565426 415.000000
-51.166504 57.241665 415.000000
-51.166504 57.917900 415.000000
-51.043209 58.452946 414.000000
-51.043209 59.127552 414.000000
-50.919918 59.657715 413.000000
-50.796623 60.184612 412.000000
-50.796623 60.855961 412.000000
-50.796623 61.527309 412.000000
-50.673332 62.047691 411.000000
-50.673332 62.717407 411.000000
-50.673332 63.387127 411.000000
-50.550037 63.900990 410.000000
-50.550037 64.569077 410.000000
-50.550037 65.237167 410.000000
-50.426746 65.744522 409.000000
-50.303452 66.248604 408.000000
-50.303452 66.913437 408.000000
-50.180161 67.412628 407.000000
-50.180161 68.075829 407.000000
-50.180161 68.739037 407.000000
-50.056866 69.231720 406.000000
-49.933575 69.721138 405.000000
-49.933575 70.381081 405.000000
-49.933575 71.041023 405.000000
-49.810280 71.523926 404.000000
-49.810280 72.182236 404.000000
-49.686989 72.660255 403.000000
-49.563694 73.135010 402.000000
-49.563694 73.790062 402.000000
-49.440403 74.259926 401.000000
-49.620602 75.186394 402.461548
-49.620602 75.842201 402.461548
-49.620602 76.498001 402.461548
-49.070526 76.298508 398.000000
-49.070526 76.947044 398.000000
-48.947231 77.400620 397.000000
-49.433765 78.823311 400.946167
-49.433765 79.476654 400.946167
-49.433765 80.129990 400.946167
-49.383781 80.701645 400.540771
-49.383781 81.354317 400.540771
-49.341137 81.936172 400.194855
-49.306545 82.530396 399.914337
-49.280834 83.138672 399.705780
-49.280834 83.789993 399.705780
-49.264877 84.413963 399.576355
-49.247322 85.034760 399.433990
-49.247322 85.685631 399.433990
-49.223946 86.295509 399.244354
-49.251614 86.994949 399.468781
-49.251614 87.645882 399.468781
-49.294380 88.373489 399.815674
-49.294380 89.024979 399.815674
-49.294380 89.676476 399.815674
-49.280441 90.302429 399.702606
-49.270111 90.934669 399.618805
-49.270111 91.585838 399.618805
-49.263008 92.223717 399.561188
-49.258656 92.866592 399.525879
-49.258656 93.517609 399.525879
-48.983727 93.643051 397.295990
-48.984463 94.291855 397.301971
-48.984463 94.939255 397.301971
-48.984463 95.586655 397.301971
-45.709709 89.800529 370.741180
-45.709709 90.404640 370.741180
-45.666298 90.922333 370.389099
-45.456573 91.105537 368.688049
-45.456573 91.706306 368.688049
-45.242233 91.871826 366.949585
-45.001240 91.977203 364.994934
-45.001240 92.571960 364.994934
-44.689178 92.520653 362.463898
-44.262257 92.221771 359.001221
-44.642551 93.604141 362.085693
-44.642551 94.194160 362.085693
-44.642551 94.784172 362.085693
-44.323833 94.693283 359.500671
-44.002193 94.587677 356.891907
-43.604935 94.310028 353.669830
-43.038868 93.654549 349.078613
-43.038868 94.223366 349.078613
-42.018944 92.545815 340.806213
-41.912903 92.866203 339.946136
-41.912903 93.420143 339.946136
-41.912903 93.974075 339.946136
-41.610954 93.847023 337.497101
-41.610954 94.396965 337.497101
-39.946857 91.149818 324.000000
-39.823566 91.394821 323.000000
-39.823566 91.921143 323.000000
-39.823566 92.447472 323.000000
-39.700272 92.685944 322.000000
-39.700272 93.210640 322.000000
-39.576981 93.444229 321.000000
-39.453686 93.674568 320.000000
-39.453686 94.196007 320.000000
-39.330395 94.421448 319.000000
-39.330395 94.941254 319.000000
-39.330395 95.461060 319.000000
-39.207104 95.679985 318.000000
-39.207104 96.198158 318.000000
-39.207104 96.716339 318.000000
-39.083809 96.928741 317.000000
-39.083809 97.445290 317.000000
-39.083809 97.961838 317.000000
-39.083809 98.478386 317.000000
-38.960518 98.682655 316.000000
-38.960518 99.197571 316.000000
-38.960518 99.712486 316.000000
-38.837223 99.910225 315.000000
-38.837223 100.423515 315.000000
-38.713932 100.616371 314.000000
-38.713932 101.128029 314.000000
-38.713932 101.639687 314.000000
-38.713932 102.151344 314.000000
-38.713932 102.663002 314.000000
-38.713932 103.174667 314.000000
-38.590637 103.356117 313.000000
-38.590637 103.866150 313.000000
-38.590637 104.376175 313.000000
-38.590637 104.886208 313.000000
-38.590637 105.396233 313.000000
-38.467346 105.567902 312.000000
-38.467346 106.076302 312.000000
-38.467346 106.584702 312.000000
-38.467346 107.093102 312.000000
-38.467346 107.601501 312.000000
-38.467346 108.109901 312.000000
-38.467346 108.618301 312.000000
-38.467346 109.126701 312.000000
-38.713932 110.337898 314.000000
-38.713932 110.849556 314.000000
-38.713932 111.361214 314.000000
-38.713932 111.872871 314.000000
-38.713932 112.384537 314.000000
-38.713932 112.896194 314.000000
-38.713932 113.407852 314.000000
-38.713932 113.919510 314.000000
-38.713932 114.431168 314.000000
-38.713932 114.942825 314.000000
-38.713932 115.454491 314.000000
-38.713932 115.966148 314.000000
-51.463886 41.802559 423.000000
-51.463886 42.491833 423.000000
-51.463886 43.181107 423.000000
-51.342224 43.766666 422.000000
-51.220558 44.348972 421.000000
-51.220558 45.034985 421.000000
-51.220558 45.721001 421.000000
-51.098892 46.296780 420.000000
-50.977230 46.869308 419.000000
-50.977230 47.552063 419.000000
-50.977230 48.234818 419.000000
-50.855564 48.800823 418.000000
-50.855564 49.481949 418.000000
-50.733898 50.043068 417.000000
-50.733898 50.722565 417.000000
-50.733898 51.402061 417.000000
-50.733898 52.081558 417.000000
-50.612236 52.634529 416.000000
-50.612236 53.312397 416.000000
-50.612236 53.990261 416.000000
-50.612236 54.668129 416.000000
-50.612236 55.345997 416.000000
-50.490574 55.889187 415.000000
-50.490574 56.565426 415.000000
-50.490574 57.241665 415.000000
-50.368908 57.778336 414.000000
-50.368908 58.452946 414.000000
-50.368908 59.127552 414.000000
-50.125580 59.513264 412.000000
-50.125580 60.184612 412.000000
-50.125580 60.855961 412.000000
-50.003918 61.377972 411.000000
-50.003918 62.047691 411.000000
-50.003918 62.717407 411.000000
-49.882252 63.232899 410.000000
-49.882252 63.900990 410.000000
-49.882252 64.569077 410.000000
-49.882252 65.237167 410.000000
-49.760590 65.744522 409.000000
-49.638924 66.248604 408.000000
-49.638924 66.913437 408.000000
-49.517262 67.412628 407.000000
-49.517262 68.075829 407.000000
-49.517262 68.739037 407.000000
-49.395596 69.231720 406.000000
-49.273933 69.721138 405.000000
-49.273933 70.381081 405.000000
-49.273933 71.041023 405.000000
-49.152267 71.523926 404.000000
-49.152267 72.182236 404.000000
-49.030605 72.660255 403.000000
-48.908939 73.135010 402.000000
-48.908939 73.790062 402.000000
-48.787277 74.259926 401.000000
-48.965096 75.186394 402.461548
-48.965096 75.842201 402.461548
-48.965096 76.498001 402.461548
-48.300621 76.106804 397.000000
-48.300621 76.753708 397.000000
-48.178959 77.205658 396.000000
-48.780727 78.823311 400.946167
-48.780727 79.476654 400.946167
-48.780727 80.129990 400.946167
-48.519611 80.350914 398.799988
-48.519611 81.000748 398.799988
-48.468517 81.564598 398.380005
-48.424477 82.139053 398.018005
-48.388195 82.725586 397.719788
-48.388195 83.373672 397.719788
-48.348286 83.952446 397.391785
-48.316551 84.544472 397.130951
-48.316551 85.191589 397.130951
-48.306519 85.820877 397.048462
-48.319275 86.490700 397.153320
-48.319275 87.137856 397.153320
-48.345470 87.832611 397.368652
-48.374290 88.532852 397.605499
-48.374290 89.180748 397.605499
-48.374290 89.828644 397.605499
-48.359756 90.449356 397.486053
-48.359756 91.097054 397.486053
-48.348881 91.724113 397.396667
-48.341320 92.357231 397.334534
-48.341320 93.004677 397.334534
-48.336632 93.643051 397.295990
-48.337360 94.291855 397.301971
-48.337360 94.939255 397.301971
-48.337360 95.586655 397.301971
-48.131138 95.823479 395.606934
-48.131138 96.468117 395.606934
-45.063034 90.922333 370.389099
-44.856075 91.105537 368.688049
-44.856075 91.706306 368.688049
-44.644566 91.871826 366.949585
-44.406754 91.977203 364.994934
-44.406754 92.571960 364.994934
-44.098820 92.520653 362.463898
-43.827999 92.539467 360.237915
-44.249115 94.021271 363.699249
-44.249115 94.613914 363.699249
-44.249115 95.206551 363.699249
-43.620068 94.437309 358.528870
-43.620068 95.021523 358.528870
-43.028896 94.310028 353.669830
-42.470310 93.654549 349.078613
-42.470310 94.223366 349.078613
-41.463856 92.545815 340.806213
-41.359215 92.866203 339.946136
-41.359215 93.420143 339.946136
-41.359215 93.974075 339.946136
-41.061260 93.847023 337.497101
-41.061260 94.396965 337.497101
-40.684372 94.075432 334.399353
-39.297482 91.394821 323.000000
-39.297482 91.921143 323.000000
-39.175819 92.161255 322.000000
-39.054153 92.398102 321.000000
-39.054153 92.921165 321.000000
-38.932491 93.153130 320.000000
-38.932491 93.674568 320.000000
-38.932491 94.196007 320.000000
-38.810829 94.421448 319.000000
-38.689163 94.643631 318.000000
-38.689163 95.161804 318.000000
-38.689163 95.679985 318.000000
-38.567501 95.895653 317.000000
-38.567501 96.412193 317.000000
-38.567501 96.928741 317.000000
-38.567501 97.445290 317.000000
-38.567501 97.961838 317.000000
-38.445835 98.167732 316.000000
-38.445835 98.682655 316.000000
-38.445835 99.197571 316.000000
-38.324173 99.396942 315.000000
-38.202507 99.593048 314.000000
-38.202507 100.104713 314.000000
-38.202507 100.616371 314.000000
-38.202507 101.128029 314.000000
-38.202507 101.639687 314.000000
-38.202507 102.151344 314.000000
-38.080845 102.336060 313.000000
-38.080845 102.846085 313.000000
-38.080845 103.356117 313.000000
-38.080845 103.866150 313.000000
-38.080845 104.376175 313.000000
-38.080845 104.886208 313.000000
-38.080845 105.396233 313.000000
-37.959179 105.567902 312.000000
-37.959179 106.076302 312.000000
-37.959179 106.584702 312.000000
-37.959179 107.093102 312.000000
-37.959179 107.601501 312.000000
-37.959179 108.109901 312.000000
-37.959179 108.618301 312.000000
-37.959179 109.126701 312.000000
-38.080845 109.986504 313.000000
-38.080845 110.496529 313.000000
-38.080845 111.006561 313.000000
-38.080845 111.516586 313.000000
-38.080845 112.026619 313.000000
-38.080845 112.536652 313.000000
-38.080845 113.046677 313.000000
-38.202507 113.919510 314.000000
-38.202507 114.431168 314.000000
-38.202507 114.942825 314.000000
-38.202507 115.454491 314.000000
-38.202507 115.966148 314.000000
-50.774925 41.802559 423.000000
-50.774925 42.491833 423.000000
-50.774925 43.181107 423.000000
-50.654892 43.766666 422.000000
-50.534855 44.348972 421.000000
-50.534855 45.034985 421.000000
-50.534855 45.721001 421.000000
-50.414822 46.296780 420.000000
-50.294785 46.869308 419.000000
-50.294785 47.552063 419.000000
-50.294785 48.234818 419.000000
-50.174751 48.800823 418.000000
-50.174751 49.481949 418.000000
-50.054714 50.043068 417.000000
-50.054714 50.722565 417.000000
-50.054714 51.402061 417.000000
-49.934681 51.956661 416.000000
-49.934681 52.634529 416.000000
-49.934681 53.312397 416.000000
-49.934681 53.990261 416.000000
-49.814648 54.536713 415.000000
-49.814648 55.212952 415.000000
-49.814648 55.889187 415.000000
-49.814648 56.565426 415.000000
-49.814648 57.241665 415.000000
-49.694611 57.778336 414.000000
-49.574577 58.311760 413.000000
-49.574577 58.984737 413.000000
-49.454540 59.513264 412.000000
-49.334507 60.038532 411.000000
-49.334507 60.708252 411.000000
-49.334507 61.377972 411.000000
-49.334507 62.047691 411.000000
-49.334507 62.717407 411.000000
-49.214470 63.232899 410.000000
-49.214470 63.900990 410.000000
-49.094437 64.411598 409.000000
-49.094437 65.078056 409.000000
-49.094437 65.744522 409.000000
-48.854362 66.086227 407.000000
-48.854362 66.749428 407.000000
-48.854362 67.412628 407.000000
-48.734325 67.908577 406.000000
-48.734325 68.570145 406.000000
-48.734325 69.231720 406.000000
-48.614292 69.721138 405.000000
-48.614292 70.381081 405.000000
-48.494255 70.865608 404.000000
-48.374222 71.346886 403.000000
-48.374222 72.003571 403.000000
-48.254185 72.479958 402.000000
-48.134151 72.953079 401.000000
-48.134151 73.606506 401.000000
-48.134151 74.259926 401.000000
-48.014118 74.726532 400.000000
-48.014118 75.378326 400.000000
-47.774048 75.649979 398.000000
-47.654011 76.106804 397.000000
-47.654011 76.753708 397.000000
-47.533978 77.205658 396.000000
-47.413940 77.654343 395.000000
-47.413940 78.297989 395.000000
-47.870071 79.701073 398.799988
-47.870071 80.350914 398.799988
-47.870071 81.000748 398.799988
-47.819656 81.564598 398.380005
-47.776207 82.139053 398.018005
-47.740410 82.725586 397.719788
-47.740410 83.373672 397.719788
-47.701038 83.952446 397.391785
-47.669727 84.544472 397.130951
-47.669727 85.191589 397.130951
-47.659828 85.820877 397.048462
-47.672413 86.490700 397.153320
-47.672413 87.137856 397.153320
-47.698261 87.832611 397.368652
-47.726692 88.532852 397.605499
-47.726692 89.180748 397.605499
-47.726692 89.828644 397.605499
-47.712357 90.449356 397.486053
-47.712357 91.097054 397.486053
-47.701626 91.724113 397.396667
-47.694164 92.357231 397.334534
-47.694164 93.004677 397.334534
-47.689541 93.643051 397.295990
-47.690258 94.291855 397.301971
-47.690258 94.939255 397.301971
-47.690258 95.586655 397.301971
-47.486794 95.823479 395.606934
-47.486794 96.468117 395.606934
-44.459763 90.922333 370.389099
-44.255577 91.105537 368.688049
-44.255577 91.706306 368.688049
-44.046902 91.871826 366.949585
-43.812275 91.977203 364.994934
-43.812275 92.571960 364.994934
-43.470936 92.440857 362.151276
-43.241264 92.539467 360.237915
-43.656746 94.021271 363.699249
-43.656746 94.613914 363.699249
-43.656746 95.206551 363.699249
-43.036118 94.437309 358.528870
-43.036118 95.021523 358.528870
-42.452858 94.310028 353.669830
-41.901752 93.654549 349.078613
-41.901752 94.223366 349.078613
-40.908775 92.545815 340.806213
-40.838776 92.941856 340.223083
-40.838776 93.496246 340.223083
-40.714054 93.763405 339.184021
-40.710781 94.308525 339.156769
-40.710781 94.861176 339.156769
-40.413231 94.716454 336.677917
-38.771397 91.394821 323.000000
-38.771397 91.921143 323.000000
-38.651363 92.161255 322.000000
-38.531326 92.398102 321.000000
-38.531326 92.921165 321.000000
-38.411293 93.153130 320.000000
-38.411293 93.674568 320.000000
-38.411293 94.196007 320.000000
-38.291260 94.421448 319.000000
-38.171223 94.643631 318.000000
-38.171223 95.161804 318.000000
-38.171223 95.679985 318.000000
-38.051189 95.895653 317.000000
-38.051189 96.412193 317.000000
-38.051189 96.928741 317.000000
-38.051189 97.445290 317.000000
-38.051189 97.961838 317.000000
-37.931152 98.167732 316.000000
-37.931152 98.682655 316.000000
-37.931152 99.197571 316.000000
-37.811119 99.396942 315.000000
-37.691082 99.593048 314.000000
-37.691082 100.104713 314.000000
-37.691082 100.616371 314.000000
-37.691082 101.128029 314.000000
-37.691082 101.639687 314.000000
-37.571049 101.826027 313.000000
-37.571049 102.336060 313.000000
-37.571049 102.846085 313.000000
-37.571049 103.356117 313.000000
-37.571049 103.866150 313.000000
-37.571049 104.376175 313.000000
-37.451012 104.551102 312.000000
-37.451012 105.059502 312.000000
-37.451012 105.567902 312.000000
-37.451012 106.076302 312.000000
-37.451012 106.584702 312.000000
-37.451012 107.093102 312.000000
-37.451012 107.601501 312.000000
-37.451012 108.109901 312.000000
-37.451012 108.618301 312.000000
-37.451012 109.126701 312.000000
-37.451012 109.635101 312.000000
-37.451012 110.143501 312.000000
-37.451012 110.651901 312.000000
-37.451012 111.160301 312.000000
-37.571049 112.026619 313.000000
-37.571049 112.536652 313.000000
-37.571049 113.046677 313.000000
-37.571049 113.556709 313.000000
-37.571049 114.066734 313.000000
-37.571049 114.576767 313.000000
-37.571049 115.086800 313.000000
-37.571049 115.596825 313.000000
-50.085968 41.802559 423.000000
-50.085968 42.491833 423.000000
-50.085968 43.181107 423.000000
-49.967564 43.766666 422.000000
-49.849155 44.348972 421.000000
-49.849155 45.034985 421.000000
-49.849155 45.721001 421.000000
-49.730751 46.296780 420.000000
-49.612343 46.869308 419.000000
-49.612343 47.552063 419.000000
-49.612343 48.234818 419.000000
-49.493938 48.800823 418.000000
-49.493938 49.481949 418.000000
-49.375530 50.043068 417.000000
-49.375530 50.722565 417.000000
-49.375530 51.402061 417.000000
-49.257126 51.956661 416.000000
-49.257126 52.634529 416.000000
-49.257126 53.312397 416.000000
-49.257126 53.990261 416.000000
-49.138718 54.536713 415.000000
-49.138718 55.212952 415.000000
-49.138718 55.889187 415.000000
-49.138718 56.565426 415.000000
-49.138718 57.241665 415.000000
-49.020309 57.778336 414.000000
-48.901905 58.311760 413.000000
-48.901905 58.984737 413.000000
-48.783497 59.513264 412.000000
-48.665092 60.038532 411.000000
-48.665092 60.708252 411.000000
-48.665092 61.377972 411.000000
-48.665092 62.047691 411.000000
-48.665092 62.717407 411.000000
-48.546684 63.232899 410.000000
-48.546684 63.900990 410.000000
-48.428280 64.411598 409.000000
-48.428280 65.078056 409.000000
-48.309872 65.583771 408.000000
-48.191467 66.086227 407.000000
-48.191467 66.749428 407.000000
-48.191467 67.412628 407.000000
-48.073059 67.908577 406.000000
-48.073059 68.570145 406.000000
-47.954655 69.061195 405.000000
-47.954655 69.721138 405.000000
-47.954655 70.381081 405.000000
-47.836246 70.865608 404.000000
-47.717838 71.346886 403.000000
-47.717838 72.003571 403.000000
-47.481026 72.299652 401.000000
-47.481026 72.953079 401.000000
-47.481026 73.606506 401.000000
-47.481026 74.259926 401.000000
-47.362621 74.726532 400.000000
-47.362621 75.378326 400.000000
-47.125809 75.649979 398.000000
-46.888996 75.915108 396.000000
-46.888996 76.560379 396.000000
-46.770588 77.010696 395.000000
-46.652180 77.457748 394.000000
-46.652180 78.099762 394.000000
-47.149487 79.581161 398.200012
-47.149487 80.230026 398.200012
-47.149487 80.878883 398.200012
-47.092655 81.429474 397.720001
-47.053814 82.009857 397.391998
-47.011093 82.582359 397.031189
-47.011093 83.229317 397.031189
-46.964100 83.792427 396.634308
-46.924252 84.367088 396.297760
-46.924252 85.012856 396.297760
-46.905602 85.624580 396.140289
-46.905602 86.270081 396.140289
-46.905602 86.915588 396.140289
-46.897411 87.545807 396.071106
-46.933777 88.259575 396.378204
-46.933777 88.905472 396.378204
-46.933777 89.551361 396.378204
-46.912205 90.155800 396.196014
-46.912205 90.801392 396.196014
-46.894157 91.411812 396.043610
-46.878193 92.025818 395.908783
-46.878193 92.670952 395.908783
-46.864902 93.289619 395.796539
-46.854980 93.914688 395.712769
-46.854980 94.559494 395.712769
-46.848057 95.190231 395.654266
-46.842453 95.823479 395.606934
-46.842453 96.468117 395.606934
-43.741932 90.684822 369.421570
-43.571091 90.930252 367.978699
-43.571091 91.529861 367.978699
-43.363750 91.691078 366.227631
-43.162907 91.860405 364.531433
-43.162907 92.454399 364.531433
-42.881081 92.440857 362.151276
-42.654526 92.539467 360.237915
-43.064373 94.021271 363.699249
-43.064373 94.613914 363.699249
-43.064373 95.206551 363.699249
-42.452168 94.437309 358.528870
-42.452168 95.021523 358.528870
-41.876545 94.309402 353.667480
-41.876545 94.885696 353.667480
-41.876545 95.461998 353.667480
-40.678185 93.290001 343.546722
-40.474430 93.379723 341.825928
-40.474430 93.936722 341.825928
-40.474430 94.493721 341.825928
-40.158382 94.308525 339.156769
-40.158382 94.861176 339.156769
-39.864872 94.716454 336.677917
-38.245316 91.394821 323.000000
-38.245316 91.921143 323.000000
-38.008499 91.875038 321.000000
-37.890095 92.110260 320.000000
-37.890095 92.631699 320.000000
-37.890095 93.153130 320.000000
-37.771690 93.381836 319.000000
-37.771690 93.901642 319.000000
-37.771690 94.421448 319.000000
-37.653282 94.643631 318.000000
-37.653282 95.161804 318.000000
-37.653282 95.679985 318.000000
-37.534878 95.895653 317.000000
-37.534878 96.412193 317.000000
-37.534878 96.928741 317.000000
-37.534878 97.445290 317.000000
-37.534878 97.961838 317.000000
-37.416470 98.167732 316.000000
-37.416470 98.682655 316.000000
-37.416470 99.197571 316.000000
-37.298065 99.396942 315.000000
-37.179657 99.593048 314.000000
-37.179657 100.104713 314.000000
-37.179657 100.616371 314.000000
-37.179657 101.128029 314.000000
-37.179657 101.639687 314.000000
-37.061253 101.826027 313.000000
-37.061253 102.336060 313.000000
-37.061253 102.846085 313.000000
-36.942844 103.025902 312.000000
-36.942844 103.534302 312.000000
-36.942844 104.042702 312.000000
-36.942844 104.551102 312.000000
-36.942844 105.059502 312.000000
-36.942844 105.567902 312.000000
-36.942844 106.076302 312.000000
-36.824436 106.243088 311.000000
-36.824436 106.749855 311.000000
-36.824436 107.256622 311.000000
-36.824436 107.763397 311.000000
-36.824436 108.270164 311.000000
-36.824436 108.776939 311.000000
-36.824436 109.283707 311.000000
-36.942844 110.143501 312.000000
-36.942844 110.651901 312.000000
-36.942844 111.160301 312.000000
-36.942844 111.668701 312.000000
-36.942844 112.177101 312.000000
-36.942844 112.685509 312.000000
-37.061253 113.556709 313.000000
-37.061253 114.066734 313.000000
-37.061253 114.576767 313.000000
-37.061253 115.086800 313.000000
-37.061253 115.596825 313.000000
-49.397011 41.802559 423.000000
