3.056894 93.244400 354.000000
3.056894 93.821236 354.000000
3.056894 94.398071 354.000000
3.048258 94.706619 353.000000
3.048258 95.281830 353.000000
3.030988 95.313942 351.000000
3.030988 95.885895 351.000000
3.030988 96.457840 351.000000
3.030988 97.029793 351.000000
3.022352 97.323669 350.000000
3.022352 97.893990 350.000000
3.005082 97.901657 348.000000
2.996447 98.185768 347.000000
2.996447 98.751198 347.000000
2.987811 99.030411 346.000000
2.979176 99.306374 345.000000
2.979176 99.868546 345.000000
2.970541 100.139618 344.000000
2.961905 100.407425 343.000000
2.961905 100.966339 343.000000
2.961905 101.525253 343.000000
2.944635 101.488922 341.000000
2.944635 102.044579 341.000000
2.936000 102.299355 340.000000
2.927364 102.550873 339.000000
2.927364 103.103264 339.000000
2.927364 103.655663 339.000000
2.910094 103.593262 337.000000
2.910094 104.142403 337.000000
2.901458 104.380882 336.000000
2.892823 104.616096 335.000000
2.892823 105.161980 335.000000
2.875552 105.076767 333.000000
2.858282 104.985031 331.000000
2.858282 105.524391 331.000000
2.849647 105.743324 330.000000
2.841011 105.958984 329.000000
2.832376 106.171394 328.000000
2.832376 106.705864 328.000000
2.823741 106.913391 327.000000
2.815105 107.117645 326.000000
2.815105 107.648865 326.000000
2.763294 106.189034 320.000000
2.754658 106.376999 319.000000
2.754658 106.896805 319.000000
2.754658 107.416611 319.000000
2.746023 107.598053 318.000000
2.746023 108.116234 318.000000
2.737388 108.292786 317.000000
2.737388 108.809334 317.000000
2.737388 109.325882 317.000000
2.728753 109.495926 316.000000
2.711482 109.314583 314.000000
2.711482 109.826241 314.000000
2.711482 110.337898 314.000000
2.711482 110.849556 314.000000
2.711482 111.361214 314.000000
2.702847 111.516586 313.000000
2.694211 111.668701 312.000000
2.694211 112.177101 312.000000
2.685576 112.324333 311.000000
2.685576 112.831100 311.000000
2.685576 113.337875 311.000000
2.676941 113.478584 310.000000
2.676941 113.983719 310.000000
2.676941 114.488861 310.000000
2.676941 114.994003 310.000000
2.668305 115.126564 309.000000
2.668305 115.630081 309.000000
2.659670 115.757751 308.000000
2.659670 116.259636 308.000000
2.659670 116.761513 308.000000
2.659670 117.263397 308.000000
2.651035 117.382935 307.000000
2.651035 117.883186 307.000000
2.651035 118.383438 307.000000
2.642400 118.496445 306.000000
2.642400 118.995071 306.000000
2.642400 119.493690 306.000000
2.642400 119.992317 306.000000
2.642400 120.490944 306.000000
2.642400 120.989563 306.000000
2.633764 121.091164 305.000000
2.633764 121.588158 305.000000
2.633764 122.085152 305.000000
2.633764 122.582146 305.000000
2.633764 123.079140 305.000000
2.633764 123.576134 305.000000
2.633764 124.073128 305.000000
2.633764 124.570122 305.000000
2.633764 125.067116 305.000000
2.633764 125.564110 305.000000
2.633764 126.061104 305.000000
2.633764 126.558098 305.000000
2.633764 127.055092 305.000000
2.625129 127.133873 304.000000
2.625129 127.629242 304.000000
2.625129 128.124603 304.000000
2.625129 128.619965 304.000000
2.625129 129.115326 304.000000
2.625129 129.610703 304.000000
2.625129 130.106064 304.000000
2.625129 130.601425 304.000000
2.625129 131.096786 304.000000
2.625129 131.592148 304.000000
2.625129 132.087524 304.000000
2.625129 132.582886 304.000000
2.625129 133.078247 304.000000
2.625129 133.573608 304.000000
2.625129 134.068970 304.000000
2.625129 134.564346 304.000000
2.625129 135.059708 304.000000
2.625129 135.555069 304.000000
2.625129 136.050430 304.000000
2.625129 136.545792 304.000000
2.625129 137.041153 304.000000
2.625129 137.536530 304.000000
2.616494 137.577835 303.000000
2.616494 138.071564 303.000000
2.616494 138.565308 303.000000
2.616494 139.059036 303.000000
2.616494 139.552780 303.000000
2.616494 140.046509 303.000000
2.616494 140.540237 303.000000
2.616494 141.033981 303.000000
2.616494 141.527710 303.000000
2.616494 142.021439 303.000000
2.616494 142.515182 303.000000
2.616494 143.008911 303.000000
2.616494 143.502655 303.000000
2.616494 143.996384 303.000000
2.616494 144.490112 303.000000
2.616494 144.983856 303.000000
2.616494 145.477585 303.000000
2.616494 145.971329 303.000000
2.616494 146.465057 303.000000
2.616494 146.958786 303.000000
2.616494 147.452530 303.000000
2.607858 147.457993 302.000000
2.607858 147.950089 302.000000
2.607858 148.442200 302.000000
2.607858 148.934311 302.000000
2.607858 149.426407 302.000000
2.607858 149.918518 302.000000
2.607858 150.410614 302.000000
2.607858 150.902725 302.000000
2.607858 151.394836 302.000000
2.607858 151.886932 302.000000
2.607858 152.379044 302.000000
2.607858 152.871140 302.000000
2.607858 153.363251 302.000000
2.607858 153.855362 302.000000
2.607858 154.347458 302.000000
2.607858 154.839569 302.000000
2.607858 155.331665 302.000000
2.607858 155.823776 302.000000
2.599223 155.798279 301.000000
2.599223 156.288757 301.000000
2.599223 156.779236 301.000000
2.599223 157.269699 301.000000
2.599223 157.760178 301.000000
2.599223 158.250656 301.000000
2.599223 158.741135 301.000000
2.599223 159.231613 301.000000
2.599223 159.722076 301.000000
2.599223 160.212555 301.000000
2.599223 160.703033 301.000000
2.599223 161.193512 301.000000
2.599223 161.683990 301.000000
2.599223 162.174469 301.000000
2.599223 162.664932 301.000000
2.599223 163.155411 301.000000
2.599223 163.645889 301.000000
2.599223 164.136368 301.000000
2.599223 164.626846 301.000000
2.599223 165.117310 301.000000
2.599223 165.607788 301.000000
2.599223 166.098267 301.000000
2.599223 166.588745 301.000000
2.599223 167.079224 301.000000
2.599223 167.569687 301.000000
2.599223 168.060165 301.000000
2.599223 168.550644 301.000000
2.599223 169.041122 301.000000
2.599223 169.531601 301.000000
2.599223 170.022079 301.000000
2.599223 170.512543 301.000000
2.599223 171.003021 301.000000
2.599223 171.493500 301.000000
2.599223 171.983978 301.000000
2.599223 172.474457 301.000000
2.599223 172.964920 301.000000
2.599223 173.455399 301.000000
2.599223 173.945877 301.000000
2.599223 174.436356 301.000000
2.590588 174.345688 300.000000
2.590588 174.834534 300.000000
2.590588 175.323380 300.000000
2.590588 175.812225 300.000000
2.590588 176.301071 300.000000
2.590588 176.789917 300.000000
2.590588 177.278763 300.000000
2.590588 177.767609 300.000000
2.590588 178.256454 300.000000
2.590588 178.745300 300.000000
2.590588 179.234146 300.000000
2.590588 179.722992 300.000000
2.590588 180.211838 300.000000
2.590588 180.700684 300.000000
2.591913 181.282227 300.153473
2.591913 181.771317 300.153473
2.591913 182.260406 300.153473
2.592397 182.783630 300.209503
2.592397 183.272812 300.209503
2.592397 183.761993 300.209503
2.584543 183.692978 299.299988
2.590588 184.611465 300.000000
2.590588 185.100311 300.000000
2.590588 185.589157 300.000000
2.589111 185.971909 299.828949
2.590533 186.562897 299.993652
2.590533 187.051727 299.993652
2.590533 187.540558 299.993652
2.590528 188.029053 299.993103
2.590528 188.517883 299.993103
2.590523 189.006332 299.992462
2.590436 189.488846 299.982483
2.590436 189.977661 299.982483
2.590436 190.466492 299.982483
2.591013 190.997833 300.049286
2.591013 191.486755 300.049286
2.591837 192.036713 300.144684
2.591951 192.534241 300.157837
2.591951 193.023346 300.157837
2.607858 194.700089 302.000000
2.607858 195.192184 302.000000
2.607858 195.684296 302.000000
2.592534 195.023590 300.225311
2.583312 194.817398 299.157471
2.583312 195.304871 299.157471
2.576730 195.293472 298.395233
2.576730 195.779709 298.395233
2.576730 196.265930 298.395233
2.563604 195.749878 296.875153
2.562751 196.168381 296.776428
2.558326 196.312393 296.263977
4.213386 18.493410 410.500000
4.213386 19.162315 410.500000
4.213386 19.831219 410.500000
4.204534 20.457052 409.637512
4.204534 21.124552 409.637512
4.204534 21.792051 409.637512
4.202910 22.450880 409.479370
4.202910 23.118120 409.479370
4.202910 23.785360 409.479370
4.203979 24.458822 409.583496
4.203979 25.126232 409.583496
4.203979 25.793644 409.583496
4.203979 26.461054 409.583496
4.203979 27.128466 409.583496
4.203979 27.795877 409.583496
4.204006 28.463469 409.586090
4.204006 29.130884 409.586090
4.204006 29.798298 409.586090
4.203364 30.461067 409.523590
4.202889 31.124857 409.477264
4.202889 31.792097 409.477264
4.202880 32.459270 409.476471
4.206851 33.157803 409.863312
4.206851 33.825668 409.863312
4.206851 34.493534 409.863312
4.214097 35.221970 410.569305
4.214097 35.890987 410.569305
4.214187 36.560780 410.578003
4.214187 37.229813 410.578003
4.214187 37.898842 410.578003
4.211262 38.541111 410.293091
4.203029 39.133018 409.490906
4.203029 39.800278 409.490906
4.199102 40.429733 409.108337
4.199102 41.096367 409.108337
4.199102 41.763008 409.108337
4.198723 42.425816 409.071442
4.198323 43.088287 409.032471
4.198323 43.754799 409.032471
4.197867 44.416489 408.988068
4.197355 45.077427 408.938110
4.178504 45.538338 407.101471
4.178504 46.201706 407.101471
4.178504 46.865070 407.101471
4.175028 47.488899 406.762817
4.175028 48.151718 406.762817
4.167472 48.726192 406.026703
4.157146 49.265430 405.020630
4.157146 49.925407 405.020630
4.152707 50.531376 404.588226
4.143586 51.078205 403.699524
4.143586 51.736031 403.699524
4.138531 52.329937 403.207031
4.138512 52.986717 403.205231
4.138512 53.643734 403.205231
4.136358 54.272488 402.995331
4.132724 54.880905 402.641266
4.132724 55.537003 402.641266
4.132724 56.193100 402.641266
4.128053 56.784946 402.186218
4.128053 57.440308 402.186218
4.121766 58.007183 401.573700
4.133640 58.830540 402.730560
4.133640 59.486786 402.730560
4.133640 60.143028 402.730560
4.131733 60.771229 402.544800
4.131733 61.427174 402.544800
4.130548 62.065304 402.429321
4.129750 62.708939 402.351563
4.079133 62.587929 397.420074
4.079133 63.235516 397.420074
4.117508 64.484093 401.158813
4.117508 65.137772 401.158813
4.117508 65.791458 401.158813
4.115986 66.420586 401.010559
4.114779 67.054367 400.893005
4.114779 67.707611 400.893005
4.114081 68.349258 400.824951
4.091097 68.616905 398.585693
4.091097 69.266396 398.585693
4.067378 69.510536 396.274811
4.067990 70.166809 396.334381
4.067990 70.812630 396.334381
4.067990 71.458450 396.334381
4.044819 71.693581 394.076935
4.044819 72.335724 394.076935
4.000405 72.176529 389.749756
3.978777 72.417976 387.642609
3.978777 73.049629 387.642609
3.948315 73.117188 384.674805
3.921946 73.251495 382.105713
3.921946 73.874130 382.105713
3.859277 73.306381 376.000000
3.849013 73.722473 375.000000
3.849013 74.333534 375.000000
3.838749 74.744736 374.000000
3.838749 75.354164 374.000000
3.838749 75.963593 374.000000
3.828485 76.368279 373.000000
3.818221 76.769707 372.000000
3.818221 77.375877 372.000000
3.797693 77.562790 370.000000
3.797693 78.165703 370.000000
3.787429 78.555717 369.000000
3.787429 79.156998 369.000000
3.787429 79.758286 369.000000
3.766901 79.924011 367.000000
3.766901 80.522034 367.000000
3.766901 81.120056 367.000000
3.756637 81.495415 366.000000
3.756637 82.091805 366.000000
3.746372 82.462273 365.000000
3.746372 83.057030 365.000000
3.746372 83.651794 365.000000
3.736109 84.015747 364.000000
3.725845 84.376442 363.000000
3.725845 84.967941 363.000000
3.715580 85.323746 362.000000
3.715580 85.913620 362.000000
3.715580 86.503494 362.000000
3.705316 86.852783 361.000000
3.705316 87.441025 361.000000
3.705316 88.029274 361.000000
3.695052 88.372040 360.000000
3.684788 88.711548 359.000000
3.684788 89.296532 359.000000
3.674525 89.631157 358.000000
3.674525 90.214508 358.000000
3.674525 90.797867 358.000000
3.664260 91.125969 357.000000
3.653996 91.450806 356.000000
3.653996 92.030907 356.000000
3.643732 92.350861 355.000000
3.633468 92.667557 354.000000
3.633468 93.244400 354.000000
3.633468 93.821236 354.000000
3.623204 94.131409 353.000000
3.612940 94.438324 352.000000
3.612940 95.011909 352.000000
3.602676 95.313942 351.000000
3.602676 95.885895 351.000000
3.602676 96.457840 351.000000
3.602676 97.029793 351.000000
3.592412 97.323669 350.000000
3.592412 97.893990 350.000000
3.571884 97.901657 348.000000
3.561620 98.185768 347.000000
3.561620 98.751198 347.000000
3.551356 99.030411 346.000000
3.541092 99.306374 345.000000
3.541092 99.868546 345.000000
3.530828 100.139618 344.000000
3.520564 100.407425 343.000000
3.520564 100.966339 343.000000
3.510300 101.229263 342.000000
3.500036 101.488922 341.000000
3.500036 102.044579 341.000000
3.489772 102.299355 340.000000
3.489772 102.853378 340.000000
3.489772 103.407410 340.000000
3.479508 103.655663 339.000000
3.458979 103.593262 337.000000
3.458979 104.142403 337.000000
3.448715 104.380882 336.000000
3.438452 104.616096 335.000000
3.438452 105.161980 335.000000
3.417923 105.076767 333.000000
3.407659 105.302208 332.000000
3.397395 105.524391 331.000000
3.397395 106.063751 331.000000
3.376867 105.958984 329.000000
3.366603 106.171394 328.000000
3.366603 106.705864 328.000000
3.356339 106.913391 327.000000
3.346075 107.117645 326.000000
3.346075 107.648865 326.000000
3.284491 106.189034 320.000000
3.274227 106.376999 319.000000
3.274227 106.896805 319.000000
3.274227 107.416611 319.000000
3.263963 107.598053 318.000000
3.263963 108.116234 318.000000
3.253699 108.292786 317.000000
3.253699 108.809334 317.000000
3.253699 109.325882 317.000000
3.243435 109.495926 316.000000
3.233171 109.662704 315.000000
3.233171 110.175995 315.000000
3.222907 110.337898 314.000000
3.222907 110.849556 314.000000
3.222907 111.361214 314.000000
3.212643 111.516586 313.000000
3.202379 111.668701 312.000000
3.202379 112.177101 312.000000
3.202379 112.685509 312.000000
3.192115 112.831100 311.000000
3.192115 113.337875 311.000000
3.192115 113.844643 311.000000
3.181851 113.983719 310.000000
3.181851 114.488861 310.000000
3.181851 114.994003 310.000000
3.171587 115.126564 309.000000
3.171587 115.630081 309.000000
3.161323 115.757751 308.000000
3.161323 116.259636 308.000000
3.161323 116.761513 308.000000
3.161323 117.263397 308.000000
3.151059 117.382935 307.000000
3.151059 117.883186 307.000000
3.151059 118.383438 307.000000
3.140795 118.496445 306.000000
3.140795 118.995071 306.000000
3.140795 119.493690 306.000000
3.140795 119.992317 306.000000
3.140795 120.490944 306.000000
3.140795 120.989563 306.000000
3.130530 121.091164 305.000000
3.130530 121.588158 305.000000
3.130530 122.085152 305.000000
3.130530 122.582146 305.000000
3.130530 123.079140 305.000000
3.130530 123.576134 305.000000
3.130530 124.073128 305.000000
3.130530 124.570122 305.000000
3.130530 125.067116 305.000000
3.130530 125.564110 305.000000
3.130530 126.061104 305.000000
3.130530 126.558098 305.000000
3.130530 127.055092 305.000000
3.120266 127.133873 304.000000
3.120266 127.629242 304.000000
3.120266 128.124603 304.000000
3.120266 128.619965 304.000000
3.120266 129.115326 304.000000
3.120266 129.610703 304.000000
3.120266 130.106064 304.000000
3.120266 130.601425 304.000000
3.120266 131.096786 304.000000
3.120266 131.592148 304.000000
3.120266 132.087524 304.000000
3.120266 132.582886 304.000000
3.120266 133.078247 304.000000
3.120266 133.573608 304.000000
3.120266 134.068970 304.000000
3.120266 134.564346 304.000000
3.120266 135.059708 304.000000
3.120266 135.555069 304.000000
3.120266 136.050430 304.000000
3.120266 136.545792 304.000000
3.120266 137.041153 304.000000
3.110003 137.084106 303.000000
3.110003 137.577835 303.000000
3.110003 138.071564 303.000000
3.110003 138.565308 303.000000
3.110003 139.059036 303.000000
3.110003 139.552780 303.000000
3.110003 140.046509 303.000000
3.110003 140.540237 303.000000
3.110003 141.033981 303.000000
3.110003 141.527710 303.000000
3.110003 142.021439 303.000000
3.110003 142.515182 303.000000
3.110003 143.008911 303.000000
3.110003 143.502655 303.000000
3.110003 143.996384 303.000000
3.110003 144.490112 303.000000
3.110003 144.983856 303.000000
3.110003 145.477585 303.000000
3.110003 145.971329 303.000000
3.099738 145.981674 302.000000
3.099738 146.473785 302.000000
3.099738 146.965881 302.000000
3.099738 147.457993 302.000000
3.099738 147.950089 302.000000
3.099738 148.442200 302.000000
3.099738 148.934311 302.000000
3.099738 149.426407 302.000000
3.099738 149.918518 302.000000
3.099738 150.410614 302.000000
3.099738 150.902725 302.000000
3.099738 151.394836 302.000000
3.099738 151.886932 302.000000
3.099738 152.379044 302.000000
3.099738 152.871140 302.000000
3.089474 152.855423 301.000000
3.089474 153.345901 301.000000
3.089474 153.836380 301.000000
3.089474 154.326843 301.000000
3.089474 154.817322 301.000000
3.089474 155.307800 301.000000
3.079210 155.280685 300.000000
3.079210 155.769531 300.000000
3.079210 156.258377 300.000000
3.079210 156.747223 300.000000
3.079210 157.236069 300.000000
3.079210 157.724915 300.000000
3.079210 158.213760 300.000000
3.079210 158.702606 300.000000
3.089474 159.722076 301.000000
3.089474 160.212555 301.000000
3.089474 160.703033 301.000000
3.089474 161.193512 301.000000
3.089474 161.683990 301.000000
3.089474 162.174469 301.000000
3.089474 162.664932 301.000000
3.089474 163.155411 301.000000
3.089474 163.645889 301.000000
3.089474 164.136368 301.000000
3.089474 164.626846 301.000000
3.089474 165.117310 301.000000
3.089474 165.607788 301.000000
3.089474 166.098267 301.000000
3.079210 166.035309 300.000000
3.079210 166.524155 300.000000
3.079210 167.013000 300.000000
3.079210 167.501846 300.000000
3.079210 167.990692 300.000000
3.079210 168.479538 300.000000
3.079210 168.968384 300.000000
3.079210 169.457230 300.000000
3.079210 169.946075 300.000000
3.079210 170.434921 300.000000
3.079210 170.923767 300.000000
3.079210 171.412613 300.000000
3.079210 171.901459 300.000000
3.079210 172.390305 300.000000
3.079210 172.879150 300.000000
3.079210 173.367996 300.000000
3.079210 173.856842 300.000000
3.068946 173.764542 299.000000
3.068946 174.251755 299.000000
3.068946 174.738968 299.000000
3.068946 175.226181 299.000000
3.068946 175.713394 299.000000
3.068946 176.200623 299.000000
3.079210 177.278763 300.000000
3.079210 177.767609 300.000000
3.079210 178.256454 300.000000
3.079210 178.745300 300.000000
3.079210 179.234146 300.000000
3.079210 179.722992 300.000000
3.068946 179.611130 299.000000
3.068946 180.098358 299.000000
3.068946 180.585571 299.000000
3.068946 181.072784 299.000000
3.068946 181.559998 299.000000
3.068946 182.047226 299.000000
3.068946 182.534439 299.000000
3.068946 183.021652 299.000000
3.072025 183.692978 299.299988
3.072333 184.199142 299.329987
3.072333 184.686905 299.329987
3.072333 185.174652 299.329987
3.071646 185.620865 299.263000
3.071646 186.108505 299.263000
3.070889 186.550201 299.189301
3.070168 186.993805 299.119049
3.070290 187.488678 299.130951
3.070290 187.976105 299.130951
3.070425 188.471786 299.144043
3.070573 188.968338 299.158447
3.070573 189.455811 299.158447
3.070735 189.953339 299.174286
3.070914 190.451935 299.191711
3.070914 190.939453 299.191711
3.070914 191.426987 299.191711
3.070803 191.907593 299.180908
3.070803 192.395096 299.180908
3.070650 192.873001 299.165985
3.070550 193.354202 299.156281
3.070550 193.841675 299.156281
3.070563 194.329926 299.157471
3.070563 194.817398 299.157471
3.070563 195.304871 299.157471
3.056819 194.916016 297.818512
3.056819 195.401306 297.818512
3.056819 195.886612 297.818512
3.056633 196.359955 297.800385
3.056428 196.831985 297.780396
3.035594 196.936035 295.750549
4.881985 17.824505 410.500000
4.881985 18.493410 410.500000
4.881985 19.162315 410.500000
4.881985 19.831219 410.500000
4.872974 20.462290 409.742371
4.872974 21.129959 409.742371
4.871983 21.793196 409.659027
4.868470 22.444532 409.363617
4.868470 23.111586 409.363617
4.868470 23.778639 409.363617
4.872378 24.465315 409.692230
4.872378 25.132902 409.692230
4.872378 25.800491 409.692230
4.872378 26.468081 409.692230
4.872378 27.135668 409.692230
4.872378 27.803255 409.692230
4.872378 28.470846 409.692230
4.871418 29.132689 409.611450
4.871418 29.800144 409.611450
4.870445 30.461525 409.529755
4.870193 31.127232 409.508484
4.870193 31.794519 409.508484
4.870330 32.462727 409.520050
4.870615 33.131973 409.544067
4.870615 33.799324 409.544067
4.871253 34.471176 409.597626
4.871253 35.138611 409.597626
4.871253 35.806046 409.597626
4.871140 36.472637 409.588165
4.871017 37.139114 409.577759
4.871017 37.806515 409.577759
4.870881 38.472843 409.566315
4.870730 39.139019 409.553711
4.870730 39.806385 409.553711
4.870683 40.473354 409.549744
4.870733 41.141125 409.553894
4.870733 41.808491 409.553894
4.870804 42.476479 409.559937
4.870852 43.144268 409.563904
4.870875 43.811863 409.565887
4.870875 44.479244 409.565887
4.870875 45.146626 409.565887
4.870838 45.813652 409.562714
4.870838 46.481030 409.562714
4.870807 47.148117 409.560181
4.837539 47.488899 406.762817
4.837539 48.151718 406.762817
4.862468 49.066082 408.858948
4.862468 49.732315 408.858948
4.862468 50.398540 408.858948
4.861649 51.056168 408.790039
4.860745 51.712677 408.714081
4.860745 52.378670 408.714081
4.859746 53.033764 408.630096
4.858640 53.687401 408.537109
4.858640 54.353111 408.537109
4.857419 55.004990 408.434448
4.856073 55.655102 408.321289
4.856073 56.320454 408.321289
4.854597 56.968487 408.197144
4.797203 56.952255 403.371185
4.797203 57.609547 403.371185
4.845864 58.857864 407.462799
4.845864 59.521820 407.462799
4.845864 60.185776 407.462799
4.844203 60.828884 407.323181
4.842459 61.470470 407.176514
4.842459 62.133957 407.176514
4.840630 62.773727 407.022736
4.838718 63.411915 406.862000
4.836726 64.048508 406.694489
4.836726 64.711212 406.694489
4.834657 65.345947 406.520508
4.832516 65.979134 406.340424
4.832516 66.641258 406.340424
4.833618 67.318741 406.433105
4.837970 68.042221 406.799042
4.837970 68.705093 406.799042
4.837970 69.367973 406.799042
4.803953 69.538452 403.938782
4.803953 70.196663 403.938782
4.771919 70.382393 401.245209
4.741568 70.584404 398.693146
4.741568 71.234062 398.693146
4.713516 71.458450 396.334381
4.686668 71.693581 394.076935
4.686668 72.335724 394.076935
4.635206 72.176529 389.749756
4.610147 72.417976 387.642609
4.610147 73.049629 387.642609
4.574851 73.117188 384.674805
4.544298 73.251495 382.105713
4.544298 73.874130 382.105713
4.471684 73.306381 376.000000
4.459791 73.722473 375.000000
4.459791 74.333534 375.000000
4.447898 74.744736 374.000000
4.447898 75.354164 374.000000
4.447898 75.963593 374.000000
4.436005 76.368279 373.000000
4.412220 76.563339 371.000000
4.412220 77.167877 371.000000
4.400327 77.562790 370.000000
4.400327 78.165703 370.000000
4.388434 78.555717 369.000000
4.388434 79.156998 369.000000
4.376542 79.542137 368.000000
4.364649 79.924011 367.000000
4.364649 80.522034 367.000000
4.364649 81.120056 367.000000
4.352756 81.495415 366.000000
4.352756 82.091805 366.000000
4.340863 82.462273 365.000000
4.340863 83.057030 365.000000
4.340863 83.651794 365.000000
4.328970 84.015747 364.000000
4.317078 84.376442 363.000000
4.317078 84.967941 363.000000
4.305185 85.323746 362.000000
4.305185 85.913620 362.000000
4.305185 86.503494 362.000000
4.293292 86.852783 361.000000
4.293292 87.441025 361.000000
4.293292 88.029274 361.000000
4.269506 88.126556 359.000000
4.257614 88.464439 358.000000
4.257614 89.047798 358.000000
4.257614 89.631157 358.000000
4.245721 89.962517 357.000000
4.245721 90.544243 357.000000
4.245721 91.125969 357.000000
4.221936 91.193924 355.000000
4.221936 91.772392 355.000000
4.221936 92.350861 355.000000
4.210042 92.667557 354.000000
4.210042 93.244400 354.000000
4.210042 93.821236 354.000000
4.198150 94.131409 353.000000
4.186257 94.438324 352.000000
4.186257 95.011909 352.000000
4.174365 95.313942 351.000000
4.174365 95.885895 351.000000
4.174365 96.457840 351.000000
4.162472 96.753349 350.000000
4.150578 97.045601 349.000000
4.150578 97.614296 349.000000
4.138686 97.901657 348.000000
4.126793 98.185768 347.000000
4.126793 98.751198 347.000000
4.114900 99.030411 346.000000
4.103008 99.306374 345.000000
4.103008 99.868546 345.000000
4.091115 100.139618 344.000000
4.079222 100.407425 343.000000
4.079222 100.966339 343.000000
4.067329 101.229263 342.000000
4.055437 101.488922 341.000000
4.055437 102.044579 341.000000
4.043544 102.299355 340.000000
4.043544 102.853378 340.000000
4.043544 103.407410 340.000000
4.031651 103.655663 339.000000
4.007865 103.593262 337.000000
4.007865 104.142403 337.000000
3.995973 104.380882 336.000000
3.984080 104.616096 335.000000
3.984080 105.161980 335.000000
3.960294 105.076767 333.000000
3.948402 105.302208 332.000000
3.936509 105.524391 331.000000
3.936509 106.063751 331.000000
3.912723 105.958984 329.000000
3.900831 106.171394 328.000000
3.900831 106.705864 328.000000
3.900831 107.240341 328.000000
3.888938 107.446236 327.000000
3.888938 107.979073 327.000000
3.805688 106.189034 320.000000
3.793796 106.376999 319.000000
3.793796 106.896805 319.000000
3.793796 107.416611 319.000000
3.781903 107.598053 318.000000
3.781903 108.116234 318.000000
3.770010 108.292786 317.000000
3.770010 108.809334 317.000000
3.770010 109.325882 317.000000
3.758117 109.495926 316.000000
3.746224 109.662704 315.000000
3.746224 110.175995 315.000000
3.734331 110.337898 314.000000
3.734331 110.849556 314.000000
3.734331 111.361214 314.000000
3.734331 111.872871 314.000000
3.722439 112.026619 313.000000
3.722439 112.536652 313.000000
3.710546 112.685509 312.000000
3.698653 112.831100 311.000000
3.698653 113.337875 311.000000
3.698653 113.844643 311.000000
3.686761 113.983719 310.000000
3.686761 114.488861 310.000000
3.686761 114.994003 310.000000
3.686761 115.499146 310.000000
3.686761 116.004288 310.000000
3.674868 116.133591 309.000000
3.662975 116.259636 308.000000
3.662975 116.761513 308.000000
3.662975 117.263397 308.000000
3.662975 117.765282 308.000000
3.651082 117.883186 307.000000
3.651082 118.383438 307.000000
3.651082 118.883690 307.000000
3.639189 118.995071 306.000000
3.639189 119.493690 306.000000
3.639189 119.992317 306.000000
3.639189 120.490944 306.000000
3.639189 120.989563 306.000000
3.639189 121.488190 306.000000
3.627296 121.588158 305.000000
3.627296 122.085152 305.000000
3.627296 122.582146 305.000000
3.627296 123.079140 305.000000
3.627296 123.576134 305.000000
3.627296 124.073128 305.000000
3.627296 124.570122 305.000000
3.627296 125.067116 305.000000
3.627296 125.564110 305.000000
3.627296 126.061104 305.000000
3.627296 126.558098 305.000000
3.627296 127.055092 305.000000
3.615404 127.133873 304.000000
3.615404 127.629242 304.000000
3.615404 128.124603 304.000000
3.615404 128.619965 304.000000
3.615404 129.115326 304.000000
3.615404 129.610703 304.000000
3.615404 130.106064 304.000000
3.615404 130.601425 304.000000
3.615404 131.096786 304.000000
3.615404 131.592148 304.000000
3.615404 132.087524 304.000000
3.615404 132.582886 304.000000
3.615404 133.078247 304.000000
3.615404 133.573608 304.000000
3.615404 134.068970 304.000000
3.615404 134.564346 304.000000
3.615404 135.059708 304.000000
3.615404 135.555069 304.000000
3.615404 136.050430 304.000000
3.615404 136.545792 304.000000
3.615404 137.041153 304.000000
3.603511 137.084106 303.000000
3.603511 137.577835 303.000000
3.603511 138.071564 303.000000
3.603511 138.565308 303.000000
3.603511 139.059036 303.000000
3.603511 139.552780 303.000000
3.603511 140.046509 303.000000
3.603511 140.540237 303.000000
3.603511 141.033981 303.000000
3.603511 141.527710 303.000000
3.603511 142.021439 303.000000
3.603511 142.515182 303.000000
3.603511 143.008911 303.000000
3.603511 143.502655 303.000000
3.603511 143.996384 303.000000
3.603511 144.490112 303.000000
3.603511 144.983856 303.000000
3.603511 145.477585 303.000000
3.603511 145.971329 303.000000
3.591619 145.981674 302.000000
3.591619 146.473785 302.000000
3.591619 146.965881 302.000000
3.591619 147.457993 302.000000
3.591619 147.950089 302.000000
3.591619 148.442200 302.000000
3.591619 148.934311 302.000000
3.591619 149.426407 302.000000
3.591619 149.918518 302.000000
3.591619 150.410614 302.000000
3.591619 150.902725 302.000000
3.591619 151.394836 302.000000
3.591619 151.886932 302.000000
3.591619 152.379044 302.000000
3.591619 152.871140 302.000000
3.579726 152.855423 301.000000
3.579726 153.345901 301.000000
3.579726 153.836380 301.000000
3.579726 154.326843 301.000000
3.579726 154.817322 301.000000
3.579726 155.307800 301.000000
3.567833 155.280685 300.000000
3.567833 155.769531 300.000000
3.567833 156.258377 300.000000
3.567833 156.747223 300.000000
3.567833 157.236069 300.000000
3.567833 157.724915 300.000000
3.567833 158.213760 300.000000
3.567833 158.702606 300.000000
3.579726 159.722076 301.000000
3.579726 160.212555 301.000000
3.579726 160.703033 301.000000
3.579726 161.193512 301.000000
3.579726 161.683990 301.000000
3.579726 162.174469 301.000000
3.579726 162.664932 301.000000
3.579726 163.155411 301.000000
3.579726 163.645889 301.000000
3.579726 164.136368 301.000000
3.579726 164.626846 301.000000
3.579726 165.117310 301.000000
3.579726 165.607788 301.000000
3.579726 166.098267 301.000000
3.567833 166.035309 300.000000
3.567833 166.524155 300.000000
3.567833 167.013000 300.000000
3.567833 167.501846 300.000000
3.567833 167.990692 300.000000
3.567833 168.479538 300.000000
3.567833 168.968384 300.000000
3.555940 168.892365 299.000000
3.555940 169.379578 299.000000
3.555940 169.866806 299.000000
3.555940 170.354019 299.000000
3.555940 170.841232 299.000000
3.555940 171.328445 299.000000
3.555940 171.815674 299.000000
3.544047 171.726624 298.000000
3.544047 172.212204 298.000000
3.544047 172.697800 298.000000
3.544047 173.183380 298.000000
3.544047 173.668961 298.000000
3.544047 174.154556 298.000000
3.544047 174.640137 298.000000
3.544047 175.125732 298.000000
3.544047 175.611313 298.000000
3.544047 176.096909 298.000000
3.544047 176.582489 298.000000
3.544047 177.068085 298.000000
3.544047 177.553665 298.000000
3.544047 178.039246 298.000000
3.544047 178.524841 298.000000
3.544047 179.010422 298.000000
3.544047 179.496017 298.000000
3.544047 179.981598 298.000000
3.544047 180.467194 298.000000
3.544047 180.952774 298.000000
3.544047 181.438370 298.000000
3.544047 181.923950 298.000000
3.544047 182.409531 298.000000
3.544047 182.895126 298.000000
3.544047 183.380707 298.000000
3.544047 183.866302 298.000000
3.544047 184.351883 298.000000
3.544047 184.837479 298.000000
3.544047 185.323059 298.000000
3.544047 185.808655 298.000000
3.544047 186.294235 298.000000
3.544047 186.779816 298.000000
3.544047 187.265411 298.000000
3.544047 187.750992 298.000000
3.544047 188.236588 298.000000
3.544047 188.722168 298.000000
3.544047 189.207764 298.000000
3.544047 189.693344 298.000000
3.544047 190.178940 298.000000
3.544047 190.664520 298.000000
3.544047 191.150101 298.000000
3.544047 191.635696 298.000000
3.544047 192.121277 298.000000
3.544047 192.606873 298.000000
3.544047 193.092453 298.000000
3.544047 193.578049 298.000000
3.544047 194.063629 298.000000
3.544047 194.549225 298.000000
3.541889 194.916016 297.818512
3.541889 195.401306 297.818512
3.541889 195.886612 297.818512
3.541673 196.359955 297.800385
3.541436 196.831985 297.780396
3.519349 196.086609 295.923218
5.550583 17.824505 410.500000
5.550583 18.493410 410.500000
5.550583 19.162315 410.500000
5.550583 19.831219 410.500000
5.540339 20.462290 409.742371
5.540339 21.129959 409.742371
5.539212 21.793196 409.659027
5.535217 22.444532 409.363617
5.535217 23.111586 409.363617
5.535217 23.778639 409.363617
5.539660 24.465315 409.692230
5.539660 25.132902 409.692230
5.539660 25.800491 409.692230
5.539660 26.468081 409.692230
5.539660 27.135668 409.692230
5.539660 27.803255 409.692230
5.539660 28.470846 409.692230
5.538568 29.132689 409.611450
5.538568 29.800144 409.611450
5.537464 30.461525 409.529755
5.537176 31.127232 409.508484
5.537176 31.794519 409.508484
5.537333 32.462727 409.520050
5.537657 33.131973 409.544067
5.537657 33.799324 409.544067
5.538382 34.471176 409.597626
5.538382 35.138611 409.597626
5.538382 35.806046 409.597626
5.538253 36.472637 409.588165
5.538113 37.139114 409.577759
5.538113 37.806515 409.577759
5.537958 38.472843 409.566315
5.537788 39.139019 409.553711
5.537788 39.806385 409.553711
5.537734 40.473354 409.549744
5.537790 41.141125 409.553894
5.537790 41.808491 409.553894
5.537872 42.476479 409.559937
5.537925 43.144268 409.563904
5.537952 43.811863 409.565887
5.537952 44.479244 409.565887
5.537952 45.146626 409.565887
5.537910 45.813652 409.562714
5.537910 46.481030 409.562714
5.537875 47.148117 409.560181
5.495580 47.450298 406.432190
5.495580 48.112579 406.432190
5.528393 49.066082 408.858948
5.528393 49.732315 408.858948
5.528393 50.398540 408.858948
5.527462 51.056168 408.790039
5.526434 51.712677 408.714081
5.526434 52.378670 408.714081
5.525299 53.033764 408.630096
5.524042 53.687401 408.537109
5.524042 54.353111 408.537109
5.522654 55.004990 408.434448
5.521123 55.655102 408.321289
5.521123 56.320454 408.321289
5.519445 56.968487 408.197144
5.454191 56.952255 403.371185
5.454191 57.609547 403.371185
5.521801 58.989117 408.371429
5.521801 59.654552 408.371429
5.521801 60.319988 408.371429
5.520883 60.975285 408.303528
5.519893 61.629547 408.230255
5.519893 62.294754 408.230255
5.518821 62.947746 408.151031
5.517660 63.599434 408.065125
5.502934 64.092857 406.976074
5.502934 64.756020 406.976074
5.502934 65.419182 406.976074
5.500220 66.049751 406.775330
5.500220 66.712585 406.775330
5.497237 67.338890 406.554779
5.500540 68.042221 406.799042
5.500540 68.705093 406.799042
5.500540 69.367973 406.799042
5.461865 69.538452 403.938782
5.461865 70.196663 403.938782
5.425444 70.382393 401.245209
5.390936 70.584404 398.693146
5.390936 71.234062 398.693146
5.359042 71.458450 396.334381
5.328518 71.693581 394.076935
5.328518 72.335724 394.076935
5.294367 72.510147 391.551239
5.241516 72.417976 387.642609
5.241516 73.049629 387.642609
5.201387 73.117188 384.674805
5.166649 73.251495 382.105713
5.166649 73.874130 382.105713
5.070569 73.111420 375.000000
5.057048 73.525879 374.000000
5.057048 74.135307 374.000000
5.057048 74.744736 374.000000
5.043526 75.152679 373.000000
5.043526 75.760483 373.000000
5.043526 76.368279 373.000000
5.016483 76.563339 371.000000
5.016483 77.167877 371.000000
5.002961 77.562790 370.000000
4.989440 77.954437 369.000000
4.975918 78.342834 368.000000
4.975918 78.942490 368.000000
4.962397 79.325989 367.000000
4.962397 79.924011 367.000000
4.962397 80.522034 367.000000
4.948875 80.899017 366.000000
4.935354 81.272743 365.000000
4.935354 81.867508 365.000000
4.935354 82.462273 365.000000
4.921833 82.829483 364.000000
4.921833 83.422615 364.000000
4.908311 83.784935 363.000000
4.908311 84.376442 363.000000
4.908311 84.967941 363.000000
4.894789 85.323746 362.000000
4.894789 85.913620 362.000000
4.894789 86.503494 362.000000
4.881268 86.852783 361.000000
4.867746 87.198807 360.000000
4.867746 87.785423 360.000000
4.854225 88.126556 359.000000
4.840703 88.464439 358.000000
4.840703 89.047798 358.000000
4.840703 89.631157 358.000000
4.827182 89.962517 357.000000
4.827182 90.544243 357.000000
4.827182 91.125969 357.000000
4.800139 91.193924 355.000000
4.800139 91.772392 355.000000
4.800139 92.350861 355.000000
4.786617 92.667557 354.000000
4.786617 93.244400 354.000000
4.786617 93.821236 354.000000
4.773096 94.131409 353.000000
4.759574 94.438324 352.000000
4.759574 95.011909 352.000000
4.746053 95.313942 351.000000
4.732531 95.612709 350.000000
4.732531 96.183029 350.000000
4.732531 96.753349 350.000000
4.719009 97.045601 349.000000
4.719009 97.614296 349.000000
4.705488 97.901657 348.000000
4.691967 98.185768 347.000000
4.691967 98.751198 347.000000
4.678445 99.030411 346.000000
4.664923 99.306374 345.000000
4.664923 99.868546 345.000000
4.651402 100.139618 344.000000
4.637881 100.407425 343.000000
4.637881 100.966339 343.000000
4.624359 101.229263 342.000000
4.610837 101.488922 341.000000
4.610837 102.044579 341.000000
4.597316 102.299355 340.000000
4.597316 102.853378 340.000000
4.597316 103.407410 340.000000
4.583795 103.655663 339.000000
4.556751 103.593262 337.000000
4.556751 104.142403 337.000000
4.543230 104.380882 336.000000
4.529708 104.616096 335.000000
4.529708 105.161980 335.000000
4.502665 105.076767 333.000000
4.489144 105.302208 332.000000
4.475622 105.524391 331.000000
4.475622 106.063751 331.000000
4.448579 105.958984 329.000000
4.448579 106.495087 329.000000
4.448579 107.031181 329.000000
4.435058 107.240341 328.000000
4.421536 107.446236 327.000000
4.421536 107.979073 327.000000
4.408015 108.180077 326.000000
4.326886 106.710464 320.000000
4.326886 107.231903 320.000000
4.313364 107.416611 319.000000
4.299843 107.598053 318.000000
4.299843 108.116234 318.000000
4.286321 108.292786 317.000000
4.286321 108.809334 317.000000
4.286321 109.325882 317.000000
4.272799 109.495926 316.000000
4.259278 109.662704 315.000000
4.259278 110.175995 315.000000
4.245756 110.337898 314.000000
4.245756 110.849556 314.000000
4.245756 111.361214 314.000000
4.245756 111.872871 314.000000
4.232235 112.026619 313.000000
4.232235 112.536652 313.000000
4.218713 112.685509 312.000000
4.205192 112.831100 311.000000
4.205192 113.337875 311.000000
4.205192 113.844643 311.000000
4.205192 114.351418 311.000000
4.205192 114.858185 311.000000
4.191670 114.994003 310.000000
4.191670 115.499146 310.000000
4.191670 116.004288 310.000000
4.191670 116.509430 310.000000
4.178149 116.637100 309.000000
4.178149 117.140610 309.000000
4.178149 117.644127 309.000000
4.164628 117.765282 308.000000
4.164628 118.267159 308.000000
4.164628 118.769043 308.000000
4.151106 118.883690 307.000000
4.151106 119.383949 307.000000
4.151106 119.884201 307.000000
4.137584 119.992317 306.000000
4.137584 120.490944 306.000000
4.137584 120.989563 306.000000
4.137584 121.488190 306.000000
4.137584 121.986809 306.000000
4.137584 122.485435 306.000000
4.124063 122.582146 305.000000
4.124063 123.079140 305.000000
4.124063 123.576134 305.000000
4.124063 124.073128 305.000000
4.124063 124.570122 305.000000
4.124063 125.067116 305.000000
4.124063 125.564110 305.000000
4.124063 126.061104 305.000000
4.124063 126.558098 305.000000
4.124063 127.055092 305.000000
4.124063 127.552078 305.000000
4.124063 128.049072 305.000000
4.124063 128.546066 305.000000
4.124063 129.043060 305.000000
4.124063 129.540054 305.000000
4.124063 130.037048 305.000000
4.124063 130.534042 305.000000
4.124063 131.031036 305.000000
4.124063 131.528030 305.000000
4.124063 132.025024 305.000000
4.110541 132.087524 304.000000
4.110541 132.582886 304.000000
4.110541 133.078247 304.000000
4.110541 133.573608 304.000000
4.110541 134.068970 304.000000
4.110541 134.564346 304.000000
4.110541 135.059708 304.000000
4.110541 135.555069 304.000000
4.110541 136.050430 304.000000
4.110541 136.545792 304.000000
4.110541 137.041153 304.000000
4.097020 137.084106 303.000000
4.097020 137.577835 303.000000
4.097020 138.071564 303.000000
4.097020 138.565308 303.000000
4.097020 139.059036 303.000000
4.097020 139.552780 303.000000
4.097020 140.046509 303.000000
4.097020 140.540237 303.000000
4.097020 141.033981 303.000000
4.097020 141.527710 303.000000
4.097020 142.021439 303.000000
4.097020 142.515182 303.000000
4.097020 143.008911 303.000000
4.097020 143.502655 303.000000
4.097020 143.996384 303.000000
4.097020 144.490112 303.000000
4.097020 144.983856 303.000000
4.083498 144.997467 302.000000
4.083498 145.489563 302.000000
4.083498 145.981674 302.000000
4.083498 146.473785 302.000000
4.083498 146.965881 302.000000
4.083498 147.457993 302.000000
4.083498 147.950089 302.000000
4.083498 148.442200 302.000000
4.083498 148.934311 302.000000
4.083498 149.426407 302.000000
4.083498 149.918518 302.000000
4.069977 149.912567 301.000000
4.069977 150.403046 301.000000
4.069977 150.893524 301.000000
4.069977 151.384003 301.000000
4.069977 151.874466 301.000000
4.069977 152.364944 301.000000
4.069977 152.855423 301.000000
4.069977 153.345901 301.000000
4.069977 153.836380 301.000000
4.056455 153.814148 300.000000
4.056455 154.302994 300.000000
4.056455 154.791840 300.000000
4.056455 155.280685 300.000000
4.056455 155.769531 300.000000
4.056455 156.258377 300.000000
4.056455 156.747223 300.000000
4.056455 157.236069 300.000000
4.056455 157.724915 300.000000
4.056455 158.213760 300.000000
4.056455 158.702606 300.000000
4.056455 159.191452 300.000000
4.056455 159.680298 300.000000
4.056455 160.169144 300.000000
4.056455 160.657990 300.000000
4.056455 161.146835 300.000000
4.056455 161.635681 300.000000
4.056455 162.124527 300.000000
4.056455 162.613373 300.000000
4.056455 163.102219 300.000000
4.056455 163.591064 300.000000
4.056455 164.079926 300.000000
4.056455 164.568771 300.000000
4.056455 165.057617 300.000000
4.056455 165.546463 300.000000
4.056455 166.035309 300.000000
4.056455 166.524155 300.000000
4.056455 167.013000 300.000000
4.056455 167.501846 300.000000
4.056455 167.990692 300.000000
4.056455 168.479538 300.000000
4.056455 168.968384 300.000000
4.042934 168.892365 299.000000
4.042934 169.379578 299.000000
4.042934 169.866806 299.000000
4.042934 170.354019 299.000000
4.042934 170.841232 299.000000
4.042934 171.328445 299.000000
4.042934 171.815674 299.000000
4.029412 171.726624 298.000000
4.029412 172.212204 298.000000
4.029412 172.697800 298.000000
4.029412 173.183380 298.000000
4.029412 173.668961 298.000000
4.029412 174.154556 298.000000
4.029412 174.640137 298.000000
4.029412 175.125732 298.000000
4.029412 175.611313 298.000000
4.029412 176.096909 298.000000
4.029412 176.582489 298.000000
4.029412 177.068085 298.000000
4.029412 177.553665 298.000000
4.029412 178.039246 298.000000
4.029412 178.524841 298.000000
4.029412 179.010422 298.000000
4.029412 179.496017 298.000000
4.029412 179.981598 298.000000
4.029412 180.467194 298.000000
4.029412 180.952774 298.000000
4.029412 181.438370 298.000000
4.029412 181.923950 298.000000
4.029412 182.409531 298.000000
4.029412 182.895126 298.000000
4.029412 183.380707 298.000000
4.029412 183.866302 298.000000
4.029412 184.351883 298.000000
4.029412 184.837479 298.000000
4.029412 185.323059 298.000000
4.029412 185.808655 298.000000
4.029412 186.294235 298.000000
4.029412 186.779816 298.000000
4.029412 187.265411 298.000000
4.029412 187.750992 298.000000
4.029412 188.236588 298.000000
4.029412 188.722168 298.000000
4.029412 189.207764 298.000000
4.029412 189.693344 298.000000
4.029412 190.178940 298.000000
4.029412 190.664520 298.000000
4.029412 191.150101 298.000000
4.029412 191.635696 298.000000
4.029412 192.121277 298.000000
4.029412 192.606873 298.000000
4.029412 193.092453 298.000000
4.029412 193.578049 298.000000
4.029412 194.063629 298.000000
4.029412 194.549225 298.000000
4.026958 194.916016 297.818512
4.026958 195.401306 297.818512
4.026958 195.886612 297.818512
4.026713 196.359955 297.800385
4.026443 196.831985 297.780396
4.015399 196.776031 296.963654
3.993671 196.673782 295.356720
6.219182 17.824505 410.500000
6.219182 18.493410 410.500000
6.219182 19.162315 410.500000
6.218099 19.827768 410.428558
6.207840 20.462740 409.751404
6.207840 21.130424 409.751404
6.206440 21.793196 409.659027
6.200698 22.439947 409.279999
6.200698 23.106865 409.279999
6.200698 23.773781 409.279999
6.206943 24.465315 409.692230
6.206943 25.132902 409.692230
6.206943 25.800491 409.692230
6.206943 26.468081 409.692230
6.206943 27.135668 409.692230
6.206943 27.803255 409.692230
6.206943 28.470846 409.692230
6.205719 29.132689 409.611450
6.205719 29.800144 409.611450
6.204482 30.461525 409.529755
6.204160 31.127232 409.508484
6.204160 31.794519 409.508484
6.204335 32.462727 409.520050
6.204699 33.131973 409.544067
6.204699 33.799324 409.544067
6.205510 34.471176 409.597626
6.205510 35.138611 409.597626
6.205510 35.806046 409.597626
6.205367 36.472637 409.588165
6.205209 37.139114 409.577759
6.205209 37.806515 409.577759
6.205036 38.472843 409.566315
6.204845 39.139019 409.553711
6.204845 39.806385 409.553711
6.204785 40.473354 409.549744
6.204848 41.141125 409.553894
6.204848 41.808491 409.553894
6.204939 42.476479 409.559937
6.204999 43.144268 409.563904
6.205029 43.811863 409.565887
6.205029 44.479244 409.565887
6.205029 45.146626 409.565887
6.204981 45.813652 409.562714
6.204981 46.481030 409.562714
6.204943 47.148117 409.560181
6.195046 47.739220 408.906921
6.195046 48.405529 408.906921
6.197222 49.089077 409.050568
6.197222 49.755619 409.050568
6.197222 50.422161 409.050568
6.197002 51.086891 409.036041
6.196798 51.751705 409.022552
6.196798 52.418201 409.022552
6.196610 53.083092 409.010193
6.196442 53.748112 408.999084
6.196442 54.414574 408.999084
6.196303 55.079792 408.989899
6.196205 55.745350 408.983398
6.196205 56.411781 408.983398
6.196198 57.078156 408.982941
6.196198 57.744583 408.982941
6.196198 58.411018 408.982941
6.186933 58.989117 408.371429
6.186933 59.654552 408.371429
6.186933 60.319988 408.371429
6.185904 60.975285 408.303528
6.184794 61.629547 408.230255
6.184794 62.294754 408.230255
6.183594 62.947746 408.151031
6.182292 63.599434 408.065125
6.165793 64.092857 406.976074
6.165793 64.756020 406.976074
6.165793 65.419182 406.976074
6.162752 66.049751 406.775330
6.162752 66.712585 406.775330
6.159410 67.338890 406.554779
6.163111 68.042221 406.799042
6.163111 68.705093 406.799042
6.163111 69.367973 406.799042
6.119777 69.538452 403.938782
6.119777 70.196663 403.938782
6.078969 70.382393 401.245209
6.040305 70.584404 398.693146
6.040305 71.234062 398.693146
5.994063 71.333435 395.640991
5.958647 71.552841 393.303314
5.958647 72.193718 393.303314
5.932103 72.510147 391.551239
5.863930 72.307533 387.051453
5.863930 72.938225 387.051453
5.818632 73.000626 384.061584
5.781053 73.150940 381.581146
5.781053 73.772720 381.581146
5.681347 73.111420 375.000000
5.666197 73.525879 374.000000
5.666197 74.135307 374.000000
5.666197 74.744736 374.000000
5.651046 75.152679 373.000000
5.651046 75.760483 373.000000
5.651046 76.368279 373.000000
5.620746 76.563339 371.000000
5.620746 77.167877 371.000000
5.605596 77.562790 370.000000
5.590446 77.954437 369.000000
5.560145 78.129944 367.000000
5.560145 78.727966 367.000000
5.560145 79.325989 367.000000
5.544995 79.706238 366.000000
5.544995 80.302628 366.000000
5.544995 80.899017 366.000000
5.529844 81.272743 365.000000
5.529844 81.867508 365.000000
5.529844 82.462273 365.000000
5.514694 82.829483 364.000000
5.514694 83.422615 364.000000
5.499544 83.784935 363.000000
5.484394 84.143997 362.000000
5.484394 84.733871 362.000000
5.484394 85.323746 362.000000
5.484394 85.913620 362.000000
5.484394 86.503494 362.000000
5.469244 86.852783 361.000000
5.454093 87.198807 360.000000
5.454093 87.785423 360.000000
5.438943 88.126556 359.000000
5.423793 88.464439 358.000000
5.423793 89.047798 358.000000
5.408642 89.380783 357.000000
5.408642 89.962517 357.000000
5.408642 90.544243 357.000000
5.393492 90.870712 356.000000
5.378342 91.193924 355.000000
5.378342 91.772392 355.000000
5.363192 92.090721 354.000000
5.363192 92.667557 354.000000
5.348042 92.980995 353.000000
5.348042 93.556198 353.000000
5.348042 94.131409 353.000000
5.332891 94.438324 352.000000
5.332891 95.011909 352.000000
5.317741 95.313942 351.000000
5.302591 95.612709 350.000000
5.302591 96.183029 350.000000
5.302591 96.753349 350.000000
5.287440 97.045601 349.000000
5.287440 97.614296 349.000000
5.272290 97.901657 348.000000
5.257140 98.185768 347.000000
5.257140 98.751198 347.000000
5.241990 99.030411 346.000000
5.226839 99.306374 345.000000
5.226839 99.868546 345.000000
5.211689 100.139618 344.000000
5.196539 100.407425 343.000000
5.196539 100.966339 343.000000
5.181389 101.229263 342.000000
5.151088 101.191307 340.000000
5.151088 101.745331 340.000000
5.151088 102.299355 340.000000
5.151088 102.853378 340.000000
5.151088 103.407410 340.000000
5.135938 103.655663 339.000000
5.105637 103.593262 337.000000
5.105637 104.142403 337.000000
5.090487 104.380882 336.000000
5.075337 104.616096 335.000000
5.075337 105.161980 335.000000
5.045036 105.076767 333.000000
5.029886 105.302208 332.000000
5.014736 105.524391 331.000000
5.014736 106.063751 331.000000
4.984435 105.958984 329.000000
4.984435 106.495087 329.000000
4.984435 107.031181 329.000000
4.969285 107.240341 328.000000
4.954135 107.446236 327.000000
4.954135 107.979073 327.000000
4.938984 108.180077 326.000000
4.884763 107.517815 322.421051
