82.720512 58.760334 381.000000
82.720512 59.381168 381.000000
82.720512 60.002003 381.000000
82.720512 61.864506 381.000000
82.720512 62.485340 381.000000
82.720512 63.106174 381.000000
82.720512 63.727009 381.000000
82.720512 64.347847 381.000000
82.720512 64.968681 381.000000
82.720512 65.589516 381.000000
82.720512 66.210350 381.000000
82.720512 66.831184 381.000000
82.741188 67.468880 381.095245
82.741188 68.089867 381.095245
82.815857 68.772865 381.439148
82.880997 69.448997 381.739166
82.880997 70.071037 381.739166
82.880997 70.693077 381.739166
82.747795 71.200493 381.125641
82.747795 71.821541 381.125641
82.750519 72.444962 381.138184
82.753525 73.068672 381.152008
82.753525 73.689751 381.152008
82.756821 74.313797 381.167206
82.760452 74.938194 381.183929
82.760452 75.559326 381.183929
82.764442 76.184143 381.202332
82.771942 76.812256 381.236847
82.775017 77.436348 381.251007
82.775017 78.057602 381.251007
82.775017 78.678841 381.251007
82.770927 79.296173 381.232208
82.770927 79.917389 381.232208
82.761131 80.529068 381.187073
82.762466 81.151520 381.193237
82.762466 81.772667 381.193237
82.763664 82.395004 381.198730
82.763664 83.016159 381.198730
82.763664 83.637321 381.198730
83.341064 58.760334 381.000000
83.341064 59.381168 381.000000
83.341064 60.002003 381.000000
83.341064 61.864506 381.000000
83.341064 62.485340 381.000000
83.341064 63.106174 381.000000
83.341064 63.727009 381.000000
83.341064 64.347847 381.000000
83.341064 64.968681 381.000000
83.341064 65.589516 381.000000
83.341064 66.210350 381.000000
83.341064 66.831184 381.000000
83.361900 67.468880 381.095245
83.361900 68.089867 381.095245
83.437126 68.772865 381.439148
83.502754 69.448997 381.739166
83.502754 70.071037 381.739166
83.502754 70.693077 381.739166
83.368546 71.200493 381.125641
83.368546 71.821541 381.125641
83.371292 72.444962 381.138184
83.374313 73.068672 381.152008
83.374313 73.689751 381.152008
83.377640 74.313797 381.167206
83.381302 74.938194 381.183929
83.381302 75.559326 381.183929
83.385330 76.184143 381.202332
83.392876 76.812256 381.236847
83.395973 77.436348 381.251007
83.395973 78.057602 381.251007
83.395973 78.678841 381.251007
83.391861 79.296173 381.232208
83.391861 79.917389 381.232208
83.381989 80.529068 381.187073
83.383339 81.151520 381.193237
83.383339 81.772667 381.193237
83.581543 82.589676 382.099365
83.581543 83.212296 382.099365
83.581543 83.834930 382.099365
83.581543 84.457550 382.099365
83.581543 85.080185 382.099365
83.581543 85.702805 382.099365
82.198639 25.920982 373.000000
82.198639 26.528782 373.000000
82.198639 27.136580 373.000000
84.203880 82.589676 382.099365
84.203880 83.212296 382.099365
84.203880 83.834930 382.099365
84.203880 84.457550 382.099365
84.203880 85.080185 382.099365
84.203880 85.702805 382.099365
82.584167 25.245319 372.000000
82.806160 25.920982 373.000000
82.806160 26.528782 373.000000
82.806160 27.136580 373.000000
84.826225 82.589676 382.099365
84.826225 83.212296 382.099365
84.826225 83.834930 382.099365
84.826225 84.457550 382.099365
84.826225 85.080185 382.099365
84.826225 85.702805 382.099365
83.190056 25.245319 372.000000
83.413681 25.920982 373.000000
83.413681 26.528782 373.000000
83.413681 27.136580 373.000000
85.448570 83.212296 382.099365
85.448570 83.834930 382.099365
85.448570 84.457550 382.099365
85.448570 85.080185 382.099365
85.448570 85.702805 382.099365
85.448570 86.325432 382.099365
82.669655 -28.915966 367.000000
82.669655 -28.317944 367.000000
82.669655 -27.719923 367.000000
82.669655 -25.327835 367.000000
82.669655 -24.729813 367.000000
82.669655 -24.131792 367.000000
83.795944 25.245319 372.000000
84.021202 25.920982 373.000000
84.021202 26.528782 373.000000
84.021202 27.136580 373.000000
77.038208 27.667683 342.000000
77.038208 28.224968 342.000000
77.038208 28.782253 342.000000
86.070915 84.457550 382.099365
86.070915 85.080185 382.099365
86.070915 85.702805 382.099365
86.070915 86.325432 382.099365
84.174957 -30.440205 371.000000
84.174957 -29.835665 371.000000
84.174957 -29.231125 371.000000
83.569923 -28.420828 368.333344
83.569923 -27.820633 368.333344
83.267403 -25.327835 367.000000
83.267403 -24.729813 367.000000
83.267403 -24.131792 367.000000
84.174957 25.177456 371.000000
84.401840 25.851490 372.000000
84.401840 26.457659 372.000000
84.401840 27.063828 372.000000
77.368355 27.031130 341.000000
77.595238 27.667683 342.000000
77.595238 28.224968 342.000000
77.595238 28.782253 342.000000
77.595238 29.339537 342.000000
77.595238 29.896822 342.000000
86.693253 84.457550 382.099365
86.693253 85.080185 382.099365
86.693253 85.702805 382.099365
86.693253 86.325432 382.099365
84.779221 -30.440205 371.000000
84.779221 -29.835665 371.000000
84.779221 -29.231125 371.000000
84.169846 -28.420828 368.333344
84.169846 -27.820633 368.333344
83.865150 -25.327835 367.000000
83.865150 -24.729813 367.000000
83.865150 -24.131792 367.000000
84.779221 25.177456 371.000000
85.007729 25.851490 372.000000
85.007729 26.457659 372.000000
85.007729 27.063828 372.000000
77.923752 27.031130 341.000000
78.152267 27.667683 342.000000
78.152267 28.224968 342.000000
78.152267 28.782253 342.000000
78.152267 29.339537 342.000000
78.152267 29.896822 342.000000
87.315590 85.080185 382.099365
87.315590 85.702805 382.099365
87.315590 86.325432 382.099365
87.315590 86.948059 382.099365
87.315590 87.570679 382.099365
86.304054 -31.379461 375.000000
86.304054 -30.768404 375.000000
86.304054 -30.157347 375.000000
85.997192 -29.441235 373.666656
84.769760 -28.420828 368.333344
84.769760 -27.820633 368.333344
84.462898 -25.327835 367.000000
84.462898 -24.729813 367.000000
84.462898 -24.131792 367.000000
78.479156 27.031130 341.000000
78.479156 27.586784 341.000000
78.479156 28.142441 341.000000
78.709297 28.782253 342.000000
78.709297 29.339537 342.000000
78.709297 29.896822 342.000000
87.937935 85.080185 382.099365
87.937935 85.702805 382.099365
87.937935 86.325432 382.099365
87.937935 86.948059 382.099365
87.937935 87.570679 382.099365
86.914833 -31.379461 375.000000
86.914833 -30.768404 375.000000
86.914833 -30.157347 375.000000
86.605797 -29.441235 373.666656
79.034554 27.586784 341.000000
79.034554 28.142441 341.000000
79.034554 28.698095 341.000000
88.560272 85.080185 382.099365
88.560272 85.702805 382.099365
88.560272 86.325432 382.099365
88.560272 86.948059 382.099365
88.560272 87.570679 382.099365
87.084702 86.723854 375.732910
87.525612 -31.379461 375.000000
87.525612 -30.768404 375.000000
87.525612 -30.157347 375.000000
87.214409 -29.441235 373.666656
89.182617 86.325432 382.099365
89.182617 86.948059 382.099365
89.182617 87.570679 382.099365
87.696678 86.723854 375.732910
85.292709 84.942024 365.433228
85.292709 85.537491 365.433228
88.136391 -31.379461 375.000000
88.136391 -30.768404 375.000000
88.136391 -30.157347 375.000000
89.781601 57.047169 382.000000
89.781601 57.669632 382.000000
89.781601 58.292095 382.000000
89.781601 58.914562 382.000000
89.781601 67.629059 382.000000
89.781601 68.251526 382.000000
90.251663 69.234581 384.000000
90.721725 70.224159 386.000000
90.721725 70.853142 386.000000
90.721725 71.482124 386.000000
88.308647 84.887093 375.732910
88.308647 85.499352 375.732910
88.308647 86.111603 375.732910
88.308647 86.723854 375.732910
85.887909 84.942024 365.433228
85.887909 85.537491 365.433228
88.747169 -31.379461 375.000000
88.747169 -30.768404 375.000000
88.747169 -30.157347 375.000000
89.457138 55.217922 378.000000
89.457138 55.833870 378.000000
90.403778 57.047169 382.000000
90.403778 57.669632 382.000000
90.403778 58.292095 382.000000
90.403778 58.914562 382.000000
90.403778 67.629059 382.000000
90.403778 68.251526 382.000000
90.877098 69.234581 384.000000
91.350418 70.224159 386.000000
91.350418 70.853142 386.000000
91.350418 71.482124 386.000000
87.295609 83.936859 368.866455
87.295609 84.537926 368.866455
87.295609 85.138992 368.866455
86.483101 84.942024 365.433228
86.483101 85.537491 365.433228
89.357948 -31.379461 375.000000
89.357948 -30.768404 375.000000
89.357948 -30.157347 375.000000
90.787674 3.506045 381.000000
90.787674 4.126880 381.000000
91.025955 4.760175 382.000000
91.025955 5.382639 382.000000
91.025955 6.005104 382.000000
90.072807 55.217922 378.000000
90.072807 55.833870 378.000000
91.025955 57.047169 382.000000
91.025955 57.669632 382.000000
91.025955 58.292095 382.000000
91.025955 58.914562 382.000000
90.787674 59.381168 381.000000
90.787674 60.002003 381.000000
90.549385 66.655769 380.000000
91.025955 67.629059 382.000000
91.025955 68.251526 382.000000
91.502533 69.234581 384.000000
91.979111 70.224159 386.000000
91.979111 70.853142 386.000000
91.979111 71.482124 386.000000
88.302856 85.532692 370.572205
88.302856 86.136543 370.572205
88.302856 86.740379 370.572205
91.168304 2.877637 380.000000
91.408218 3.506045 381.000000
91.408218 4.126880 381.000000
91.648140 4.760175 382.000000
91.648140 5.382639 382.000000
91.648140 6.005104 382.000000
91.408218 6.610219 381.000000
90.928391 46.100365 379.000000
90.928391 46.717941 379.000000
90.928391 47.335518 379.000000
90.928391 47.953091 379.000000
90.928391 48.570667 379.000000
90.688469 49.058456 378.000000
90.688469 55.217922 378.000000
90.688469 55.833870 378.000000
90.928391 56.599148 379.000000
91.408218 57.518661 381.000000
91.408218 58.139500 381.000000
91.408218 58.760334 381.000000
91.408218 59.381168 381.000000
91.408218 60.002003 381.000000
90.688469 60.145493 378.000000
91.168304 66.655769 380.000000
91.408218 67.452019 381.000000
91.408218 68.072853 381.000000
91.648140 68.873985 382.000000
91.888054 69.678375 383.000000
91.888054 70.302467 383.000000
91.888054 70.926559 383.000000
92.127975 81.123322 384.000000
92.127975 81.749046 384.000000
92.127975 82.374771 384.000000
91.888054 82.784340 383.000000
91.888054 83.408432 383.000000
91.888054 84.032532 383.000000
88.906425 85.532692 370.572205
89.337135 86.553833 372.367462
89.337135 87.160599 372.367462
89.337135 87.767365 372.367462
91.787231 2.877637 380.000000
92.028770 3.506045 381.000000
92.028770 4.126880 381.000000
92.270317 4.760175 382.000000
92.270317 5.382639 382.000000
92.270317 6.005104 382.000000
92.028770 6.610219 381.000000
91.545685 46.100365 379.000000
91.545685 46.717941 379.000000
91.545685 47.335518 379.000000
91.545685 47.953091 379.000000
91.545685 48.570667 379.000000
91.304138 49.058456 378.000000
90.821045 49.411579 376.000000
90.821045 50.024265 376.000000
90.579506 50.502277 375.000000
91.062592 55.071842 377.000000
91.062592 55.686157 377.000000
91.304138 56.449814 378.000000
92.028770 57.518661 381.000000
92.028770 58.139500 381.000000
92.028770 58.760334 381.000000
92.028770 59.381168 381.000000
92.028770 60.002003 381.000000
91.304138 60.145493 378.000000
90.337952 60.118458 374.000000
90.337952 60.727886 374.000000
91.787231 66.655769 380.000000
92.028770 67.452019 381.000000
92.028770 68.072853 381.000000
92.270317 68.873985 382.000000
92.511864 69.678375 383.000000
92.511864 70.302467 383.000000
92.511864 70.926559 383.000000
92.753410 81.123322 384.000000
92.753410 81.749046 384.000000
92.753410 82.374771 384.000000
92.511864 82.784340 383.000000
92.511864 83.408432 383.000000
92.511864 84.032532 383.000000
89.509987 85.532692 370.572205
89.943626 86.553833 372.367462
89.943626 87.160599 372.367462
89.943626 87.767365 372.367462
91.919800 -26.086981 378.000000
91.919800 -25.471033 378.000000
91.919800 -24.855087 378.000000
91.919800 -24.239141 378.000000
91.919800 1.630600 378.000000
91.919800 2.246546 378.000000
92.406151 2.877637 380.000000
92.649323 3.506045 381.000000
92.649323 4.126880 381.000000
92.649323 4.747715 381.000000
92.649323 5.368549 381.000000
92.649323 5.989384 381.000000
92.649323 6.610219 381.000000
92.406151 22.073000 380.000000
92.406151 22.692204 380.000000
92.406151 23.311409 380.000000
92.406151 23.930614 380.000000
92.162979 46.100365 379.000000
92.162979 46.717941 379.000000
92.162979 47.335518 379.000000
92.162979 47.953091 379.000000
92.162979 48.570667 379.000000
91.919800 49.058456 378.000000
91.433456 49.411579 376.000000
91.433456 50.024265 376.000000
91.190285 50.502277 375.000000
91.676628 55.071842 377.000000
91.676628 55.686157 377.000000
91.919800 56.449814 378.000000
91.919800 57.065762 378.000000
91.919800 57.681705 378.000000
91.919800 58.297653 378.000000
91.919800 58.913601 378.000000
91.919800 59.529545 378.000000
91.919800 60.145493 378.000000
90.947105 60.118458 374.000000
90.947105 60.727886 374.000000
92.162979 66.480362 379.000000
92.162979 67.097939 379.000000
92.162979 67.715508 379.000000
92.162979 68.333084 379.000000
92.162979 68.950661 379.000000
92.162979 69.568237 379.000000
92.162979 70.185814 379.000000
93.378845 81.123322 384.000000
93.378845 81.749046 384.000000
93.378845 82.374771 384.000000
93.135674 82.784340 383.000000
93.135674 83.408432 383.000000
93.135674 84.032532 383.000000
90.550117 86.553833 372.367462
90.550117 87.160599 372.367462
90.550117 87.767365 372.367462
88.149055 86.030769 362.493622
88.149055 86.621452 362.493622
91.801056 -32.601578 375.000000
91.801056 -31.990519 375.000000
91.801056 -31.379461 375.000000
92.290665 -27.246601 377.000000
92.290665 -26.632284 377.000000
92.535461 -26.086981 378.000000
92.535461 -25.471033 378.000000
92.535461 -24.855087 378.000000
92.535461 -24.239141 378.000000
92.535461 1.630600 378.000000
92.535461 2.246546 378.000000
92.780273 2.870065 379.000000
93.025070 3.496842 380.000000
93.025070 4.116048 380.000000
93.269875 4.747715 381.000000
93.269875 5.368549 381.000000
93.269875 5.989384 381.000000
93.269875 6.610219 381.000000
90.821846 12.482120 371.000000
90.821846 13.086659 371.000000
90.821846 13.691199 371.000000
93.025070 22.073000 380.000000
93.025070 22.692204 380.000000
93.025070 23.311409 380.000000
93.025070 23.930614 380.000000
92.535461 45.978725 378.000000
92.535461 46.594673 378.000000
92.535461 47.210617 378.000000
92.535461 47.826565 378.000000
92.535461 48.442513 378.000000
92.290665 48.928673 377.000000
92.045860 49.411579 376.000000
92.045860 50.024265 376.000000
91.801056 50.502277 375.000000
91.556252 50.977036 374.000000
91.556252 51.586464 374.000000
92.290665 55.071842 377.000000
92.290665 55.686157 377.000000
92.290665 56.300476 377.000000
92.290665 56.914791 377.000000
92.290665 57.529110 377.000000
92.290665 58.143425 377.000000
92.290665 58.757740 377.000000
92.290665 59.372059 377.000000
91.556252 59.509029 374.000000
91.556252 60.118458 374.000000
91.556252 60.727886 374.000000
91.311455 61.173309 373.000000
91.311455 61.781109 373.000000
92.290665 66.129539 377.000000
92.290665 66.743858 377.000000
92.290665 67.358177 377.000000
92.290665 67.972496 377.000000
92.290665 68.586807 377.000000
92.290665 69.201126 377.000000
92.045860 69.630257 376.000000
93.269875 81.110382 381.000000
93.269875 81.731216 381.000000
93.269875 82.352051 381.000000
93.269875 82.972885 381.000000
93.269875 83.593719 381.000000
90.310120 85.750092 368.909637
90.310120 86.351219 368.909637
90.310120 86.952354 368.909637
88.739456 86.030769 362.493622
88.739456 86.621452 362.493622
92.263969 -34.379654 374.399994
92.263969 -33.769573 374.399994
92.263969 -33.159492 374.399994
92.411835 -32.601578 375.000000
92.411835 -31.990519 375.000000
92.411835 -31.379461 375.000000
92.411835 -30.768404 375.000000
92.411835 -30.157347 375.000000
92.411835 -29.546288 375.000000
91.677345 -28.705254 372.019501
91.677345 -28.099052 372.019501
92.165405 -27.639212 374.000000
92.904701 -27.246601 377.000000
92.904701 -26.632284 377.000000
93.151131 -26.086981 378.000000
93.151131 -25.471033 378.000000
93.151131 -24.855087 378.000000
93.151131 -24.239141 378.000000
91.918968 -23.310719 373.000000
91.918968 -22.702921 373.000000
91.594093 -22.017029 371.681671
91.538452 -21.398371 371.455872
91.538452 -20.793087 371.455872
91.512718 -20.182133 371.351471
91.467766 -19.567402 371.169037
91.459099 -18.960789 371.133881
91.459099 -18.356031 371.133881
91.447136 -17.748953 371.085327
91.360512 -17.128031 370.733795
91.360512 -16.523926 370.733795
91.672539 -15.974193 372.000000
91.672539 -15.368023 372.000000
91.672539 -14.761854 372.000000
91.672539 -14.155684 372.000000
91.179672 -10.462117 370.000000
91.179672 -9.859207 370.000000
91.179672 -9.256296 370.000000
91.179672 -8.653386 370.000000
91.179672 -8.050476 370.000000
91.179672 -7.447566 370.000000
90.933243 -6.826156 369.000000
90.933243 0.990495 369.000000
93.151131 1.630600 378.000000
93.151131 2.246546 378.000000
93.397560 2.870065 379.000000
93.643997 3.496842 380.000000
93.643997 4.116048 380.000000
93.890427 4.747715 381.000000
93.890427 5.368549 381.000000
93.890427 5.989384 381.000000
93.890427 6.610219 381.000000
90.933243 7.003304 369.000000
90.933243 7.604584 369.000000
91.179672 11.242655 370.000000
91.179672 11.845565 370.000000
91.426109 12.482120 371.000000
91.426109 13.086659 371.000000
91.426109 13.691199 371.000000
90.933243 14.218673 369.000000
90.686813 14.779791 368.000000
90.686813 15.379442 368.000000
93.643997 22.073000 380.000000
93.643997 22.692204 380.000000
93.643997 23.311409 380.000000
93.643997 23.930614 380.000000
90.933243 29.250694 369.000000
90.933243 29.851976 369.000000
90.933243 30.453257 369.000000
90.933243 31.054537 369.000000
91.672539 36.762535 372.000000
91.672539 37.368706 372.000000
91.672539 37.974876 372.000000
92.904701 47.085724 377.000000
92.904701 47.700039 377.000000
92.904701 48.314358 377.000000
92.658264 48.798893 376.000000
92.411835 49.280163 375.000000
92.411835 49.891220 375.000000
92.165405 50.367607 374.000000
92.165405 50.977036 374.000000
92.165405 51.586464 374.000000
92.165405 52.195892 374.000000
92.904701 55.071842 377.000000
92.904701 55.686157 377.000000
92.904701 56.300476 377.000000
92.904701 56.914791 377.000000
92.904701 57.529110 377.000000
92.658264 57.989197 376.000000
92.165405 58.290173 374.000000
92.165405 58.899601 374.000000
92.165405 59.509029 374.000000
92.165405 60.118458 374.000000
92.165405 60.727886 374.000000
91.918968 61.173309 373.000000
91.918968 61.781109 373.000000
92.658264 66.566818 376.000000
92.658264 67.179504 376.000000
92.658264 67.792191 376.000000
92.658264 68.404877 376.000000
92.658264 69.017570 376.000000
89.816460 84.717705 364.468170
89.816460 85.311600 364.468170
89.816460 85.905495 364.468170
89.329872 86.030769 362.493622
89.329872 86.621452 362.493622
92.873779 -34.379654 374.399994
92.873779 -33.769573 374.399994
92.873779 -33.159492 374.399994
93.022614 -32.601578 375.000000
93.022614 -31.990519 375.000000
93.022614 -31.379461 375.000000
93.022614 -30.768404 375.000000
93.022614 -30.157347 375.000000
93.022614 -29.546288 375.000000
92.283272 -28.705254 372.019501
92.283272 -28.099052 372.019501
92.774551 -27.639212 374.000000
93.518730 -27.246601 377.000000
93.518730 -26.632284 377.000000
93.518730 -26.017967 377.000000
93.518730 -25.403650 377.000000
93.518730 -24.789333 377.000000
93.270676 -24.110893 376.000000
92.526489 -23.310719 373.000000
92.526489 -22.702921 373.000000
92.199463 -22.017029 371.681671
92.143456 -21.398371 371.455872
92.143456 -20.793087 371.455872
92.117554 -20.182133 371.351471
92.072304 -19.567402 371.169037
92.063583 -18.960789 371.133881
92.063583 -18.356031 371.133881
92.051537 -17.748953 371.085327
91.964333 -17.128031 370.733795
91.964333 -16.523926 370.733795
92.278435 -15.974193 372.000000
92.278435 -15.368023 372.000000
92.278435 -14.761854 372.000000
92.278435 -14.155684 372.000000
91.782310 -10.462117 370.000000
91.782310 -9.859207 370.000000
91.782310 -9.256296 370.000000
91.782310 -8.653386 370.000000
91.782310 -8.050476 370.000000
91.782310 -7.447566 370.000000
91.534248 -6.826156 369.000000
91.534248 -3.819752 369.000000
91.534248 -3.218471 369.000000
91.534248 -2.617190 369.000000
91.534248 -2.015909 369.000000
91.534248 -1.414628 369.000000
91.534248 -0.813348 369.000000
91.534248 -0.212067 369.000000
91.534248 0.389214 369.000000
91.534248 0.990495 369.000000
91.782310 1.596089 370.000000
91.782310 2.199000 370.000000
92.774551 2.832201 374.000000
93.766792 3.478438 378.000000
93.766792 4.094385 378.000000
93.766792 4.710331 378.000000
93.518730 5.312186 377.000000
93.518730 5.926503 377.000000
93.518730 6.540820 377.000000
91.534248 7.003304 369.000000
91.534248 7.604584 369.000000
91.286194 8.183627 368.000000
91.209869 8.775934 367.692322
91.209869 9.375085 367.692322
91.191490 9.972225 367.618225
91.286194 10.582232 368.000000
91.782310 11.242655 370.000000
91.782310 11.845565 370.000000
92.030373 12.482120 371.000000
92.030373 13.086659 371.000000
92.030373 13.691199 371.000000
91.534248 14.218673 369.000000
91.286194 14.779791 368.000000
91.286194 15.379442 368.000000
91.038132 15.935674 367.000000
91.038132 16.533695 367.000000
91.038132 17.131718 367.000000
91.038132 17.729738 367.000000
91.038132 18.327761 367.000000
91.038132 18.925783 367.000000
91.038132 19.523804 367.000000
90.958755 20.104280 366.679993
90.958755 20.701780 366.679993
91.040634 21.318457 367.010101
91.040634 21.916494 367.010101
91.040634 22.514532 367.010101
91.040634 23.112570 367.010101
90.790070 23.645353 366.000000
90.790070 24.241745 366.000000
90.790070 24.838137 366.000000
90.790070 25.434530 366.000000
90.790070 26.030922 366.000000
90.790070 26.627314 366.000000
90.790070 27.223705 366.000000
90.790070 27.820097 366.000000
90.790070 28.416491 366.000000
91.534248 29.250694 369.000000
91.534248 29.851976 369.000000
91.534248 30.453257 369.000000
91.534248 31.054537 369.000000
91.286194 31.570028 368.000000
91.286194 32.169682 368.000000
91.286194 32.769333 368.000000
91.038132 33.278309 367.000000
91.038132 33.876328 367.000000
91.038132 34.474350 367.000000
91.038132 35.072372 367.000000
91.038132 35.670395 367.000000
92.278435 36.762535 372.000000
92.278435 37.368706 372.000000
92.278435 37.974876 372.000000
91.038132 38.062481 367.000000
90.790070 38.555161 366.000000
90.790070 39.151554 366.000000
93.518730 47.085724 377.000000
93.518730 47.700039 377.000000
93.518730 48.314358 377.000000
93.270676 48.798893 376.000000
93.022614 49.280163 375.000000
93.022614 49.891220 375.000000
92.774551 50.367607 374.000000
92.774551 50.977036 374.000000
92.774551 51.586464 374.000000
92.774551 52.195892 374.000000
93.518730 55.071842 377.000000
93.518730 55.686157 377.000000
93.518730 56.300476 377.000000
93.518730 56.914791 377.000000
93.518730 57.529110 377.000000
93.270676 57.989197 376.000000
92.774551 58.290173 374.000000
92.774551 58.899601 374.000000
92.774551 59.509029 374.000000
92.774551 60.118458 374.000000
92.774551 60.727886 374.000000
92.526489 61.173309 373.000000
92.526489 61.781109 373.000000
93.270676 66.566818 376.000000
93.270676 67.179504 376.000000
93.270676 67.792191 376.000000
93.270676 68.404877 376.000000
93.270676 69.017570 376.000000
90.542007 75.919876 365.000000
90.542007 76.514641 365.000000
90.542007 77.109406 365.000000
90.542007 77.704170 365.000000
90.542007 78.298927 365.000000
90.542007 78.893692 365.000000
93.483574 -34.379654 374.399994
93.483574 -33.769573 374.399994
93.483574 -33.159492 374.399994
93.302551 -32.486382 373.674988
93.302551 -31.877483 373.674988
93.633392 -31.379461 375.000000
93.633392 -30.768404 375.000000
93.633392 -30.157347 375.000000
93.633392 -29.546288 375.000000
92.917564 -28.714018 372.133118
92.917564 -28.107632 372.133118
93.383698 -27.639212 374.000000
93.383698 -27.029783 374.000000
93.383698 -26.420355 374.000000
93.383698 -25.810926 374.000000
93.383698 -25.201498 374.000000
93.383698 -24.592070 374.000000
93.134010 -23.918518 373.000000
93.134010 -23.310719 373.000000
93.134010 -22.702921 373.000000
92.804840 -22.017029 371.681671
92.748459 -21.398371 371.455872
92.748459 -20.793087 371.455872
92.722389 -20.182133 371.351471
92.676842 -19.567402 371.169037
92.668068 -18.960789 371.133881
92.668068 -18.356031 371.133881
92.655937 -17.748953 371.085327
92.634636 -17.140331 371.000000
92.634636 -16.535791 371.000000
92.884323 -15.974193 372.000000
92.884323 -15.368023 372.000000
92.884323 -14.761854 372.000000
92.884323 -14.155684 372.000000
92.634636 -13.513092 371.000000
92.634636 -12.908552 371.000000
92.384941 -12.270848 370.000000
92.384941 -11.667938 370.000000
92.384941 -11.065027 370.000000
92.384941 -10.462117 370.000000
92.384941 -9.859207 370.000000
92.384941 -9.256296 370.000000
92.384941 -8.653386 370.000000
92.384941 -8.050476 370.000000
92.384941 -7.447566 370.000000
92.135254 -6.826156 369.000000
92.135254 -6.224875 369.000000
92.135254 -5.623594 369.000000
92.135254 -5.022314 369.000000
92.135254 -4.421033 369.000000
92.135254 -3.819752 369.000000
92.135254 -3.218471 369.000000
92.135254 -2.617190 369.000000
92.135254 -2.015909 369.000000
92.135254 -1.414628 369.000000
92.135254 -0.813348 369.000000
92.135254 -0.212067 369.000000
92.135254 0.389214 369.000000
92.135254 0.990495 369.000000
92.135254 1.591776 369.000000
92.135254 2.193057 369.000000
92.135254 2.794338 369.000000
91.885567 3.386416 368.000000
91.885567 3.986067 368.000000
92.396088 4.611197 370.044647
92.396088 5.214180 370.044647
92.396088 5.817163 370.044647
92.135254 6.402022 369.000000
92.135254 7.003304 369.000000
92.135254 7.604584 369.000000
91.885567 8.183627 368.000000
91.808746 8.775934 367.692322
91.808746 9.375085 367.692322
91.790245 9.972225 367.618225
91.885567 10.582232 368.000000
92.384941 11.242655 370.000000
92.384941 11.845565 370.000000
92.384941 12.448475 370.000000
92.135254 13.016112 369.000000
92.135254 13.617392 369.000000
92.135254 14.218673 369.000000
91.885567 14.779791 368.000000
91.885567 15.379442 368.000000
91.635880 15.935674 367.000000
91.635880 16.533695 367.000000
91.635880 17.131718 367.000000
91.635880 17.729738 367.000000
91.635880 18.327761 367.000000
91.635880 18.925783 367.000000
91.635880 19.523804 367.000000
91.555977 20.104280 366.679993
91.555977 20.701780 366.679993
91.638405 21.318457 367.010101
91.638405 21.916494 367.010101
91.638405 22.514532 367.010101
91.638405 23.112570 367.010101
91.386192 23.645353 366.000000
91.386192 24.241745 366.000000
91.386192 24.838137 366.000000
91.386192 25.434530 366.000000
91.386192 26.030922 366.000000
91.386192 26.627314 366.000000
91.386192 27.223705 366.000000
91.386192 27.820097 366.000000
91.386192 28.416491 366.000000
92.135254 29.250694 369.000000
92.135254 29.851976 369.000000
92.135254 30.453257 369.000000
92.135254 31.054537 369.000000
91.885567 31.570028 368.000000
91.885567 32.169682 368.000000
91.885567 32.769333 368.000000
91.635880 33.278309 367.000000
91.635880 33.876328 367.000000
91.635880 34.474350 367.000000
91.635880 35.072372 367.000000
91.635880 35.670395 367.000000
92.884323 36.762535 372.000000
92.884323 37.368706 372.000000
92.884323 37.974876 372.000000
91.635880 38.062481 367.000000
91.386192 38.555161 366.000000
91.386192 39.151554 366.000000
93.383698 47.320465 374.000000
93.383698 47.929893 374.000000
93.383698 48.539322 374.000000
93.383698 49.148750 374.000000
93.383698 49.758179 374.000000
93.383698 50.367607 374.000000
93.383698 50.977036 374.000000
93.383698 51.586464 374.000000
93.383698 52.195892 374.000000
93.134010 52.664127 373.000000
93.134010 53.271927 373.000000
93.134010 57.526516 373.000000
93.134010 58.134315 373.000000
93.134010 58.742115 373.000000
93.134010 59.349915 373.000000
93.134010 59.957714 373.000000
93.134010 60.565510 373.000000
92.884323 61.009304 372.000000
92.884323 61.615475 372.000000
90.886810 74.525620 364.000000
90.886810 75.118752 364.000000
91.136505 75.919876 365.000000
91.136505 76.514641 365.000000
91.136505 77.109406 365.000000
91.136505 77.704170 365.000000
91.136505 78.298927 365.000000
91.136505 78.893692 365.000000
90.886810 79.270683 364.000000
90.886810 79.863815 364.000000
90.886810 80.456947 364.000000
90.886810 81.050087 364.000000
90.886810 81.643219 364.000000
90.886810 82.236351 364.000000
93.829498 -34.283237 373.350006
93.829498 -33.674870 373.350006
93.829498 -33.066498 373.350006
93.619583 -32.385513 372.514740
93.619583 -31.778503 372.514740
93.619583 -31.171497 372.514740
93.577278 -30.550678 372.346436
93.577278 -29.943947 372.346436
93.523674 -29.320406 372.133118
93.523674 -28.714018 372.133118
93.523674 -28.107632 372.133118
93.741531 -27.565311 373.000000
93.741531 -26.957514 373.000000
93.741531 -26.349712 373.000000
93.741531 -25.741915 373.000000
93.741531 -25.134115 373.000000
93.741531 -24.526316 373.000000
93.490219 -23.854393 372.000000
93.238899 -23.185728 371.000000
93.238899 -22.581188 371.000000
93.238899 -21.976650 371.000000
93.152374 -21.352278 370.655731
93.152374 -20.748299 370.655731
93.152374 -20.144320 370.655731
93.129105 -19.535458 370.563110
93.108139 -18.927370 370.479706
93.108139 -18.323677 370.479706
93.106575 -17.719687 370.473480
93.238899 -17.140331 371.000000
93.238899 -16.535791 371.000000
93.238899 -15.931252 371.000000
93.238899 -15.326712 371.000000
93.238899 -14.722172 371.000000
93.238899 -14.117632 371.000000
93.238899 -13.513092 371.000000
93.238899 -12.908552 371.000000
92.987579 -12.270848 370.000000
92.987579 -11.667938 370.000000
92.987579 -11.065027 370.000000
92.987579 -10.462117 370.000000
92.987579 -9.859207 370.000000
92.987579 -9.256296 370.000000
92.987579 -8.653386 370.000000
92.736259 -8.028717 369.000000
92.736259 -7.427436 369.000000
92.736259 -6.826156 369.000000
92.736259 -6.224875 369.000000
92.736259 -5.623594 369.000000
92.736259 -5.022314 369.000000
92.736259 -4.421033 369.000000
92.736259 -3.819752 369.000000
92.736259 -3.218471 369.000000
92.736259 -2.617190 369.000000
92.736259 -2.015909 369.000000
92.736259 -1.414628 369.000000
92.736259 -0.813348 369.000000
92.736259 -0.212067 369.000000
92.736259 0.389214 369.000000
92.736259 0.990495 369.000000
92.736259 1.591776 369.000000
92.736259 2.193057 369.000000
92.484947 2.786765 368.000000
92.484947 3.386416 368.000000
92.484947 3.986067 368.000000
92.484947 4.585719 368.000000
92.484947 5.185370 368.000000
92.484947 5.785021 368.000000
92.484947 6.384673 368.000000
92.484947 6.984324 368.000000
92.484947 7.583975 368.000000
92.484947 8.183627 368.000000
92.484947 8.783278 368.000000
92.484947 9.382930 368.000000
92.484947 9.982581 368.000000
92.484947 10.582232 368.000000
92.484947 11.181884 368.000000
92.484947 11.781535 368.000000
92.484947 12.381186 368.000000
92.484947 12.980838 368.000000
92.484947 13.580488 368.000000
92.484947 14.180140 368.000000
92.484947 14.779791 368.000000
92.484947 15.379442 368.000000
92.233627 15.935674 367.000000
92.233627 16.533695 367.000000
92.233627 17.131718 367.000000
92.233627 17.729738 367.000000
92.233627 18.327761 367.000000
92.233627 18.925783 367.000000
92.233627 19.523804 367.000000
92.233627 20.121826 367.000000
92.233627 20.719849 367.000000
92.236160 21.318457 367.010101
92.236160 21.916494 367.010101
92.236160 22.514532 367.010101
92.236160 23.112570 367.010101
91.982307 23.645353 366.000000
91.982307 24.241745 366.000000
91.982307 24.838137 366.000000
91.982307 25.434530 366.000000
91.982307 26.030922 366.000000
91.982307 26.627314 366.000000
91.982307 27.223705 366.000000
91.982307 27.820097 366.000000
91.982307 28.416491 366.000000
92.484947 29.171423 368.000000
92.484947 29.771074 368.000000
92.484947 30.370726 368.000000
92.484947 30.970377 368.000000
92.484947 31.570028 368.000000
92.484947 32.169682 368.000000
92.484947 32.769333 368.000000
92.233627 33.278309 367.000000
92.233627 33.876328 367.000000
92.233627 34.474350 367.000000
92.233627 35.072372 367.000000
92.233627 35.670395 367.000000
92.233627 36.268417 367.000000
92.233627 36.866440 367.000000
92.233627 37.464462 367.000000
92.233627 38.062481 367.000000
91.982307 38.555161 366.000000
91.982307 39.151554 366.000000
91.982307 39.747944 366.000000
91.982307 40.344337 366.000000
91.982307 40.940731 366.000000
91.982307 41.537121 366.000000
91.982307 42.133514 366.000000
91.982307 42.729908 366.000000
91.982307 43.326298 366.000000
91.982307 43.922691 366.000000
91.982307 44.519085 366.000000
91.982307 45.115475 366.000000
91.982307 45.711868 366.000000
92.484947 46.561314 368.000000
92.484947 47.160965 368.000000
92.987579 48.020184 370.000000
92.987579 48.623093 370.000000
92.987579 49.226006 370.000000
92.987579 49.828915 370.000000
92.987579 50.431824 370.000000
92.987579 51.034737 370.000000
93.741531 52.056328 373.000000
93.741531 52.664127 373.000000
93.741531 53.271927 373.000000
91.982307 52.868576 366.000000
91.730995 53.318893 365.000000
91.730995 53.913651 365.000000
91.730995 54.508415 365.000000
91.730995 55.103176 365.000000
91.730995 55.697941 365.000000
92.987579 57.063839 370.000000
92.987579 57.666748 370.000000
92.987579 58.269661 370.000000
92.987579 58.872570 370.000000
92.987579 59.475479 370.000000
92.987579 60.078392 370.000000
92.987579 60.681301 370.000000
92.987579 61.284210 370.000000
92.233627 61.385334 367.000000
91.730995 65.808907 365.000000
91.730995 66.403671 365.000000
91.730995 66.998436 365.000000
91.730995 72.946060 365.000000
91.730995 73.540825 365.000000
91.730995 74.135590 365.000000
91.730995 74.730354 365.000000
91.479675 75.118752 364.000000
91.730995 75.919876 365.000000
91.730995 76.514641 365.000000
91.730995 77.109406 365.000000
91.730995 77.704170 365.000000
91.730995 78.298927 365.000000
91.730995 78.893692 365.000000
91.479675 79.270683 364.000000
91.479675 79.863815 364.000000
91.479675 80.456947 364.000000
91.479675 81.050087 364.000000
91.479675 81.643219 364.000000
91.479675 82.236351 364.000000
94.437584 -34.283237 373.350006
94.437584 -33.674870 373.350006
94.437584 -33.066498 373.350006
94.226303 -32.385513 372.514740
94.226303 -31.778503 372.514740
94.226303 -31.171497 372.514740
94.183739 -30.550678 372.346436
94.183739 -29.943947 372.346436
94.129776 -29.320406 372.133118
94.129776 -28.714018 372.133118
94.129776 -28.107632 372.133118
94.349052 -27.565311 373.000000
94.349052 -26.957514 373.000000
94.349052 -26.349712 373.000000
94.349052 -25.741915 373.000000
94.349052 -25.134115 373.000000
94.349052 -24.526316 373.000000
94.096107 -23.854393 372.000000
93.843163 -23.185728 371.000000
93.843163 -22.581188 371.000000
93.843163 -21.976650 371.000000
93.756081 -21.352278 370.655731
93.756081 -20.748299 370.655731
93.756081 -20.144320 370.655731
93.732651 -19.535458 370.563110
93.711555 -18.927370 370.479706
93.711555 -18.323677 370.479706
93.709984 -17.719687 370.473480
93.843163 -17.140331 371.000000
93.843163 -16.535791 371.000000
93.843163 -15.931252 371.000000
93.843163 -15.326712 371.000000
93.843163 -14.722172 371.000000
93.843163 -14.117632 371.000000
93.843163 -13.513092 371.000000
93.843163 -12.908552 371.000000
93.590210 -12.270848 370.000000
93.590210 -11.667938 370.000000
93.590210 -11.065027 370.000000
93.590210 -10.462117 370.000000
93.590210 -9.859207 370.000000
93.590210 -9.256296 370.000000
93.590210 -8.653386 370.000000
93.337265 -8.028717 369.000000
93.337265 -7.427436 369.000000
93.337265 -6.826156 369.000000
93.337265 -6.224875 369.000000
93.337265 -5.623594 369.000000
93.337265 -5.022314 369.000000
93.337265 -4.421033 369.000000
93.337265 -3.819752 369.000000
93.337265 -3.218471 369.000000
93.084320 -2.610097 368.000000
93.337265 -2.015909 369.000000
93.337265 -1.414628 369.000000
93.337265 -0.813348 369.000000
93.337265 -0.212067 369.000000
93.337265 0.389214 369.000000
93.337265 0.990495 369.000000
93.084320 1.587462 368.000000
93.084320 2.187113 368.000000
93.084320 2.786765 368.000000
92.831375 3.377214 367.000000
92.831375 3.975236 367.000000
92.831375 4.573258 367.000000
92.831375 5.171279 367.000000
92.831375 5.769301 367.000000
92.831375 6.367323 367.000000
93.084320 6.984324 368.000000
93.084320 7.583975 368.000000
93.084320 8.183627 368.000000
93.084320 8.783278 368.000000
93.084320 9.382930 368.000000
93.084320 9.982581 368.000000
93.084320 10.582232 368.000000
93.084320 11.181884 368.000000
93.084320 11.781535 368.000000
93.084320 12.381186 368.000000
93.084320 12.980838 368.000000
93.084320 13.580488 368.000000
93.084320 14.180140 368.000000
92.831375 14.739630 367.000000
92.831375 15.337651 367.000000
92.831375 15.935674 367.000000
92.831375 16.533695 367.000000
92.831375 17.131718 367.000000
92.831375 17.729738 367.000000
92.831375 18.327761 367.000000
92.831375 18.925783 367.000000
92.831375 19.523804 367.000000
92.831375 20.121826 367.000000
92.831375 20.719849 367.000000
92.831375 21.317871 367.000000
92.578430 21.856176 366.000000
92.578430 22.452568 366.000000
92.578430 23.048960 366.000000
92.578430 23.645353 366.000000
92.578430 24.241745 366.000000
92.578430 24.838137 366.000000
92.578430 25.434530 366.000000
92.578430 26.030922 366.000000
92.578430 26.627314 366.000000
92.578430 27.223705 366.000000
92.578430 27.820097 366.000000
92.578430 28.416491 366.000000
92.578430 29.012882 366.000000
92.831375 29.690176 367.000000
92.831375 30.288198 367.000000
92.831375 30.886219 367.000000
92.831375 31.484241 367.000000
92.831375 32.082264 367.000000
92.831375 32.680286 367.000000
92.831375 33.278309 367.000000
92.831375 33.876328 367.000000
92.578430 34.380413 366.000000
92.578430 34.976807 366.000000
92.578430 35.573200 366.000000
92.578430 36.169590 366.000000
92.578430 36.765984 366.000000
92.578430 37.362377 366.000000
92.578430 37.958767 366.000000
92.578430 38.555161 366.000000
92.578430 39.151554 366.000000
92.578430 39.747944 366.000000
92.578430 40.344337 366.000000
92.578430 40.940731 366.000000
92.578430 41.537121 366.000000
92.578430 42.133514 366.000000
92.578430 42.729908 366.000000
92.578430 43.326298 366.000000
92.578430 43.922691 366.000000
92.578430 44.519085 366.000000
92.578430 45.115475 366.000000
92.578430 45.711868 366.000000
92.578430 46.308262 366.000000
92.578430 46.904652 366.000000
92.831375 47.630833 367.000000
92.831375 48.228855 367.000000
92.831375 48.826878 367.000000
93.084320 49.559570 368.000000
93.084320 50.159222 368.000000
93.084320 50.758873 368.000000
94.349052 52.056328 373.000000
94.349052 52.664127 373.000000
94.349052 53.271927 373.000000
92.578430 52.868576 366.000000
92.325485 53.318893 365.000000
92.325485 53.913651 365.000000
92.325485 54.508415 365.000000
92.325485 55.103176 365.000000
92.325485 55.697941 365.000000
92.578430 56.446930 366.000000
92.578430 57.043324 366.000000
92.578430 57.639717 366.000000
92.831375 58.395226 367.000000
93.084320 59.153996 368.000000
93.084320 59.753647 368.000000
93.084320 60.353298 368.000000
92.831375 60.787312 367.000000
92.831375 61.385334 367.000000
92.143364 61.523968 364.279999
92.136070 62.112648 364.251190
92.108261 62.687263 364.141235
92.108261 63.280624 364.141235
92.072540 63.849216 364.000000
92.072540 64.442352 364.000000
92.072540 65.035484 364.000000
92.325485 65.808907 365.000000
92.325485 66.403671 365.000000
92.325485 66.998436 365.000000
92.325485 67.593201 365.000000
92.325485 68.187958 365.000000
92.325485 68.782722 365.000000
91.981789 69.119217 363.641235
91.944321 69.683372 363.493103
91.944321 70.275681 363.493103
92.325485 71.161774 365.000000
92.325485 71.756538 365.000000
92.325485 72.351303 365.000000
92.325485 72.946060 365.000000
92.325485 73.540825 365.000000
92.325485 74.135590 365.000000
92.325485 74.730354 365.000000
92.072540 75.118752 364.000000
92.072540 75.711884 364.000000
92.072540 76.305016 364.000000
92.072540 76.898148 364.000000
92.072540 77.491280 364.000000
92.072540 78.084419 364.000000
92.072540 78.677551 364.000000
92.072540 79.270683 364.000000
92.072540 79.863815 364.000000
92.072540 80.456947 364.000000
92.072540 81.050087 364.000000
92.072540 81.643219 364.000000
92.072540 82.236351 364.000000
91.935211 82.705948 363.457123
91.935211 83.298195 363.457123
91.935211 83.890442 363.457123
91.879196 84.431221 363.235657
91.879196 85.023102 363.235657
91.879196 85.614990 363.235657
91.802116 86.134552 362.930908
91.802116 86.725945 362.930908
91.823914 87.338074 363.017090
91.823914 87.929604 363.017090
91.823914 88.521133 363.017090
94.648956 -34.140141 371.791656
94.648956 -33.534309 371.791656
94.648956 -32.928478 371.791656
94.440941 -32.251610 370.974518
94.440941 -31.647112 370.974518
94.376335 -31.021381 370.720764
94.357986 -30.411381 370.648682
94.357986 -29.807413 370.648682
94.344231 -29.199188 370.594635
94.447426 -28.626585 371.000000
94.447426 -28.022045 371.000000
94.447426 -27.417505 371.000000
94.447426 -26.812965 371.000000
94.447426 -26.208427 371.000000
94.447426 -25.603888 371.000000
94.192848 -24.931965 370.000000
94.192848 -24.329054 370.000000
94.192848 -23.726145 370.000000
94.192848 -23.123234 370.000000
94.192848 -22.520323 370.000000
94.192848 -21.917414 370.000000
94.192848 -21.314503 370.000000
94.192848 -20.711592 370.000000
94.192848 -20.108683 370.000000
94.192848 -19.505772 370.000000
94.192848 -18.902863 370.000000
94.192848 -18.299952 370.000000
94.192848 -17.697041 370.000000
94.192848 -17.094131 370.000000
94.192848 -16.491220 370.000000
94.192848 -15.888310 370.000000
94.192848 -15.285399 370.000000
94.192848 -14.682489 370.000000
94.192848 -14.079579 370.000000
94.192848 -13.476668 370.000000
94.192848 -12.873758 370.000000
94.192848 -12.270848 370.000000
94.192848 -11.667938 370.000000
94.192848 -11.065027 370.000000
94.192848 -10.462117 370.000000
94.192848 -9.859207 370.000000
94.192848 -9.256296 370.000000
93.938271 -8.629998 369.000000
93.938271 -8.028717 369.000000
93.938271 -7.427436 369.000000
93.938271 -6.826156 369.000000
93.938271 -6.224875 369.000000
93.938271 -5.623594 369.000000
93.938271 -5.022314 369.000000
93.683701 -4.409051 368.000000
93.683701 -3.809400 368.000000
93.683701 -3.209749 368.000000
93.683701 -2.610097 368.000000
93.938271 -2.015909 369.000000
93.938271 -1.414628 369.000000
93.938271 -0.813348 369.000000
93.938271 -0.212067 369.000000
93.938271 0.389214 369.000000
93.938271 0.990495 369.000000
93.683701 1.587462 368.000000
93.683701 2.187113 368.000000
93.683701 2.786765 368.000000
93.429123 3.377214 367.000000
93.429123 3.975236 367.000000
93.429123 4.573258 367.000000
93.429123 5.171279 367.000000
93.429123 5.769301 367.000000
93.429123 6.367323 367.000000
93.683701 6.984324 368.000000
93.683701 7.583975 368.000000
93.683701 8.183627 368.000000
93.683701 8.783278 368.000000
93.683701 9.382930 368.000000
93.683701 9.982581 368.000000
93.683701 10.582232 368.000000
93.683701 11.181884 368.000000
93.683701 11.781535 368.000000
93.683701 12.381186 368.000000
93.683701 12.980838 368.000000
93.683701 13.580488 368.000000
93.683701 14.180140 368.000000
93.429123 14.739630 367.000000
93.429123 15.337651 367.000000
93.429123 15.935674 367.000000
93.429123 16.533695 367.000000
93.429123 17.131718 367.000000
93.429123 17.729738 367.000000
93.429123 18.327761 367.000000
93.429123 18.925783 367.000000
93.429123 19.523804 367.000000
93.429123 20.121826 367.000000
93.429123 20.719849 367.000000
93.429123 21.317871 367.000000
93.174545 21.856176 366.000000
93.174545 22.452568 366.000000
93.174545 23.048960 366.000000
93.174545 23.645353 366.000000
93.174545 24.241745 366.000000
93.174545 24.838137 366.000000
93.174545 25.434530 366.000000
93.174545 26.030922 366.000000
93.174545 26.627314 366.000000
93.174545 27.223705 366.000000
93.174545 27.820097 366.000000
93.174545 28.416491 366.000000
93.174545 29.012882 366.000000
93.429123 29.690176 367.000000
93.429123 30.288198 367.000000
93.429123 30.886219 367.000000
93.429123 31.484241 367.000000
93.429123 32.082264 367.000000
93.429123 32.680286 367.000000
93.429123 33.278309 367.000000
93.429123 33.876328 367.000000
93.174545 34.380413 366.000000
93.174545 34.976807 366.000000
93.174545 35.573200 366.000000
93.174545 36.169590 366.000000
93.174545 36.765984 366.000000
93.174545 37.362377 366.000000
93.174545 37.958767 366.000000
93.174545 38.555161 366.000000
93.174545 39.151554 366.000000
93.174545 39.747944 366.000000
93.174545 40.344337 366.000000
93.174545 40.940731 366.000000
93.174545 41.537121 366.000000
93.174545 42.133514 366.000000
93.174545 42.729908 366.000000
93.174545 43.326298 366.000000
93.174545 43.922691 366.000000
93.174545 44.519085 366.000000
93.174545 45.115475 366.000000
93.174545 45.711868 366.000000
93.174545 46.308262 366.000000
93.174545 46.904652 366.000000
93.429123 47.630833 367.000000
93.429123 48.228855 367.000000
93.429123 48.826878 367.000000
93.683701 49.559570 368.000000
93.683701 50.159222 368.000000
93.683701 50.758873 368.000000
93.429123 51.218964 367.000000
93.429123 51.816986 367.000000
93.429123 52.415009 367.000000
93.174545 52.868576 366.000000
92.919975 53.318893 365.000000
92.919975 53.913651 365.000000
92.919975 54.508415 365.000000
92.919975 55.103176 365.000000
92.919975 55.697941 365.000000
93.174545 56.446930 366.000000
93.174545 57.043324 366.000000
93.174545 57.639717 366.000000
93.429123 58.395226 367.000000
93.683701 59.153996 368.000000
93.683701 59.753647 368.000000
93.683701 60.353298 368.000000
93.429123 60.787312 367.000000
93.429123 61.385334 367.000000
92.736679 61.523968 364.279999
92.729347 62.112648 364.251190
92.701355 62.687263 364.141235
92.701355 63.280624 364.141235
92.665398 63.849216 364.000000
92.665398 64.442352 364.000000
92.665398 65.035484 364.000000
92.919975 65.808907 365.000000
92.919975 66.403671 365.000000
92.919975 66.998436 365.000000
92.919975 67.593201 365.000000
92.919975 68.187958 365.000000
92.919975 68.782722 365.000000
92.665398 69.187416 364.000000
92.665398 69.780548 364.000000
92.665398 70.373680 364.000000
92.919975 71.161774 365.000000
92.919975 71.756538 365.000000
92.919975 72.351303 365.000000
92.919975 72.946060 365.000000
92.919975 73.540825 365.000000
92.919975 74.135590 365.000000
92.919975 74.730354 365.000000
92.665398 75.118752 364.000000
92.665398 75.711884 364.000000
92.665398 76.305016 364.000000
92.410820 76.686890 363.000000
92.410820 77.278397 363.000000
92.410820 77.869896 363.000000
92.410820 78.461403 363.000000
92.410820 79.052902 363.000000
92.410820 79.644409 363.000000
92.410820 80.235916 363.000000
92.410820 80.827415 363.000000
92.410820 81.418922 363.000000
92.410820 82.010422 363.000000
92.527191 82.705948 363.457123
92.527191 83.298195 363.457123
92.527191 83.890442 363.457123
92.470818 84.431221 363.235657
92.470818 85.023102 363.235657
92.470818 85.614990 363.235657
92.393234 86.134552 362.930908
92.393234 86.725945 362.930908
92.415169 87.338074 363.017090
92.415169 87.929604 363.017090
92.415169 88.521133 363.017090
94.795479 -34.578529 370.000000
95.144714 -34.100788 371.363098
95.144714 -33.495655 371.363098
95.144714 -32.890526 371.363098
94.958389 -32.222168 370.635834
94.958389 -31.618219 370.635834
94.859505 -30.981977 370.249878
94.853096 -30.376610 370.224884
94.853096 -29.773331 370.224884
94.826942 -29.162012 370.122803
94.806396 -28.552715 370.042603
94.806396 -27.949734 370.042603
94.795479 -27.343607 370.000000
94.795479 -26.740696 370.000000
94.795479 -26.137785 370.000000
94.795479 -25.534876 370.000000
94.795479 -24.931965 370.000000
94.795479 -24.329054 370.000000
94.795479 -23.726145 370.000000
94.795479 -23.123234 370.000000
94.795479 -22.520323 370.000000
94.795479 -21.917414 370.000000
94.539276 -21.256897 369.000000
94.539276 -20.655615 369.000000
94.539276 -20.054335 369.000000
94.539276 -19.453054 369.000000
94.795479 -18.902863 370.000000
94.795479 -18.299952 370.000000
94.795479 -17.697041 370.000000
94.795479 -17.094131 370.000000
94.795479 -16.491220 370.000000
94.795479 -15.888310 370.000000
94.795479 -15.285399 370.000000
94.795479 -14.682489 370.000000
94.795479 -14.079579 370.000000
94.795479 -13.476668 370.000000
94.795479 -12.873758 370.000000
94.795479 -12.270848 370.000000
94.795479 -11.667938 370.000000
94.795479 -11.065027 370.000000
94.539276 -10.433841 369.000000
94.539276 -9.832560 369.000000
94.539276 -9.231279 369.000000
94.539276 -8.629998 369.000000
94.539276 -8.028717 369.000000
94.539276 -7.427436 369.000000
94.539276 -6.826156 369.000000
94.283081 -6.208005 368.000000
94.283081 -5.608354 368.000000
94.283081 -5.008703 368.000000
94.283081 -4.409051 368.000000
94.283081 -3.809400 368.000000
94.283081 -3.209749 368.000000
94.283081 -2.610097 368.000000
94.283081 -2.010446 368.000000
