7.149524 47.130657 330.000000
7.149524 47.668388 330.000000
7.149524 48.206120 330.000000
7.149524 48.743851 330.000000
7.171189 49.430923 331.000000
7.171189 49.970284 331.000000
7.171189 50.509644 331.000000
7.192855 51.203228 332.000000
7.192855 51.744217 332.000000
7.192855 52.285210 332.000000
7.192855 52.826199 332.000000
7.192855 53.367188 332.000000
7.192855 53.908176 332.000000
7.192855 54.449165 332.000000
7.192855 54.990158 332.000000
7.192855 55.531147 332.000000
7.192855 56.072136 332.000000
7.192855 56.613125 332.000000
7.192855 57.154118 332.000000
7.192855 57.695107 332.000000
7.192855 58.236095 332.000000
7.192855 58.777084 332.000000
7.192855 59.318077 332.000000
7.214520 60.039364 333.000000
7.214520 60.581985 333.000000
7.214520 61.124603 333.000000
7.214520 61.667225 333.000000
7.214520 62.209843 333.000000
7.214520 62.752460 333.000000
7.214520 63.295082 333.000000
7.214520 63.837700 333.000000
7.214520 64.380318 333.000000
7.214520 64.922935 333.000000
7.214520 65.465561 333.000000
7.214520 66.008179 333.000000
7.214520 66.550797 333.000000
7.192855 66.891930 332.000000
7.192855 67.432922 332.000000
7.192855 67.973915 332.000000
7.192855 68.514900 332.000000
7.192855 69.055893 332.000000
7.171189 69.387253 331.000000
7.171189 69.926613 331.000000
7.171189 70.465973 331.000000
7.171189 71.005333 331.000000
7.171189 71.544693 331.000000
7.171189 72.084053 331.000000
7.171189 72.623413 331.000000
7.171189 73.162773 331.000000
7.171189 73.702133 331.000000
7.171189 74.241493 331.000000
7.171189 74.780853 331.000000
7.171189 75.320213 331.000000
7.171189 75.859573 331.000000
7.171189 76.398933 331.000000
7.171189 76.938293 331.000000
7.171189 77.477654 331.000000
7.149524 77.781319 330.000000
7.149524 78.319054 330.000000
7.149524 78.856781 330.000000
7.149524 79.394508 330.000000
7.149524 79.932243 330.000000
7.149524 80.469971 330.000000
7.149524 81.007706 330.000000
7.149524 81.545433 330.000000
7.149524 82.083168 330.000000
7.149524 82.620895 330.000000
7.131105 82.944389 329.149841
7.131105 83.480728 329.149841
7.108150 83.746620 328.090271
7.108150 84.281235 328.090271
7.108150 84.815857 328.090271
7.101845 85.274780 327.799286
7.097077 85.751312 327.579224
7.097077 86.285103 327.579224
7.091833 86.754730 327.337128
7.086064 87.217117 327.070862
7.086064 87.750069 327.070862
7.082784 88.242165 326.919464
7.082784 88.774879 326.919464
7.063447 89.063766 326.026947
7.063447 89.595024 326.026947
7.035791 89.773407 324.750427
7.010543 89.978531 323.585052
7.010543 90.505806 323.585052
6.997770 90.867226 322.995483
6.977418 91.127747 322.056122
6.977418 91.652527 322.056122
6.958733 91.930466 321.193665
6.875670 91.350273 317.359741
6.875670 91.867409 317.359741
6.903810 92.762634 318.658569
6.903810 93.281883 318.658569
6.903810 93.801132 318.658569
6.846211 93.533470 316.000000
6.846211 94.048393 316.000000
6.846211 94.563309 316.000000
6.846211 95.078224 316.000000
6.846211 95.593147 316.000000
6.846211 96.108063 316.000000
6.824546 96.317207 315.000000
6.802880 96.523094 314.000000
6.802880 97.034760 314.000000
6.802880 97.546417 314.000000
6.802880 98.058075 314.000000
6.802880 98.569733 314.000000
6.802880 99.081390 314.000000
6.802880 99.593048 314.000000
6.802880 100.104713 314.000000
6.802880 100.616371 314.000000
6.802880 101.128029 314.000000
6.802880 101.639687 314.000000
6.802880 102.151344 314.000000
6.802880 102.663002 314.000000
6.802880 103.174667 314.000000
6.802880 103.686325 314.000000
6.802880 104.197983 314.000000
6.802880 104.709641 314.000000
6.802880 105.221298 314.000000
6.802880 105.732964 314.000000
6.802880 106.244621 314.000000
6.802880 106.756279 314.000000
6.781215 106.926323 313.000000
6.781215 107.436356 313.000000
6.781215 107.946381 313.000000
6.781215 108.456413 313.000000
6.759550 108.618301 312.000000
6.759550 109.126701 312.000000
6.759550 109.635101 312.000000
6.759550 110.143501 312.000000
6.759550 110.651901 312.000000
6.759550 111.160301 312.000000
6.759550 111.668701 312.000000
6.759550 112.177101 312.000000
6.759550 112.685509 312.000000
6.759550 113.193909 312.000000
6.759550 113.702309 312.000000
6.759550 114.210709 312.000000
6.737885 114.351418 311.000000
6.737885 114.858185 311.000000
6.737885 115.364952 311.000000
6.737885 115.871727 311.000000
6.737885 116.378494 311.000000
6.737885 116.885269 311.000000
6.737885 117.392036 311.000000
6.737885 117.898811 311.000000
6.737885 118.405579 311.000000
6.737885 118.912346 311.000000
6.737885 119.419121 311.000000
6.737885 119.925888 311.000000
6.737885 120.432663 311.000000
6.737885 120.939430 311.000000
6.737885 121.446205 311.000000
6.737885 121.952972 311.000000
6.737885 122.459740 311.000000
6.737885 122.966515 311.000000
6.716220 123.076263 310.000000
6.716220 123.581406 310.000000
6.716220 124.086548 310.000000
6.694555 124.189774 309.000000
6.694555 124.693283 309.000000
6.694555 125.196800 309.000000
6.694555 125.700310 309.000000
6.694555 126.203819 309.000000
6.694555 126.707336 309.000000
6.694555 127.210846 309.000000
6.997868 133.500763 323.000000
6.997868 134.027084 323.000000
6.997868 134.553421 323.000000
6.997868 135.079742 323.000000
6.694555 129.728409 309.000000
6.694555 130.231918 309.000000
6.694555 130.735428 309.000000
6.694555 131.238937 309.000000
6.672889 131.316101 308.000000
6.672889 131.817978 308.000000
6.672889 132.319855 308.000000
6.672889 132.821747 308.000000
6.672889 133.323624 308.000000
6.672889 133.825500 308.000000
6.672889 134.327393 308.000000
6.672889 134.829269 308.000000
6.672889 135.331146 308.000000
6.672889 135.833038 308.000000
6.651224 135.892288 307.000000
6.629559 135.948257 306.000000
6.629559 136.446884 306.000000
6.629559 136.945511 306.000000
6.629559 137.444122 306.000000
6.629559 137.942749 306.000000
6.607893 137.988953 305.000000
6.607893 138.485947 305.000000
6.607893 138.982941 305.000000
6.607893 139.479935 305.000000
6.586228 139.517975 304.000000
6.586228 140.013351 304.000000
6.586228 140.508713 304.000000
6.564563 140.540237 303.000000
6.564563 141.033981 303.000000
6.564563 141.527710 303.000000
6.542898 141.552719 302.000000
6.542898 142.044830 302.000000
6.542898 142.536942 302.000000
6.542898 143.029037 302.000000
6.542898 143.521149 302.000000
6.542898 144.013260 302.000000
6.521233 144.026855 301.000000
6.521233 144.517334 301.000000
6.521233 145.007813 301.000000
6.499568 145.014923 300.000000
6.499568 145.503769 300.000000
6.499568 145.992615 300.000000
6.477902 145.993179 299.000000
6.477902 146.480392 299.000000
6.477902 146.967621 299.000000
6.477902 147.454834 299.000000
6.456237 147.447250 298.000000
6.456237 147.932846 298.000000
6.456237 148.418427 298.000000
6.456237 148.904022 298.000000
6.456237 149.389603 298.000000
6.434572 149.372253 297.000000
6.434572 149.856216 297.000000
6.434572 150.340164 297.000000
6.434572 150.824127 297.000000
6.412907 150.798630 296.000000
6.412907 151.280960 296.000000
6.412907 151.763290 296.000000
6.412907 152.245621 296.000000
6.412907 152.727936 296.000000
6.391242 152.692673 295.000000
6.391242 153.173370 295.000000
6.391242 153.654068 295.000000
6.391242 154.134766 295.000000
6.391242 154.615463 295.000000
6.391242 155.096161 295.000000
6.369576 155.049484 294.000000
6.369576 155.528564 294.000000
6.369576 156.007629 294.000000
6.369576 156.486694 294.000000
6.369576 156.965775 294.000000
6.369576 157.444839 294.000000
6.369576 157.923904 294.000000
6.369576 158.402969 294.000000
6.347911 158.341629 293.000000
6.347911 158.819061 293.000000
6.347911 159.296509 293.000000
6.347911 159.773941 293.000000
6.347911 160.251389 293.000000
6.347911 160.728821 293.000000
6.326246 160.656067 292.000000
6.326246 161.131882 292.000000
6.326246 161.607697 292.000000
6.326246 162.083496 292.000000
6.326246 162.559311 292.000000
6.326246 163.035126 292.000000
6.304581 162.950958 291.000000
6.304581 163.425140 291.000000
6.304581 163.899323 291.000000
6.304581 164.373505 291.000000
6.304581 164.847687 291.000000
6.282915 164.753754 290.000000
6.282915 165.226303 290.000000
6.282915 165.698853 290.000000
6.282915 166.171402 290.000000
6.282915 166.643951 290.000000
6.282915 167.116501 290.000000
6.282915 167.589050 290.000000
8.415777 -9.627001 361.285706
8.419106 -9.041864 361.428558
8.419106 -8.452921 361.428558
8.419106 -7.863977 361.428558
8.419106 -7.275035 361.428558
8.419106 -6.686091 361.428558
8.417109 -6.095703 361.342865
8.417109 -5.506899 361.342865
8.417109 -4.918095 361.342865
8.415254 -4.328337 361.263214
8.415254 -3.739664 361.263214
8.415254 -3.150990 361.263214
8.415112 -2.562272 361.257111
8.415112 -1.973608 361.257111
8.415112 -1.384945 361.257111
8.415112 -0.796281 361.257111
8.414571 -0.207604 361.233948
8.414571 0.381023 361.233948
8.401466 0.968139 360.671356
8.393959 1.554458 360.349060
8.393959 2.141642 360.349060
8.391605 2.728061 360.247986
8.409122 3.322001 361.000000
8.409122 3.910245 361.000000
8.409122 4.498490 361.000000
8.409122 5.086735 361.000000
8.409122 5.674980 361.000000
8.311001 6.190143 356.787689
8.305973 6.767427 356.571838
8.305973 7.348456 356.571838
8.265163 7.890527 354.819916
8.259714 8.463119 354.585999
8.274176 9.056741 355.206818
8.274176 9.635546 355.206818
8.274176 10.214351 355.206818
8.265333 10.781621 354.827209
8.265333 11.359807 354.827209
8.256029 11.924555 354.427765
8.138189 12.323647 349.368988
8.138189 12.892940 349.368988
8.128213 13.445729 348.940704
8.114651 13.990939 348.358459
8.114651 14.558585 348.358459
8.107248 15.112432 348.040680
8.108761 15.682486 348.105621
8.108761 16.249720 348.105621
8.108761 16.816952 348.105621
8.102899 17.371620 347.853973
8.102899 17.938442 347.853973
8.209195 18.748024 352.417206
8.210300 19.324886 352.464691
8.210300 19.899223 352.464691
8.210300 20.473560 352.464691
8.208421 21.043077 352.384003
8.208421 21.617283 352.384003
8.204080 22.179750 352.197601
8.128907 22.545164 348.970490
8.339240 23.711870 358.000000
8.339240 24.295227 358.000000
8.339240 24.878584 358.000000
8.080803 24.672859 346.905365
8.080803 25.238136 346.905365
8.065532 25.754654 346.249817
8.042645 26.244179 345.267273
8.042645 26.806789 345.267273
8.027468 27.317747 344.615723
8.184802 28.425716 351.370026
8.184802 28.998268 351.370026
8.184802 29.570822 351.370026
8.175315 30.108437 350.962769
8.175315 30.680325 350.962769
8.171058 31.235943 350.779999
8.197065 31.908772 351.896484
8.197065 32.482182 351.896484
8.197065 33.055592 351.896484
7.710303 31.632032 331.000000
7.710303 32.171391 331.000000
8.091350 34.327332 347.358154
8.091350 34.893345 347.358154
8.091350 35.459362 347.358154
8.067192 35.917824 346.321106
8.186020 37.019520 351.422333
8.186020 37.592159 351.422333
8.186020 38.164799 351.422333
8.152127 38.577053 349.967346
8.152127 39.147320 349.967346
8.121126 39.566547 348.636475
7.991637 39.494709 343.077545
7.991637 40.053749 343.077545
8.026202 40.788448 344.561432
8.026202 41.349907 344.561432
8.026202 41.911366 344.561432
7.956321 42.103024 341.561432
7.710303 41.340519 331.000000
7.710303 41.879879 331.000000
7.710303 42.419239 331.000000
7.710303 42.958599 331.000000
7.710303 43.497959 331.000000
7.710303 44.037319 331.000000
7.710303 44.576679 331.000000
7.710303 45.116039 331.000000
7.710303 45.655399 331.000000
7.687009 46.055199 330.000000
7.687009 46.592930 330.000000
7.687009 47.130657 330.000000
7.687009 47.668388 330.000000
7.687009 48.206120 330.000000
7.687009 48.743851 330.000000
7.710303 49.430923 331.000000
7.710303 49.970284 331.000000
7.710303 50.509644 331.000000
7.733597 51.203228 332.000000
7.733597 51.744217 332.000000
7.733597 52.285210 332.000000
7.733597 52.826199 332.000000
7.733597 53.367188 332.000000
7.733597 53.908176 332.000000
7.733597 54.449165 332.000000
7.733597 54.990158 332.000000
7.733597 55.531147 332.000000
7.733597 56.072136 332.000000
7.733597 56.613125 332.000000
7.733597 57.154118 332.000000
7.733597 57.695107 332.000000
7.733597 58.236095 332.000000
7.733597 58.777084 332.000000
7.733597 59.318077 332.000000
7.756891 60.039364 333.000000
7.756891 60.581985 333.000000
7.756891 61.124603 333.000000
7.756891 61.667225 333.000000
7.756891 62.209843 333.000000
7.756891 62.752460 333.000000
7.756891 63.295082 333.000000
7.756891 63.837700 333.000000
7.756891 64.380318 333.000000
7.756891 64.922935 333.000000
7.756891 65.465561 333.000000
7.756891 66.008179 333.000000
7.756891 66.550797 333.000000
7.733597 66.891930 332.000000
7.733597 67.432922 332.000000
7.733597 67.973915 332.000000
7.733597 68.514900 332.000000
7.733597 69.055893 332.000000
7.710303 69.387253 331.000000
7.710303 69.926613 331.000000
7.710303 70.465973 331.000000
7.710303 71.005333 331.000000
7.710303 71.544693 331.000000
7.710303 72.084053 331.000000
7.710303 72.623413 331.000000
7.710303 73.162773 331.000000
7.710303 73.702133 331.000000
7.710303 74.241493 331.000000
7.710303 74.780853 331.000000
7.710303 75.320213 331.000000
7.710303 75.859573 331.000000
7.710303 76.398933 331.000000
7.710303 76.938293 331.000000
7.710303 77.477654 331.000000
7.710303 78.017014 331.000000
7.710303 78.556374 331.000000
7.710303 79.095734 331.000000
7.687009 79.394508 330.000000
7.687009 79.932243 330.000000
7.687009 80.469971 330.000000
7.687009 81.007706 330.000000
7.671124 81.376915 329.318054
7.671124 81.913544 329.318054
7.671124 82.450157 329.318054
7.667205 82.944389 329.149841
7.667205 83.480728 329.149841
7.642524 83.746620 328.090271
7.642524 84.281235 328.090271
7.642524 84.815857 328.090271
7.635746 85.274780 327.799286
7.630619 85.751312 327.579224
7.630619 86.285103 327.579224
7.624980 86.754730 327.337128
7.618777 87.217117 327.070862
7.618777 87.750069 327.070862
7.615251 88.242165 326.919464
7.615251 88.774879 326.919464
7.594461 89.063766 326.026947
7.594461 89.595024 326.026947
7.564726 89.773407 324.750427
7.537580 89.978531 323.585052
7.537580 90.505806 323.585052
7.523846 90.867226 322.995483
7.501965 91.127747 322.056122
7.501965 91.652527 322.056122
7.481875 91.930466 321.193665
7.459570 92.178230 320.236145
7.459570 92.700050 320.236145
7.442864 93.013092 319.518951
7.427577 93.341652 318.862732
7.427577 93.861237 318.862732
7.420049 94.285149 318.539520
7.360894 94.048393 316.000000
7.360894 94.563309 316.000000
7.360894 95.078224 316.000000
7.360894 95.593147 316.000000
7.360894 96.108063 316.000000
7.337599 96.317207 315.000000
7.314305 96.523094 314.000000
7.314305 97.034760 314.000000
7.314305 97.546417 314.000000
7.314305 98.058075 314.000000
7.314305 98.569733 314.000000
7.314305 99.081390 314.000000
7.314305 99.593048 314.000000
7.314305 100.104713 314.000000
7.314305 100.616371 314.000000
7.314305 101.128029 314.000000
7.314305 101.639687 314.000000
7.314305 102.151344 314.000000
7.314305 102.663002 314.000000
7.314305 103.174667 314.000000
7.314305 103.686325 314.000000
7.314305 104.197983 314.000000
7.314305 104.709641 314.000000
7.314305 105.221298 314.000000
7.314305 105.732964 314.000000
7.314305 106.244621 314.000000
7.314305 106.756279 314.000000
7.291011 106.926323 313.000000
7.291011 107.436356 313.000000
7.291011 107.946381 313.000000
7.291011 108.456413 313.000000
7.267718 108.618301 312.000000
7.267718 109.126701 312.000000
7.267718 109.635101 312.000000
7.267718 110.143501 312.000000
7.267718 110.651901 312.000000
7.267718 111.160301 312.000000
7.267718 111.668701 312.000000
7.267718 112.177101 312.000000
7.267718 112.685509 312.000000
7.267718 113.193909 312.000000
7.267718 113.702309 312.000000
7.267718 114.210709 312.000000
7.267718 114.719109 312.000000
7.267718 115.227509 312.000000
7.267718 115.735909 312.000000
7.244424 115.871727 311.000000
7.244424 116.378494 311.000000
7.244424 116.885269 311.000000
7.244424 117.392036 311.000000
7.244424 117.898811 311.000000
7.244424 118.405579 311.000000
7.244424 118.912346 311.000000
7.244424 119.419121 311.000000
7.244424 119.925888 311.000000
7.244424 120.432663 311.000000
7.244424 120.939430 311.000000
7.244424 121.446205 311.000000
7.244424 121.952972 311.000000
7.244424 122.459740 311.000000
7.244424 122.966515 311.000000
7.244424 123.473282 311.000000
7.221130 123.581406 310.000000
7.221130 124.086548 310.000000
7.221130 124.591682 310.000000
7.221130 125.096825 310.000000
7.221130 125.601967 310.000000
7.221130 126.107109 310.000000
7.221130 126.612251 310.000000
7.221130 127.117393 310.000000
7.221130 127.622528 310.000000
7.523951 133.500763 323.000000
7.523951 134.027084 323.000000
7.523951 134.553421 323.000000
7.523951 135.079742 323.000000
7.221130 130.148239 310.000000
7.197836 130.231918 309.000000
7.197836 130.735428 309.000000
7.197836 131.238937 309.000000
7.197836 131.742447 309.000000
7.174541 131.817978 308.000000
7.197836 132.749466 309.000000
7.197836 133.252991 309.000000
7.197836 133.756500 309.000000
7.174541 133.825500 308.000000
7.174541 134.327393 308.000000
7.174541 134.829269 308.000000
7.174541 135.331146 308.000000
7.174541 135.833038 308.000000
7.174541 136.334915 308.000000
7.151248 136.392532 307.000000
7.151248 136.892792 307.000000
7.151248 137.393036 307.000000
7.127954 137.444122 306.000000
7.127954 137.942749 306.000000
7.127954 138.441376 306.000000
7.104660 138.485947 305.000000
7.104660 138.982941 305.000000
7.104660 139.479935 305.000000
7.104660 139.976929 305.000000
7.104660 140.473923 305.000000
7.081366 140.508713 304.000000
7.081366 141.004074 304.000000
7.081366 141.499435 304.000000
7.058072 141.527710 303.000000
7.058072 142.021439 303.000000
7.058072 142.515182 303.000000
7.034778 142.536942 302.000000
7.034778 143.029037 302.000000
7.034778 143.521149 302.000000
7.034778 144.013260 302.000000
7.011484 144.026855 301.000000
7.011484 144.517334 301.000000
7.011484 145.007813 301.000000
6.988191 145.014923 300.000000
6.988191 145.503769 300.000000
6.988191 145.992615 300.000000
6.964896 145.993179 299.000000
6.964896 146.480392 299.000000
6.964896 146.967621 299.000000
6.964896 147.454834 299.000000
6.941602 147.447250 298.000000
6.941602 147.932846 298.000000
6.941602 148.418427 298.000000
6.941602 148.904022 298.000000
6.941602 149.389603 298.000000
6.918308 149.372253 297.000000
6.918308 149.856216 297.000000
6.918308 150.340164 297.000000
6.918308 150.824127 297.000000
6.895014 150.798630 296.000000
6.895014 151.280960 296.000000
6.895014 151.763290 296.000000
6.895014 152.245621 296.000000
6.895014 152.727936 296.000000
6.871720 152.692673 295.000000
6.871720 153.173370 295.000000
6.871720 153.654068 295.000000
6.871720 154.134766 295.000000
6.871720 154.615463 295.000000
6.871720 155.096161 295.000000
6.848426 155.049484 294.000000
6.848426 155.528564 294.000000
6.848426 156.007629 294.000000
6.848426 156.486694 294.000000
6.848426 156.965775 294.000000
6.848426 157.444839 294.000000
6.848426 157.923904 294.000000
6.848426 158.402969 294.000000
6.825132 158.341629 293.000000
6.825132 158.819061 293.000000
6.825132 159.296509 293.000000
6.825132 159.773941 293.000000
6.825132 160.251389 293.000000
6.801838 160.180267 292.000000
6.801838 160.656067 292.000000
6.801838 161.131882 292.000000
6.801838 161.607697 292.000000
6.801838 162.083496 292.000000
6.801838 162.559311 292.000000
6.778544 162.476776 291.000000
6.778544 162.950958 291.000000
6.778544 163.425140 291.000000
6.778544 163.899323 291.000000
6.755250 163.808640 290.000000
6.755250 164.281204 290.000000
6.755250 164.753754 290.000000
6.755250 165.226303 290.000000
6.755250 165.698853 290.000000
6.755250 166.171402 290.000000
6.755250 166.643951 290.000000
6.755250 167.116501 290.000000
9.006444 -11.395948 361.375000
9.008001 -10.808962 361.437500
9.008001 -10.220004 361.437500
9.008155 -9.631209 361.443634
9.010875 -9.044972 361.552795
9.010875 -8.455827 361.552795
9.017056 -7.872077 361.800812
9.017056 -7.282527 361.800812
9.017056 -6.692978 361.800812
9.015520 -6.102388 361.739197
9.022020 -5.516913 362.000000
9.022020 -4.927039 362.000000
9.022020 -4.337165 362.000000
9.022020 -3.747290 362.000000
9.022020 -3.157416 362.000000
9.022020 -2.567541 362.000000
9.022020 -1.977667 362.000000
9.022020 -1.387793 362.000000
9.022020 -0.797918 362.000000
9.022020 -0.208044 362.000000
9.022020 0.381831 362.000000
9.022020 0.971705 362.000000
8.997098 1.557266 361.000000
8.997098 2.145511 361.000000
8.997098 2.733756 361.000000
8.997098 3.322001 361.000000
8.997098 3.910245 361.000000
8.997098 4.498490 361.000000
8.997098 5.086735 361.000000
8.997098 5.674980 361.000000
8.972175 6.245875 360.000000
8.972175 6.832491 360.000000
8.972175 7.419107 360.000000
8.898763 7.940217 357.054382
8.898763 8.522033 357.054382
8.829143 9.032624 354.260956
8.829143 9.609887 354.260956
8.807547 10.162233 353.394440
8.972175 10.938800 360.000000
8.972175 11.525415 360.000000
8.972175 12.112030 360.000000
8.947252 12.663372 359.000000
8.947252 13.248358 359.000000
8.947252 13.833344 359.000000
8.947252 14.418329 359.000000
8.947252 15.003316 359.000000
8.947252 15.588302 359.000000
8.947252 16.173286 359.000000
8.947252 16.758274 359.000000
8.947252 17.343260 359.000000
8.947252 17.928246 359.000000
8.947252 18.513231 359.000000
8.947252 19.098217 359.000000
8.784375 19.324886 352.464691
8.784375 19.899223 352.464691
8.784375 20.473560 352.464691
8.782364 21.043077 352.384003
8.782364 21.617283 352.384003
8.947252 22.608133 359.000000
8.947252 23.193119 359.000000
8.947252 23.778105 359.000000
8.922330 24.295227 358.000000
8.922330 24.878584 358.000000
8.922330 25.461939 358.000000
8.922330 26.045296 358.000000
8.922330 26.628653 358.000000
8.922330 27.212009 358.000000
8.922330 27.795366 358.000000
8.922330 28.378721 358.000000
8.922330 28.962078 358.000000
8.922330 29.545435 358.000000
8.757092 29.570822 351.370026
8.746943 30.108437 350.962769
8.746943 30.680325 350.962769
8.742387 31.235943 350.779999
8.770213 31.908772 351.896484
8.770213 32.482182 351.896484
8.770213 33.055592 351.896484
8.657105 34.327332 347.358154
8.657105 34.893345 347.358154
8.657105 35.459362 347.358154
8.810159 36.662289 353.499268
8.810159 37.238308 353.499268
8.810159 37.814331 353.499268
8.758396 38.164799 351.422333
8.722134 38.577053 349.967346
8.722134 39.147320 349.967346
8.688965 39.566547 348.636475
8.550422 39.494709 343.077545
8.550422 40.053749 343.077545
8.587404 40.788448 344.561432
8.587404 41.349907 344.561432
8.587404 41.911366 344.561432
8.512636 42.103024 341.561432
8.612687 43.160984 345.575897
8.612687 43.724098 345.575897
8.612687 44.287209 345.575897
8.274340 43.088383 332.000000
8.274340 43.629372 332.000000
8.274340 44.170361 332.000000
8.249416 44.576679 331.000000
8.249416 45.116039 331.000000
8.249416 45.655399 331.000000
8.433396 47.225002 338.382019
8.433396 47.776390 338.382019
8.433396 48.327782 338.382019
8.403934 48.708408 337.199860
8.389724 49.174583 336.629700
8.389724 49.723118 336.629700
8.375342 50.185474 336.052643
8.351319 50.587551 335.088745
8.351319 51.133572 335.088745
8.274340 51.203228 332.000000
8.274340 51.744217 332.000000
8.274340 52.285210 332.000000
8.274340 52.826199 332.000000
8.274340 53.367188 332.000000
8.274340 53.908176 332.000000
8.274340 54.449165 332.000000
8.333809 55.385384 334.386169
8.333809 55.930264 334.386169
8.333809 56.475143 334.386169
8.274340 56.613125 332.000000
8.299262 57.326267 333.000000
8.299262 57.868889 333.000000
8.324184 58.586914 334.000000
8.324184 59.131161 334.000000
8.324184 59.675411 334.000000
8.324184 60.219658 334.000000
8.324184 60.763908 334.000000
8.324184 61.308155 334.000000
8.324184 61.852406 334.000000
8.324184 62.396656 334.000000
8.324184 62.940903 334.000000
8.324184 63.485153 334.000000
8.324184 64.029404 334.000000
8.324184 64.573647 334.000000
8.324184 65.117897 334.000000
8.324184 65.662148 334.000000
8.324184 66.206398 334.000000
8.299262 66.550797 333.000000
8.299262 67.093414 333.000000
8.299262 67.636032 333.000000
8.299262 68.178658 333.000000
8.299262 68.721275 333.000000
8.299262 69.263893 333.000000
8.299262 69.806511 333.000000
8.274340 70.137871 332.000000
8.274340 70.678864 332.000000
8.274340 71.219849 332.000000
8.274340 71.760841 332.000000
8.274340 72.301834 332.000000
8.274340 72.842819 332.000000
8.274340 73.383812 332.000000
8.274340 73.924797 332.000000
8.274340 74.465790 332.000000
8.274340 75.006783 332.000000
8.274340 75.547768 332.000000
8.274340 76.088760 332.000000
8.249416 76.398933 331.000000
8.249416 76.938293 331.000000
8.249416 77.477654 331.000000
8.249416 78.017014 331.000000
8.249416 78.556374 331.000000
8.249416 79.095734 331.000000
8.224494 79.394508 330.000000
8.224494 79.932243 330.000000
8.224494 80.469971 330.000000
8.224494 81.007706 330.000000
8.207498 81.376915 329.318054
8.207498 81.913544 329.318054
8.207498 82.450157 329.318054
8.203305 82.944389 329.149841
8.203305 83.480728 329.149841
8.176898 83.746620 328.090271
8.176898 84.281235 328.090271
8.176898 84.815857 328.090271
8.169646 85.274780 327.799286
8.164162 85.751312 327.579224
8.164162 86.285103 327.579224
8.158128 86.754730 327.337128
8.151492 87.217117 327.070862
8.151492 87.750069 327.070862
8.147718 88.242165 326.919464
8.147718 88.774879 326.919464
8.125474 89.063766 326.026947
8.125474 89.595024 326.026947
8.093659 89.773407 324.750427
8.048499 89.798714 322.938385
8.048499 90.324936 322.938385
8.035669 90.706329 322.423584
8.022470 91.081856 321.893951
8.022470 91.606377 321.893951
8.003804 91.916550 321.145050
8.000577 92.402580 321.015564
8.000577 92.925674 321.015564
7.998200 93.421005 320.920197
7.998159 93.943443 320.918518
7.998159 94.466377 320.918518
7.998159 94.989311 320.918518
7.980376 95.299896 320.205017
7.980376 95.821663 320.205017
7.900499 95.379105 317.000000
7.900499 95.895653 317.000000
7.900499 96.412193 317.000000
7.900499 96.928741 317.000000
7.867996 97.044403 315.695862
7.867996 97.558830 315.695862
7.861948 97.997871 315.453217
7.889840 98.861382 316.572327
7.889840 99.377228 316.572327
7.889840 99.893082 316.572327
7.880762 100.293404 316.208099
7.880762 100.808662 316.208099
7.825730 100.616371 314.000000
7.850653 101.450096 315.000000
7.850653 101.963379 315.000000
7.850653 102.476669 315.000000
7.850653 102.989960 315.000000
7.850653 103.503250 315.000000
7.850653 104.016541 315.000000
7.850653 104.529823 315.000000
7.850653 105.043114 315.000000
7.850653 105.556404 315.000000
7.850653 106.069695 315.000000
7.825730 106.244621 314.000000
7.825730 106.756279 314.000000
7.825730 107.267944 314.000000
7.825730 107.779602 314.000000
7.825730 108.291260 314.000000
7.825730 108.802917 314.000000
7.800807 108.966438 313.000000
7.800807 109.476471 313.000000
7.800807 109.986504 313.000000
7.800807 110.496529 313.000000
7.800807 111.006561 313.000000
7.800807 111.516586 313.000000
7.800807 112.026619 313.000000
7.800807 112.536652 313.000000
7.800807 113.046677 313.000000
7.800807 113.556709 313.000000
7.800807 114.066734 313.000000
7.800807 114.576767 313.000000
7.775885 114.719109 312.000000
7.775885 115.227509 312.000000
7.775885 115.735909 312.000000
7.750962 115.871727 311.000000
7.750962 116.378494 311.000000
7.750962 116.885269 311.000000
7.750962 117.392036 311.000000
7.750962 117.898811 311.000000
7.750962 118.405579 311.000000
7.750962 118.912346 311.000000
7.750962 119.419121 311.000000
7.750962 119.925888 311.000000
7.750962 120.432663 311.000000
7.750962 120.939430 311.000000
7.750962 121.446205 311.000000
7.750962 121.952972 311.000000
7.750962 122.459740 311.000000
7.750962 122.966515 311.000000
7.750962 123.473282 311.000000
7.726040 123.581406 310.000000
7.726040 124.086548 310.000000
7.726040 124.591682 310.000000
7.726040 125.096825 310.000000
7.726040 125.601967 310.000000
7.726040 126.107109 310.000000
7.726040 126.612251 310.000000
7.726040 127.117393 310.000000
7.726040 127.622528 310.000000
7.726040 128.127670 310.000000
8.050035 134.027084 323.000000
8.050035 134.553421 323.000000
8.050035 135.079742 323.000000
7.726040 130.148239 310.000000
7.701117 130.231918 309.000000
7.701117 130.735428 309.000000
7.701117 131.238937 309.000000
7.701117 131.742447 309.000000
7.676194 131.817978 308.000000
7.701117 132.749466 309.000000
7.701117 133.252991 309.000000
7.701117 133.756500 309.000000
7.676194 133.825500 308.000000
7.676194 134.327393 308.000000
7.676194 134.829269 308.000000
7.676194 135.331146 308.000000
7.676194 135.833038 308.000000
7.676194 136.334915 308.000000
7.651271 136.392532 307.000000
7.651271 136.892792 307.000000
7.651271 137.393036 307.000000
7.651271 137.893295 307.000000
7.651271 138.393539 307.000000
7.626348 138.441376 306.000000
7.626348 138.940002 306.000000
7.626348 139.438614 306.000000
7.601426 139.479935 305.000000
7.601426 139.976929 305.000000
7.601426 140.473923 305.000000
7.601426 140.970917 305.000000
7.576503 141.004074 304.000000
7.576503 141.499435 304.000000
7.576503 141.994797 304.000000
7.551581 142.021439 303.000000
7.551581 142.515182 303.000000
7.551581 143.008911 303.000000
7.551581 143.502655 303.000000
7.551581 143.996384 303.000000
7.526658 144.013260 302.000000
7.526658 144.505356 302.000000
7.501736 144.517334 301.000000
7.501736 145.007813 301.000000
7.476813 145.014923 300.000000
7.476813 145.503769 300.000000
7.476813 145.992615 300.000000
7.476813 146.481461 300.000000
7.451890 146.480392 299.000000
7.451890 146.967621 299.000000
7.451890 147.454834 299.000000
7.426967 147.447250 298.000000
7.426967 147.932846 298.000000
7.426967 148.418427 298.000000
7.426967 148.904022 298.000000
7.426967 149.389603 298.000000
7.402044 149.372253 297.000000
7.402044 149.856216 297.000000
7.402044 150.340164 297.000000
7.402044 150.824127 297.000000
7.377121 150.798630 296.000000
7.377121 151.280960 296.000000
7.377121 151.763290 296.000000
7.352199 151.731262 295.000000
7.352199 152.211960 295.000000
7.352199 152.692673 295.000000
7.352199 153.173370 295.000000
7.352199 153.654068 295.000000
7.352199 154.134766 295.000000
7.352199 154.615463 295.000000
7.352199 155.096161 295.000000
7.327276 155.049484 294.000000
7.327276 155.528564 294.000000
7.327276 156.007629 294.000000
7.327276 156.486694 294.000000
7.327276 156.965775 294.000000
7.327276 157.444839 294.000000
7.327276 157.923904 294.000000
7.327276 158.402969 294.000000
7.302354 158.341629 293.000000
7.302354 158.819061 293.000000
7.302354 159.296509 293.000000
7.302354 159.773941 293.000000
7.302354 160.251389 293.000000
7.277431 160.180267 292.000000
7.277431 160.656067 292.000000
7.277431 161.131882 292.000000
7.277431 161.607697 292.000000
7.277431 162.083496 292.000000
7.277431 162.559311 292.000000
7.252508 162.476776 291.000000
7.252508 162.950958 291.000000
7.252508 163.425140 291.000000
7.252508 163.899323 291.000000
7.227585 163.808640 290.000000
7.227585 164.281204 290.000000
7.227585 164.753754 290.000000
7.227585 165.226303 290.000000
7.227585 165.698853 290.000000
7.227585 166.171402 290.000000
9.595030 -11.395948 361.375000
9.596690 -10.808962 361.437500
9.596690 -10.220004 361.437500
9.596852 -9.631209 361.443634
9.599751 -9.044972 361.552795
9.599751 -8.455827 361.552795
9.606336 -7.872077 361.800812
9.606336 -7.282527 361.800812
9.606336 -6.692978 361.800812
9.604700 -6.102388 361.739197
9.611625 -5.516913 362.000000
9.611625 -4.927039 362.000000
9.611625 -4.337165 362.000000
9.611625 -3.747290 362.000000
9.611625 -3.157416 362.000000
9.611625 -2.567541 362.000000
9.611625 -1.977667 362.000000
9.611625 -1.387793 362.000000
9.611625 -0.797918 362.000000
9.611625 -0.208044 362.000000
9.611625 0.381831 362.000000
9.611625 0.971705 362.000000
9.585073 1.557266 361.000000
9.585073 2.145511 361.000000
9.585073 2.733756 361.000000
9.585073 3.322001 361.000000
9.585073 3.910245 361.000000
9.585073 4.498490 361.000000
9.585073 5.086735 361.000000
9.585073 5.674980 361.000000
9.558522 6.245875 360.000000
9.558522 6.832491 360.000000
9.558522 7.419107 360.000000
9.558522 8.005722 360.000000
9.558522 8.592338 360.000000
9.434645 9.059995 355.334442
9.434645 9.639008 355.334442
9.531971 10.323428 359.000000
9.558522 10.938800 360.000000
9.558522 11.525415 360.000000
9.558522 12.112030 360.000000
9.531971 12.663372 359.000000
9.531971 13.248358 359.000000
9.531971 13.833344 359.000000
9.531971 14.418329 359.000000
9.531971 15.003316 359.000000
9.531971 15.588302 359.000000
9.531971 16.173286 359.000000
9.531971 16.758274 359.000000
9.531971 17.343260 359.000000
9.531971 17.928246 359.000000
9.531971 18.513231 359.000000
9.531971 19.098217 359.000000
9.531971 19.683203 359.000000
9.531971 20.268188 359.000000
9.531971 20.853174 359.000000
9.531971 21.438162 359.000000
9.531971 22.023148 359.000000
9.531971 22.608133 359.000000
9.531971 23.193119 359.000000
9.531971 23.778105 359.000000
9.505420 24.295227 358.000000
9.505420 24.878584 358.000000
9.505420 25.461939 358.000000
9.505420 26.045296 358.000000
9.505420 26.628653 358.000000
9.505420 27.212009 358.000000
9.505420 27.795366 358.000000
9.505420 28.378721 358.000000
9.505420 28.962078 358.000000
9.505420 29.545435 358.000000
9.505420 30.128792 358.000000
9.505420 30.712149 358.000000
9.505420 31.295504 358.000000
9.505420 31.878860 358.000000
9.505420 32.462219 358.000000
9.505420 33.045574 358.000000
10.275411 36.353062 387.000000
10.275411 36.983673 387.000000
10.275411 37.614285 387.000000
10.275411 38.244896 387.000000
9.312044 35.230751 350.716980
9.312044 35.802238 350.716980
9.385919 36.662289 353.499268
9.385919 37.238308 353.499268
9.385919 37.814331 353.499268
9.574322 39.160965 360.595062
9.574322 39.748550 360.595062
9.574322 40.336136 360.595062
9.258556 39.574039 348.702484
9.230625 40.021145 347.650543
9.316227 40.964031 350.874512
9.316227 41.535774 350.874512
9.316227 42.107521 350.874512
9.252281 42.386322 348.466125
9.252281 42.954144 348.466125
9.184072 43.201115 345.897217
9.175541 43.724098 345.575897
9.175541 44.287209 345.575897
8.815082 43.088383 332.000000
8.815082 43.629372 332.000000
8.815082 44.170361 332.000000
8.788529 44.576679 331.000000
8.788529 45.116039 331.000000
8.788529 45.655399 331.000000
8.984533 47.225002 338.382019
8.984533 47.776390 338.382019
8.984533 48.327782 338.382019
8.953145 48.708408 337.199860
8.938006 49.174583 336.629700
8.938006 49.723118 336.629700
8.922686 50.185474 336.052643
8.897092 50.587551 335.088745
8.897092 51.133572 335.088745
8.815082 51.203228 332.000000
8.815082 51.744217 332.000000
8.815082 52.285210 332.000000
8.815082 52.826199 332.000000
8.937687 54.109451 336.617645
8.937687 54.657963 336.617645
8.937687 55.206478 336.617645
8.930893 55.712612 336.361786
8.930893 56.260712 336.361786
8.927376 56.786430 336.229309
8.919814 57.285755 335.944519
8.919814 57.833168 335.944519
8.894736 58.216446 335.000000
8.894736 58.762325 335.000000
8.894736 59.308205 335.000000
8.894736 59.854080 335.000000
8.894736 60.399960 335.000000
8.894736 60.945839 335.000000
8.894736 61.491714 335.000000
8.868184 61.852406 334.000000
8.868184 62.396656 334.000000
8.868184 62.940903 334.000000
8.868184 63.485153 334.000000
8.868184 64.029404 334.000000
8.868184 64.573647 334.000000
8.868184 65.117897 334.000000
8.868184 65.662148 334.000000
8.868184 66.206398 334.000000
8.868184 66.750641 334.000000
8.868184 67.294891 334.000000
8.868184 67.839142 334.000000
8.868184 68.383392 334.000000
8.841633 68.721275 333.000000
8.841633 69.263893 333.000000
8.841633 69.806511 333.000000
8.841633 70.349129 333.000000
8.841633 70.891754 333.000000
8.815082 71.219849 332.000000
8.815082 71.760841 332.000000
8.815082 72.301834 332.000000
8.815082 72.842819 332.000000
8.815082 73.383812 332.000000
8.815082 73.924797 332.000000
8.815082 74.465790 332.000000
8.815082 75.006783 332.000000
8.815082 75.547768 332.000000
8.815082 76.088760 332.000000
8.815082 76.629745 332.000000
8.815082 77.170738 332.000000
8.815082 77.711731 332.000000
8.815082 78.252716 332.000000
8.815082 78.793709 332.000000
8.815082 79.334702 332.000000
8.788529 79.635094 331.000000
8.788529 80.174454 331.000000
8.788529 80.713814 331.000000
8.788529 81.253174 331.000000
8.649999 80.503265 325.782532
8.649999 81.034126 325.782532
8.773572 82.730209 330.436646
8.773572 83.268654 330.436646
8.773572 83.807098 330.436646
8.602919 82.704956 324.009399
8.683037 84.008064 327.026855
8.683037 84.540947 327.026855
8.683037 85.073837 327.026855
8.672488 85.502716 326.629547
8.672488 86.034958 326.629547
8.660884 86.451363 326.192505
8.650774 86.881355 325.811737
8.650774 87.412262 325.811737
8.613477 87.564003 324.407013
8.613477 88.092621 324.407013
8.613477 88.621239 324.407013
8.612325 89.137939 324.363647
8.592904 89.464287 323.632202
8.574482 89.798714 322.938385
8.574482 90.324936 322.938385
8.560814 90.706329 322.423584
8.546751 91.081856 321.893951
8.546751 91.606377 321.893951
8.526867 91.916550 321.145050
8.523429 92.402580 321.015564
8.523429 92.925674 321.015564
8.520897 93.421005 320.920197
8.520852 93.943443 320.918518
8.520852 94.466377 320.918518
8.520852 94.989311 320.918518
8.501907 95.299896 320.205017
8.501907 95.821663 320.205017
8.416810 95.379105 317.000000
8.416810 95.895653 317.000000
8.416810 96.412193 317.000000
8.416810 96.928741 317.000000
8.382183 97.044403 315.695862
8.382183 97.558830 315.695862
8.375741 97.997871 315.453217
8.471454 99.637642 319.058044
8.471454 100.157532 319.058044
8.471454 100.677437 319.058044
8.457544 101.031181 318.534180
8.457544 101.550232 318.534180
8.445275 101.921211 318.072113
8.363707 101.450096 315.000000
8.363707 101.963379 315.000000
8.363707 102.476669 315.000000
8.363707 102.989960 315.000000
8.363707 103.503250 315.000000
8.363707 104.016541 315.000000
8.363707 104.529823 315.000000
8.363707 105.043114 315.000000
8.363707 105.556404 315.000000
8.363707 106.069695 315.000000
8.363707 106.582977 315.000000
8.363707 107.096260 315.000000
8.363707 107.609550 315.000000
8.337155 107.779602 314.000000
8.337155 108.291260 314.000000
8.337155 108.802917 314.000000
8.337155 109.314583 314.000000
8.337155 109.826241 314.000000
8.337155 110.337898 314.000000
8.337155 110.849556 314.000000
8.337155 111.361214 314.000000
8.337155 111.872871 314.000000
8.337155 112.384537 314.000000
8.337155 112.896194 314.000000
8.337155 113.407852 314.000000
8.337155 113.919510 314.000000
8.337155 114.431168 314.000000
8.337155 114.942825 314.000000
8.310604 115.086800 313.000000
8.310604 115.596825 313.000000
8.310604 116.106857 313.000000
8.284052 116.244308 312.000000
8.284052 116.752708 312.000000
8.284052 117.261108 312.000000
8.257501 117.392036 311.000000
8.257501 117.898811 311.000000
8.257501 118.405579 311.000000
8.257501 118.912346 311.000000
8.257501 119.419121 311.000000
8.257501 119.925888 311.000000
8.257501 120.432663 311.000000
8.257501 120.939430 311.000000
8.257501 121.446205 311.000000
8.257501 121.952972 311.000000
8.257501 122.459740 311.000000
8.257501 122.966515 311.000000
8.257501 123.473282 311.000000
8.257501 123.980057 311.000000
8.257501 124.486824 311.000000
8.257501 124.993599 311.000000
8.230949 125.096825 310.000000
8.230949 125.601967 310.000000
8.230949 126.107109 310.000000
8.230949 126.612251 310.000000
8.230949 127.117393 310.000000
8.230949 127.622528 310.000000
8.230949 128.127670 310.000000
8.576118 134.027084 323.000000
8.576118 134.553421 323.000000
8.576118 135.079742 323.000000
8.230949 130.148239 310.000000
8.204398 130.231918 309.000000
8.204398 130.735428 309.000000
8.204398 131.238937 309.000000
8.204398 131.742447 309.000000
8.204398 132.245956 309.000000
8.204398 132.749466 309.000000
8.204398 133.252991 309.000000
8.204398 133.756500 309.000000
8.204398 134.260010 309.000000
8.204398 134.763519 309.000000
8.177846 134.829269 308.000000
8.177846 135.331146 308.000000
8.177846 135.833038 308.000000
8.177846 136.334915 308.000000
8.177846 136.836792 308.000000
8.177846 137.338684 308.000000
8.151295 137.393036 307.000000
8.151295 137.893295 307.000000
8.151295 138.393539 307.000000
8.124743 138.441376 306.000000
8.124743 138.940002 306.000000
8.124743 139.438614 306.000000
8.098192 139.479935 305.000000
8.098192 139.976929 305.000000
8.098192 140.473923 305.000000
8.098192 140.970917 305.000000
8.071641 141.004074 304.000000
8.071641 141.499435 304.000000
8.071641 141.994797 304.000000
8.045090 142.021439 303.000000
8.045090 142.515182 303.000000
8.045090 143.008911 303.000000
8.045090 143.502655 303.000000
8.045090 143.996384 303.000000
8.018538 144.013260 302.000000
8.018538 144.505356 302.000000
7.991987 144.517334 301.000000
7.991987 145.007813 301.000000
7.991987 145.498291 301.000000
7.965436 145.503769 300.000000
7.965436 145.992615 300.000000
7.965436 146.481461 300.000000
7.965436 146.970306 300.000000
7.965436 147.459152 300.000000
7.938883 147.454834 299.000000
7.938883 147.942047 299.000000
7.938883 148.429260 299.000000
7.912332 148.418427 298.000000
7.912332 148.904022 298.000000
7.912332 149.389603 298.000000
7.885780 149.372253 297.000000
7.885780 149.856216 297.000000
7.885780 150.340164 297.000000
7.885780 150.824127 297.000000
7.885780 151.308090 297.000000
7.885780 151.792038 297.000000
7.859229 151.763290 296.000000
7.832678 151.731262 295.000000
7.832678 152.211960 295.000000
7.832678 152.692673 295.000000
7.832678 153.173370 295.000000
7.832678 153.654068 295.000000
7.832678 154.134766 295.000000
7.806127 154.091354 294.000000
7.806127 154.570419 294.000000
7.806127 155.049484 294.000000
7.806127 155.528564 294.000000
7.806127 156.007629 294.000000
7.806127 156.486694 294.000000
7.806127 156.965775 294.000000
7.806127 157.444839 294.000000
7.806127 157.923904 294.000000
7.779575 157.864182 293.000000
7.779575 158.341629 293.000000
7.779575 158.819061 293.000000
7.779575 159.296509 293.000000
7.753023 159.228638 292.000000
7.753023 159.704453 292.000000
7.753023 160.180267 292.000000
7.753023 160.656067 292.000000
7.753023 161.131882 292.000000
7.753023 161.607697 292.000000
7.753023 162.083496 292.000000
7.753023 162.559311 292.000000
7.726471 162.476776 291.000000
7.726471 162.950958 291.000000
7.726471 163.425140 291.000000
7.699920 163.336090 290.000000
7.699920 163.808640 290.000000
7.699920 164.281204 290.000000
7.699920 164.753754 290.000000
7.699920 165.226303 290.000000
7.699920 165.698853 290.000000
7.699920 166.171402 290.000000
10.188419 -11.990457 361.545441
10.188419 -11.401323 361.545441
10.188419 -10.812190 361.545441
10.187047 -10.221679 361.496735
10.187047 -9.632625 361.496735
10.201229 -9.056160 362.000000
10.201229 -8.466286 362.000000
10.201229 -7.876411 362.000000
10.201229 -7.286537 362.000000
10.201229 -6.696662 362.000000
10.201229 -6.106788 362.000000
10.201229 -5.516913 362.000000
10.201229 -4.927039 362.000000
10.201229 -4.337165 362.000000
10.201229 -3.747290 362.000000
10.201229 -3.157416 362.000000
10.201229 -2.567541 362.000000
10.201229 -1.977667 362.000000
10.201229 -1.387793 362.000000
10.201229 -0.797918 362.000000
10.201229 -0.208044 362.000000
10.201229 0.381831 362.000000
10.201229 0.971705 362.000000
10.173049 1.557266 361.000000
10.173049 2.145511 361.000000
10.173049 2.733756 361.000000
10.173049 3.322001 361.000000
10.173049 3.910245 361.000000
10.144869 4.486029 360.000000
10.144869 5.072645 360.000000
10.144869 5.659260 360.000000
10.144869 6.245875 360.000000
10.144869 6.832491 360.000000
10.144869 7.419107 360.000000
10.144869 8.005722 360.000000
10.144869 8.592338 360.000000
10.013392 9.059995 355.334442
10.013392 9.639008 355.334442
10.116689 10.323428 359.000000
10.144869 10.938800 360.000000
10.144869 11.525415 360.000000
10.144869 12.112030 360.000000
10.116689 12.663372 359.000000
10.116689 13.248358 359.000000
10.116689 13.833344 359.000000
10.116689 14.418329 359.000000
10.116689 15.003316 359.000000
10.116689 15.588302 359.000000
10.116689 16.173286 359.000000
10.116689 16.758274 359.000000
10.116689 17.343260 359.000000
10.116689 17.928246 359.000000
10.116689 18.513231 359.000000
10.116689 19.098217 359.000000
10.116689 19.683203 359.000000
10.116689 20.268188 359.000000
10.116689 20.853174 359.000000
10.116689 21.438162 359.000000
10.116689 22.023148 359.000000
10.116689 22.608133 359.000000
10.116689 23.193119 359.000000
10.116689 23.778105 359.000000
10.088509 24.295227 358.000000
10.088509 24.878584 358.000000
10.088509 25.461939 358.000000
10.088509 26.045296 358.000000
10.088509 26.628653 358.000000
10.088509 27.212009 358.000000
10.088509 27.795366 358.000000
10.088509 28.378721 358.000000
10.088509 28.962078 358.000000
10.088509 29.545435 358.000000
10.088509 30.128792 358.000000
10.088509 30.712149 358.000000
10.088509 31.295504 358.000000
10.088509 31.878860 358.000000
10.088509 32.462219 358.000000
10.088509 33.045574 358.000000
10.905734 36.353062 387.000000
10.905734 36.983673 387.000000
10.905734 37.614285 387.000000
10.905734 38.244896 387.000000
9.883271 35.230751 350.716980
9.883271 35.802238 350.716980
9.961677 36.662289 353.499268
9.961677 37.238308 353.499268
9.961677 37.814331 353.499268
10.161638 39.160965 360.595062
10.161638 39.748550 360.595062
10.161638 40.336136 360.595062
9.835971 39.612171 349.038483
9.819718 40.114529 348.461731
9.971628 41.311691 353.852386
9.971628 41.888294 353.852386
9.971628 42.464890 353.852386
9.878218 42.638290 350.537628
9.878218 43.209488 350.537628
9.870172 43.745022 350.252106
9.869426 44.312405 350.225647
9.869426 44.883095 350.225647
9.869390 45.453617 350.224365
9.709086 45.276752 344.535858
9.709086 45.838173 344.535858
9.701773 46.364635 344.276306
9.667608 46.760387 343.063995
9.667608 47.319405 343.063995
9.649455 47.788517 342.419769
9.647784 48.338112 342.360474
9.647784 48.895985 342.360474
9.621916 49.321259 341.442535
9.604194 49.785770 340.813629
9.604194 50.341118 340.813629
9.619678 50.978531 341.363129
9.619678 51.534779 341.363129
9.619678 52.091026 341.363129
9.589030 52.479542 340.275574
9.560429 52.875832 339.260620
9.560429 53.428650 339.260620
9.355824 52.826199 332.000000
9.485950 54.109451 336.617645
9.485950 54.657963 336.617645
9.485950 55.206478 336.617645
9.478740 55.712612 336.361786
9.478740 56.260712 336.361786
9.475006 56.786430 336.229309
9.466981 57.285755 335.944519
9.466981 57.833168 335.944519
9.440364 58.216446 335.000000
9.440364 58.762325 335.000000
9.440364 59.308205 335.000000
9.440364 59.854080 335.000000
9.440364 60.399960 335.000000
9.440364 60.945839 335.000000
9.440364 61.491714 335.000000
9.412184 61.852406 334.000000
9.412184 62.396656 334.000000
9.412184 62.940903 334.000000
9.412184 63.485153 334.000000
9.412184 64.029404 334.000000
9.412184 64.573647 334.000000
9.412184 65.117897 334.000000
9.412184 65.662148 334.000000
9.412184 66.206398 334.000000
9.412184 66.750641 334.000000
9.412184 67.294891 334.000000
9.412184 67.839142 334.000000
9.412184 68.383392 334.000000
9.384004 68.721275 333.000000
9.384004 69.263893 333.000000
9.384004 69.806511 333.000000
9.384004 70.349129 333.000000
9.384004 70.891754 333.000000
9.355824 71.219849 332.000000
9.355824 71.760841 332.000000
9.355824 72.301834 332.000000
9.355824 72.842819 332.000000
9.355824 73.383812 332.000000
9.355824 73.924797 332.000000
9.355824 74.465790 332.000000
9.355824 75.006783 332.000000
9.355824 75.547768 332.000000
9.355824 76.088760 332.000000
9.355824 76.629745 332.000000
9.355824 77.170738 332.000000
9.355824 77.711731 332.000000
9.355824 78.252716 332.000000
9.355824 78.793709 332.000000
9.355824 79.334702 332.000000
9.355824 79.875687 332.000000
9.355824 80.416679 332.000000
9.355824 80.957664 332.000000
9.327643 81.253174 331.000000
9.349262 81.982109 331.767151
9.349262 82.522720 331.767151
9.349262 83.063332 331.767151
9.345788 83.572884 331.643890
9.345788 84.113289 331.643890
9.341966 84.619080 331.508270
9.337763 85.120949 331.359100
9.337763 85.660896 331.359100
9.333138 86.158150 331.195007
9.330871 86.676758 331.114502
9.330871 87.216309 331.114502
9.328376 87.732391 331.025970
9.325630 88.245811 330.928558
9.325630 88.785057 330.928558
9.322611 89.295380 330.821411
9.131568 87.993530 324.042084
9.131568 88.521545 324.042084
9.125017 88.985687 323.809631
9.120017 89.464287 323.632202
9.090537 89.700737 322.586060
9.090537 90.226387 322.586060
9.074178 90.588722 322.005524
9.055381 90.924690 321.338501
9.055381 91.448303 321.338501
