12.691280 105.878151 320.637634
12.994105 108.939430 328.288330
12.994105 109.474373 328.288330
12.994105 110.009315 328.288330
12.804599 108.932068 323.500549
12.787851 109.316040 323.077423
12.787851 109.842499 323.077423
12.774452 110.253304 322.738922
12.760099 110.654747 322.376312
12.760099 111.180046 322.376312
12.751253 111.627914 322.152802
12.743596 112.085510 321.959351
12.743596 112.610138 321.959351
12.739159 113.095375 321.847229
12.626461 112.614670 319.000000
12.626461 113.134483 319.000000
12.626461 113.654289 319.000000
12.586880 113.816177 318.000000
12.586880 114.334358 318.000000
12.586880 114.852531 318.000000
12.666042 116.096313 320.000000
12.666042 116.617752 320.000000
12.666042 117.139183 320.000000
12.666042 117.660622 320.000000
12.666042 118.182060 320.000000
12.588903 117.980560 318.051147
12.657723 119.146629 319.789825
12.657723 119.667717 319.789825
12.657723 120.188812 319.789825
12.643258 120.571953 319.424377
12.574294 120.431938 317.682037
12.574294 120.949600 317.682037
12.507717 120.824120 316.000000
12.507717 121.339035 316.000000
12.507717 121.853958 316.000000
12.480084 122.098534 315.301880
12.527074 123.073967 316.489044
12.527074 123.589691 316.489044
12.527074 124.105400 316.489044
12.516078 124.511726 316.211243
12.516078 125.026985 316.211243
12.547298 125.855400 317.000000
12.547298 126.371948 317.000000
12.547298 126.888496 317.000000
12.507717 127.003136 316.000000
12.507717 127.518051 316.000000
12.507717 128.032974 316.000000
12.468135 128.141098 315.000000
12.468135 128.654373 315.000000
12.468135 129.167664 315.000000
12.468135 129.680954 315.000000
12.468135 130.194244 315.000000
12.468135 130.707535 315.000000
12.468135 131.220825 315.000000
12.468135 131.734116 315.000000
12.468135 132.247406 315.000000
12.428554 132.339233 314.000000
12.428554 132.850891 314.000000
12.428554 133.362549 314.000000
12.428554 133.874207 314.000000
12.428554 134.385864 314.000000
12.428554 134.897537 314.000000
12.428554 135.409195 314.000000
12.388972 135.487976 313.000000
12.388972 135.998001 313.000000
12.388972 136.508041 313.000000
12.388972 137.018066 313.000000
12.388972 137.528091 313.000000
12.388972 138.038132 313.000000
12.349391 138.105515 312.000000
12.349391 138.613907 312.000000
12.349391 139.122314 312.000000
12.349391 139.630707 312.000000
12.309810 139.689941 311.000000
12.309810 140.196716 311.000000
12.309810 140.703476 311.000000
12.309810 141.210251 311.000000
12.309810 141.717026 311.000000
12.309810 142.223801 311.000000
12.270228 142.271622 310.000000
12.270228 142.776764 310.000000
12.270228 143.281906 310.000000
12.230647 143.323212 309.000000
12.230647 143.826721 309.000000
12.230647 144.330246 309.000000
12.191066 144.365036 308.000000
12.191066 144.866913 308.000000
12.191066 145.368790 308.000000
12.191066 145.870682 308.000000
12.191066 146.372559 308.000000
12.191066 146.874435 308.000000
12.151484 146.897842 307.000000
12.151484 147.398087 307.000000
12.151484 147.898346 307.000000
12.072322 147.431824 305.000000
12.072322 147.928818 305.000000
12.072322 148.425812 305.000000
11.993159 147.946259 303.000000
11.953578 147.950089 302.000000
11.953578 148.442200 302.000000
11.953578 148.934311 302.000000
11.913997 148.931625 301.000000
11.913997 149.422089 301.000000
11.874415 149.414536 300.000000
11.874415 149.903381 300.000000
11.874415 150.392227 300.000000
11.874415 150.881073 300.000000
11.834833 150.865341 299.000000
11.834833 151.352570 299.000000
11.795252 151.331955 298.000000
11.795252 151.817535 298.000000
11.795252 152.303131 298.000000
11.795252 152.788712 298.000000
11.755671 152.759964 297.000000
11.755671 153.243912 297.000000
11.755671 153.727875 297.000000
11.755671 154.211838 297.000000
11.755671 154.695786 297.000000
11.716089 154.657257 296.000000
11.676508 154.615463 295.000000
11.676508 155.096161 295.000000
11.676508 155.576859 295.000000
11.676508 156.057556 295.000000
11.676508 156.538254 295.000000
11.676508 157.018951 295.000000
11.676508 157.499649 295.000000
11.636927 157.444839 294.000000
11.636927 157.923904 294.000000
11.597345 157.864182 293.000000
11.557763 157.801208 292.000000
11.557763 158.277023 292.000000
11.557763 158.752838 292.000000
11.557763 159.228638 292.000000
11.557763 159.704453 292.000000
11.557763 160.180267 292.000000
11.518182 160.105881 291.000000
11.518182 160.580063 291.000000
11.478601 160.500793 290.000000
11.478601 160.973343 290.000000
11.478601 161.445892 290.000000
11.478601 161.918442 290.000000
11.478601 162.390991 290.000000
11.478601 162.863541 290.000000
11.478601 163.336090 290.000000
14.624959 -14.661074 354.887512
14.624959 -14.082788 354.887512
14.629594 -13.508784 355.000000
14.670804 -12.966741 356.000000
14.670804 -12.386642 356.000000
14.670804 -11.806545 356.000000
14.629594 -11.194913 355.000000
14.629594 -10.616446 355.000000
14.629594 -10.037977 355.000000
14.629594 -9.459509 355.000000
14.629594 -8.881042 355.000000
14.629594 -8.302573 355.000000
14.629594 -7.724105 355.000000
14.588384 -7.125509 354.000000
14.588384 -6.548670 354.000000
14.588384 -5.971831 354.000000
14.588384 -5.394993 354.000000
14.588384 -4.818154 354.000000
14.588384 -4.241316 354.000000
14.588384 -3.664477 354.000000
14.588384 -3.087639 354.000000
14.588384 -2.510800 354.000000
14.588384 -1.933962 354.000000
14.588384 -1.357123 354.000000
14.588384 -0.780285 354.000000
14.588384 -0.203446 354.000000
14.588384 0.373392 354.000000
14.588384 0.950231 354.000000
14.588384 1.527069 354.000000
14.588384 2.103908 354.000000
14.588384 2.680747 354.000000
14.588384 3.257585 354.000000
14.588384 3.834424 354.000000
14.588384 4.411262 354.000000
14.588384 4.988101 354.000000
14.588384 5.564939 354.000000
14.588384 6.141778 354.000000
14.588384 6.718616 354.000000
14.588384 7.295455 354.000000
14.588384 7.872293 354.000000
14.588384 8.449131 354.000000
14.588384 9.025970 354.000000
14.588384 9.602809 354.000000
14.588384 10.179647 354.000000
14.588384 10.756486 354.000000
14.588384 11.333324 354.000000
14.588384 11.910163 354.000000
14.588384 12.487001 354.000000
14.588384 13.063840 354.000000
14.588384 13.640679 354.000000
14.588384 14.217518 354.000000
14.588384 14.794356 354.000000
14.588384 15.371195 354.000000
14.588384 15.948033 354.000000
14.588384 16.524872 354.000000
14.588384 17.101709 354.000000
14.588384 17.678549 354.000000
14.588384 18.255386 354.000000
14.588384 18.832226 354.000000
14.588384 19.409063 354.000000
14.588384 19.985903 354.000000
14.588384 20.562740 354.000000
14.588384 21.139580 354.000000
14.588384 21.716419 354.000000
14.588384 22.293257 354.000000
14.547174 22.805490 353.000000
14.547174 23.380699 353.000000
14.547174 23.955908 353.000000
14.547174 24.531116 353.000000
14.547174 25.106327 353.000000
14.547174 25.681536 353.000000
14.547174 26.256744 353.000000
14.547174 26.831953 353.000000
14.547174 27.407162 353.000000
14.547174 27.982372 353.000000
14.547174 28.557581 353.000000
14.547174 29.132790 353.000000
14.547174 29.707998 353.000000
14.547174 30.283207 353.000000
14.547174 30.858418 353.000000
14.547174 31.433626 353.000000
14.547174 32.008835 353.000000
14.547174 32.584045 353.000000
14.547174 33.159252 353.000000
14.505963 33.638897 352.000000
14.505963 34.212475 352.000000
14.505963 34.786053 352.000000
14.505963 35.359634 352.000000
14.505963 35.933212 352.000000
14.505963 36.506794 352.000000
14.464753 36.975033 351.000000
14.464753 37.546982 351.000000
14.464753 38.118931 351.000000
14.464753 38.690884 351.000000
14.464753 39.262833 351.000000
14.505963 39.948269 352.000000
14.505963 40.521851 352.000000
14.505963 41.095428 352.000000
14.505963 41.669010 352.000000
14.547174 42.362598 353.000000
14.547174 42.937805 353.000000
14.547174 43.513016 353.000000
14.547174 44.088226 353.000000
14.547174 44.663433 353.000000
14.547174 45.238644 353.000000
14.547174 45.813850 353.000000
14.547174 46.389061 353.000000
14.547174 46.964272 353.000000
14.547174 47.539478 353.000000
14.547174 48.114689 353.000000
14.547174 48.689896 353.000000
14.547174 49.265106 353.000000
14.547174 49.840317 353.000000
14.547174 50.415524 353.000000
14.547174 50.990734 353.000000
14.547174 51.565941 353.000000
14.547174 52.141151 353.000000
14.547174 52.716362 353.000000
14.547174 53.291569 353.000000
14.547174 53.866779 353.000000
14.547174 54.441986 353.000000
14.547174 55.017197 353.000000
14.547174 55.592407 353.000000
14.547174 56.167614 353.000000
14.547174 56.742825 353.000000
14.547174 57.318031 353.000000
14.547174 57.893242 353.000000
14.547174 58.468452 353.000000
14.547174 59.043659 353.000000
14.505963 59.449974 352.000000
14.505963 60.023556 352.000000
14.505963 60.597134 352.000000
14.505963 61.170715 352.000000
14.505963 61.744293 352.000000
14.301440 61.439243 347.037079
14.301440 62.004730 347.037079
14.301133 62.568882 347.029633
14.301133 63.134365 347.029633
14.301133 63.699844 347.029633
14.588384 65.556145 354.000000
14.588384 66.132988 354.000000
14.588384 66.709824 354.000000
14.670804 67.666809 356.000000
14.670804 68.246910 356.000000
14.670804 68.827003 356.000000
14.588384 69.017181 354.000000
14.588384 69.594017 354.000000
14.588384 70.170853 354.000000
14.588384 70.747696 354.000000
14.712014 71.928978 357.000000
14.712014 72.510704 357.000000
14.712014 73.092430 357.000000
14.553204 72.878868 353.146301
14.553204 73.454315 353.146301
14.579057 74.161270 353.773651
14.579057 74.737740 353.773651
14.579057 75.314209 353.773651
14.198593 73.910202 344.541382
14.507882 76.093842 352.046539
14.507882 76.667503 352.046539
14.507882 77.241150 352.046539
14.499832 77.771629 351.851196
14.490975 78.297119 351.636292
14.490975 78.870102 351.636292
14.481236 79.389694 351.399933
14.470519 79.903130 351.139923
14.470519 80.475304 351.139923
14.446371 80.912224 350.553925
14.437978 81.436111 350.350281
14.437978 82.007004 350.350281
14.426455 82.511993 350.070679
14.432455 83.116989 350.216278
14.432455 83.687660 350.216278
14.460491 84.421997 350.896545
14.460491 84.993782 350.896545
14.460491 85.565559 350.896545
14.455751 86.109116 350.781555
14.451344 86.654282 350.674591
14.451344 87.225693 350.674591
14.447380 87.773033 350.578400
14.443994 88.323593 350.496246
14.443994 88.894722 350.496246
14.441342 89.449425 350.431885
14.441126 90.019104 350.426636
14.442593 90.599312 350.462219
14.442593 91.170387 350.462219
14.445730 91.761406 350.538391
14.447059 92.341087 350.570618
14.447059 92.912338 350.570618
14.447059 93.483589 350.570618
14.445716 94.046089 350.538025
14.445716 94.617294 350.538025
14.444713 95.181877 350.513672
14.444049 95.748642 350.497589
14.444049 96.319771 350.497589
14.443715 96.888672 350.489502
14.443922 97.461182 350.494507
14.443922 98.032303 350.494507
14.444232 98.605545 350.502014
14.444541 99.178802 350.509521
14.444541 99.749954 350.509521
14.444736 100.322472 350.514282
14.444736 100.893631 350.514282
14.444736 101.464783 350.514282
14.444636 102.035233 350.511841
14.444394 102.604675 350.505981
14.444394 103.175819 350.505981
14.444263 103.746017 350.502777
13.741940 99.244942 333.460266
13.741940 99.788307 333.460266
13.480453 98.422531 327.115082
13.385124 102.489861 324.801819
13.385124 103.019127 324.801819
13.385124 103.548386 324.801819
13.302620 103.436127 322.799805
13.248319 103.537758 321.482147
13.354165 107.533180 324.050598
13.354165 108.061226 324.050598
13.354165 108.589256 324.050598
13.331498 108.932068 323.500549
13.314060 109.316040 323.077423
13.314060 109.842499 323.077423
13.300111 110.253304 322.738922
13.285168 110.654747 322.376312
13.285168 111.180046 322.376312
13.275957 111.627914 322.152802
13.267984 112.085510 321.959351
13.267984 112.610138 321.959351
13.263364 113.095375 321.847229
13.137189 112.538940 318.785461
13.137189 113.058388 318.785461
13.062777 112.934525 316.979797
13.059031 113.418495 316.888885
13.059031 113.934860 316.888885
13.053888 114.406151 316.764099
13.187240 116.096313 320.000000
13.187240 116.617752 320.000000
13.187240 117.139183 320.000000
13.187240 117.660622 320.000000
13.187240 118.182060 320.000000
13.106927 117.980560 318.051147
13.106927 118.498825 318.051147
13.105441 119.003586 318.015076
13.105441 119.521790 318.015076
13.100150 119.991531 317.886688
13.091717 120.431938 317.682037
13.091717 120.949600 317.682037
13.013237 120.739120 315.777679
13.001408 121.143448 315.490631
13.001408 121.657539 315.490631
13.017960 122.327156 315.892273
13.042553 123.073967 316.489044
13.042553 123.589691 316.489044
13.042553 124.105400 316.489044
13.031105 124.511726 316.211243
13.031105 125.026985 316.211243
13.063609 125.855400 317.000000
13.063609 126.371948 317.000000
13.063609 126.888496 317.000000
13.022400 127.003136 316.000000
13.022400 127.518051 316.000000
13.022400 128.032974 316.000000
13.022400 128.547882 316.000000
13.022400 129.062805 316.000000
13.022400 129.577728 316.000000
13.022400 130.092636 316.000000
13.022400 130.607559 316.000000
13.022400 131.122482 316.000000
13.022400 131.637390 316.000000
13.022400 132.152313 316.000000
13.022400 132.667236 316.000000
13.022400 133.182144 316.000000
13.022400 133.697067 316.000000
13.022400 134.211990 316.000000
13.022400 134.726898 316.000000
13.022400 135.241821 316.000000
12.981189 135.327133 315.000000
12.981189 135.840424 315.000000
12.939979 135.920853 314.000000
12.939979 136.432510 314.000000
12.939979 136.944168 314.000000
12.939979 137.455826 314.000000
12.898768 137.528091 313.000000
12.898768 138.038132 313.000000
12.898768 138.548157 313.000000
12.898768 139.058182 313.000000
12.898768 139.568222 313.000000
12.898768 140.078247 313.000000
12.857558 140.139114 312.000000
12.857558 140.647507 312.000000
12.857558 141.155914 312.000000
12.857558 141.664307 312.000000
12.857558 142.172714 312.000000
12.816349 142.223801 311.000000
12.816349 142.730560 311.000000
12.816349 143.237335 311.000000
12.775139 143.281906 310.000000
12.775139 143.787048 310.000000
12.775139 144.292191 310.000000
12.733929 144.330246 309.000000
12.692718 144.365036 308.000000
12.692718 144.866913 308.000000
12.692718 145.368790 308.000000
12.692718 145.870682 308.000000
12.692718 146.372559 308.000000
12.692718 146.874435 308.000000
12.651507 146.897842 307.000000
12.651507 147.398087 307.000000
12.651507 147.898346 307.000000
12.569088 147.431824 305.000000
12.569088 147.928818 305.000000
12.569088 148.425812 305.000000
12.486668 147.946259 303.000000
12.445457 147.950089 302.000000
12.445457 148.442200 302.000000
12.445457 148.934311 302.000000
12.445457 149.426407 302.000000
12.445457 149.918518 302.000000
12.404247 149.912567 301.000000
12.363038 149.903381 300.000000
12.363038 150.392227 300.000000
12.363038 150.881073 300.000000
12.363038 151.369919 300.000000
12.363038 151.858765 300.000000
12.321827 151.839783 299.000000
12.280617 151.817535 298.000000
12.280617 152.303131 298.000000
12.280617 152.788712 298.000000
12.239407 152.759964 297.000000
12.239407 153.243912 297.000000
12.239407 153.727875 297.000000
12.239407 154.211838 297.000000
12.239407 154.695786 297.000000
12.198196 154.657257 296.000000
12.198196 155.139587 296.000000
12.198196 155.621918 296.000000
12.156986 155.576859 295.000000
12.156986 156.057556 295.000000
12.156986 156.538254 295.000000
12.156986 157.018951 295.000000
12.156986 157.499649 295.000000
12.115777 157.444839 294.000000
12.115777 157.923904 294.000000
12.074567 157.864182 293.000000
12.033356 157.801208 292.000000
12.033356 158.277023 292.000000
12.033356 158.752838 292.000000
12.033356 159.228638 292.000000
12.033356 159.704453 292.000000
12.033356 160.180267 292.000000
11.992146 160.105881 291.000000
11.992146 160.580063 291.000000
11.950935 160.500793 290.000000
11.950935 160.973343 290.000000
11.950935 161.445892 290.000000
11.950935 161.918442 290.000000
11.950935 162.390991 290.000000
11.950935 162.863541 290.000000
11.950935 163.336090 290.000000
15.202979 -14.661074 354.887512
15.202979 -14.082788 354.887512
15.207797 -13.508784 355.000000
15.250636 -12.966741 356.000000
15.250636 -12.386642 356.000000
15.250636 -11.806545 356.000000
15.207797 -11.194913 355.000000
15.207797 -10.616446 355.000000
15.207797 -10.037977 355.000000
15.207797 -9.459509 355.000000
15.207797 -8.881042 355.000000
15.207797 -8.302573 355.000000
15.207797 -7.724105 355.000000
15.164958 -7.125509 354.000000
15.164958 -6.548670 354.000000
15.164958 -5.971831 354.000000
15.164958 -5.394993 354.000000
15.164958 -4.818154 354.000000
15.164958 -4.241316 354.000000
15.164958 -3.664477 354.000000
15.164958 -3.087639 354.000000
15.164958 -2.510800 354.000000
15.164958 -1.933962 354.000000
15.164958 -1.357123 354.000000
15.164958 -0.780285 354.000000
15.164958 -0.203446 354.000000
15.164958 0.373392 354.000000
15.164958 0.950231 354.000000
15.164958 1.527069 354.000000
15.164958 2.103908 354.000000
15.164958 2.680747 354.000000
15.164958 3.257585 354.000000
15.164958 3.834424 354.000000
15.164958 4.411262 354.000000
15.164958 4.988101 354.000000
15.164958 5.564939 354.000000
15.164958 6.141778 354.000000
15.164958 6.718616 354.000000
15.164958 7.295455 354.000000
15.164958 7.872293 354.000000
15.164958 8.449131 354.000000
15.164958 9.025970 354.000000
15.164958 9.602809 354.000000
15.164958 10.179647 354.000000
15.164958 10.756486 354.000000
15.164958 11.333324 354.000000
15.164958 11.910163 354.000000
15.164958 12.487001 354.000000
15.164958 13.063840 354.000000
15.164958 13.640679 354.000000
15.164958 14.217518 354.000000
15.164958 14.794356 354.000000
15.164958 15.371195 354.000000
15.164958 15.948033 354.000000
15.164958 16.524872 354.000000
15.164958 17.101709 354.000000
15.164958 17.678549 354.000000
15.164958 18.255386 354.000000
15.164958 18.832226 354.000000
15.164958 19.409063 354.000000
15.164958 19.985903 354.000000
15.164958 20.562740 354.000000
15.122120 21.079863 353.000000
15.122120 21.655073 353.000000
15.122120 22.230282 353.000000
15.122120 22.805490 353.000000
15.122120 23.380699 353.000000
15.122120 23.955908 353.000000
15.122120 24.531116 353.000000
15.122120 25.106327 353.000000
15.122120 25.681536 353.000000
15.122120 26.256744 353.000000
15.122120 26.831953 353.000000
15.122120 27.407162 353.000000
15.079281 27.903099 352.000000
15.122120 28.557581 353.000000
15.122120 29.132790 353.000000
15.122120 29.707998 353.000000
15.122120 30.283207 353.000000
15.122120 30.858418 353.000000
15.079281 31.344578 352.000000
15.079281 31.918156 352.000000
15.079281 32.491737 352.000000
15.079281 33.065315 352.000000
15.079281 33.638897 352.000000
15.079281 34.212475 352.000000
15.079281 34.786053 352.000000
15.079281 35.359634 352.000000
15.079281 35.933212 352.000000
15.079281 36.506794 352.000000
15.079281 37.080372 352.000000
15.079281 37.653954 352.000000
15.079281 38.227531 352.000000
15.079281 38.801109 352.000000
15.079281 39.374691 352.000000
15.079281 39.948269 352.000000
15.079281 40.521851 352.000000
15.122120 41.212181 353.000000
15.122120 41.787388 353.000000
15.122120 42.362598 353.000000
15.122120 42.937805 353.000000
15.122120 43.513016 353.000000
15.122120 44.088226 353.000000
15.122120 44.663433 353.000000
15.122120 45.238644 353.000000
15.122120 45.813850 353.000000
15.122120 46.389061 353.000000
15.122120 46.964272 353.000000
15.122120 47.539478 353.000000
15.122120 48.114689 353.000000
15.122120 48.689896 353.000000
15.122120 49.265106 353.000000
15.122120 49.840317 353.000000
15.122120 50.415524 353.000000
15.122120 50.990734 353.000000
15.122120 51.565941 353.000000
15.122120 52.141151 353.000000
15.122120 52.716362 353.000000
15.122120 53.291569 353.000000
15.122120 53.866779 353.000000
15.122120 54.441986 353.000000
15.122120 55.017197 353.000000
15.122120 55.592407 353.000000
15.122120 56.167614 353.000000
15.122120 56.742825 353.000000
15.122120 57.318031 353.000000
15.122120 57.893242 353.000000
15.122120 58.468452 353.000000
15.122120 59.043659 353.000000
15.079281 59.449974 352.000000
15.079281 60.023556 352.000000
15.079281 60.597134 352.000000
15.079281 61.170715 352.000000
15.079281 61.744293 352.000000
15.164958 65.556145 354.000000
15.164958 66.132988 354.000000
15.164958 66.709824 354.000000
15.250636 67.666809 356.000000
15.250636 68.246910 356.000000
15.250636 68.827003 356.000000
15.164958 69.017181 354.000000
15.164958 69.594017 354.000000
15.164958 70.170853 354.000000
15.164958 70.747696 354.000000
14.814216 69.674896 345.812500
14.814216 70.238396 345.812500
14.786495 70.669418 345.165436
14.759865 71.103561 344.543762
14.759865 71.664986 344.543762
14.759058 72.222481 344.524963
14.750791 72.743103 344.331940
14.750791 73.304192 344.331940
14.702806 73.624992 343.211853
14.871519 75.035507 347.150177
14.871519 75.601189 347.150177
14.871519 76.166862 347.150177
14.842176 76.581139 346.465210
14.809899 76.977928 345.711731
14.809899 77.541260 345.711731
14.774393 77.917336 344.882904
14.770410 78.458168 344.789948
14.770410 79.019997 344.789948
14.769695 79.577972 344.773254
14.770760 80.145554 344.798096
14.770760 80.707397 344.798096
14.772756 81.280220 344.844696
14.779751 81.880898 345.007996
14.779751 82.443085 345.007996
14.793015 83.079773 345.317627
14.793015 83.642456 345.317627
14.793015 84.205147 345.317627
14.785166 84.722862 345.134399
14.779465 85.252365 345.001312
14.779465 85.814545 345.001312
14.776625 86.360115 344.934998
14.777245 86.925835 344.949493
14.777245 87.487930 344.949493
14.778090 88.055046 344.969208
14.778929 88.622200 344.988800
14.778929 89.184357 344.988800
14.779746 89.751472 345.007874
14.780445 90.317940 345.024200
14.780515 90.880577 345.025818
14.780515 91.442787 345.025818
14.780515 92.005005 345.025818
14.779264 92.559395 344.996643
14.779264 93.121559 344.996643
14.778674 93.679985 344.982849
14.778812 94.243011 344.986084
14.778812 94.805161 344.986084
14.779033 95.368736 344.991211
14.779210 95.932045 344.995361
14.779210 96.494209 344.995361
14.779322 97.057114 344.997986
14.779362 97.619537 344.998901
14.779362 98.181709 344.998901
14.779362 98.743881 344.998901
14.779324 99.305801 344.998016
14.779324 99.867973 344.998016
14.779210 100.429382 344.995392
14.779080 100.990646 344.992340
14.779080 101.552811 344.992340
14.351827 99.162895 335.018829
14.043150 97.564278 327.813293
14.043150 98.098442 327.813293
14.013239 98.422531 327.115082
13.649914 105.735695 318.633881
13.649914 106.254906 318.633881
13.649914 106.774117 318.633881
13.632466 107.156181 318.226593
13.616785 107.550873 317.860565
13.616785 108.068825 317.860565
13.608794 108.523041 317.674011
13.601337 108.980942 317.499939
13.601337 109.498306 317.499939
13.640407 110.331688 318.411957
13.640407 110.850540 318.411957
13.640407 111.369377 318.411957
13.656408 112.019478 318.785461
13.656408 112.538940 318.785461
13.656408 113.058388 318.785461
13.579056 112.934525 316.979797
13.575160 113.418495 316.888885
13.575160 113.934860 316.888885
13.569814 114.406151 316.764099
13.708437 116.096313 320.000000
13.708437 116.617752 320.000000
13.708437 117.139183 320.000000
13.708437 117.660622 320.000000
13.708437 118.182060 320.000000
13.624949 117.980560 318.051147
13.624949 118.498825 318.051147
13.623405 119.003586 318.015076
13.623405 119.521790 318.015076
13.617905 119.991531 317.886688
13.609138 120.431938 317.682037
13.609138 120.949600 317.682037
13.527557 120.739120 315.777679
13.515261 121.143448 315.490631
13.515261 121.657539 315.490631
13.532466 122.327156 315.892273
13.558031 123.073967 316.489044
13.558031 123.589691 316.489044
13.558031 124.105400 316.489044
13.546130 124.511726 316.211243
13.546130 125.026985 316.211243
13.579921 125.855400 317.000000
13.579921 126.371948 317.000000
13.579921 126.888496 317.000000
13.537082 127.003136 316.000000
13.537082 127.518051 316.000000
13.537082 128.032974 316.000000
13.537082 128.547882 316.000000
13.537082 129.062805 316.000000
13.537082 129.577728 316.000000
13.537082 130.092636 316.000000
13.537082 130.607559 316.000000
13.537082 131.122482 316.000000
13.537082 131.637390 316.000000
13.537082 132.152313 316.000000
13.537082 132.667236 316.000000
13.537082 133.182144 316.000000
13.537082 133.697067 316.000000
13.537082 134.211990 316.000000
13.537082 134.726898 316.000000
13.537082 135.241821 316.000000
13.537082 135.756744 316.000000
13.537082 136.271652 316.000000
13.537082 136.786575 316.000000
13.494243 136.866989 315.000000
13.494243 137.380280 315.000000
13.494243 137.893570 315.000000
13.451405 137.967484 314.000000
13.451405 138.479141 314.000000
13.451405 138.990799 314.000000
13.451405 139.502457 314.000000
13.451405 140.014114 314.000000
13.408566 140.078247 313.000000
13.408566 140.588272 313.000000
13.408566 141.098297 313.000000
13.408566 141.608337 313.000000
13.365726 141.664307 312.000000
13.365726 142.172714 312.000000
13.365726 142.681107 312.000000
13.365726 143.189514 312.000000
13.365726 143.697906 312.000000
13.322887 143.744110 311.000000
13.322887 144.250885 311.000000
13.322887 144.757645 311.000000
13.280048 144.797333 310.000000
13.237209 144.833755 309.000000
13.194370 144.866913 308.000000
13.194370 145.368790 308.000000
13.194370 145.870682 308.000000
13.194370 146.372559 308.000000
13.194370 146.874435 308.000000
13.194370 147.376328 308.000000
13.194370 147.878204 308.000000
13.194370 148.380081 308.000000
13.114812 147.984268 306.142853
13.081941 148.110962 305.375519
13.081941 148.608566 305.375519
13.051002 148.753525 304.653290
13.022056 148.918930 303.977600
13.022056 149.414246 303.977600
12.937338 148.934311 302.000000
12.937338 149.426407 302.000000
12.937338 149.918518 302.000000
12.894499 149.912567 301.000000
12.851660 149.903381 300.000000
12.851660 150.392227 300.000000
12.851660 150.881073 300.000000
12.851660 151.369919 300.000000
12.851660 151.858765 300.000000
12.808821 151.839783 299.000000
12.765982 151.817535 298.000000
12.765982 152.303131 298.000000
12.765982 152.788712 298.000000
12.723143 152.759964 297.000000
12.723143 153.243912 297.000000
12.723143 153.727875 297.000000
12.723143 154.211838 297.000000
12.723143 154.695786 297.000000
12.680305 154.657257 296.000000
12.680305 155.139587 296.000000
12.680305 155.621918 296.000000
12.637465 155.576859 295.000000
12.637465 156.057556 295.000000
12.637465 156.538254 295.000000
12.637465 157.018951 295.000000
12.637465 157.499649 295.000000
12.594626 157.444839 294.000000
12.594626 157.923904 294.000000
12.551788 157.864182 293.000000
12.508948 157.801208 292.000000
12.508948 158.277023 292.000000
12.508948 158.752838 292.000000
12.508948 159.228638 292.000000
12.508948 159.704453 292.000000
12.508948 160.180267 292.000000
12.466109 160.105881 291.000000
12.466109 160.580063 291.000000
12.466109 161.054245 291.000000
12.466109 161.528427 291.000000
12.466109 162.002609 291.000000
12.423271 161.918442 290.000000
12.423271 162.390991 290.000000
12.423271 162.863541 290.000000
12.423271 163.336090 290.000000
12.423271 163.808640 290.000000
12.423271 164.281204 290.000000
15.780998 -14.661074 354.887512
15.780998 -14.082788 354.887512
15.786000 -13.508784 355.000000
15.830468 -12.966741 356.000000
15.830468 -12.386642 356.000000
15.830468 -11.806545 356.000000
15.786000 -11.194913 355.000000
15.786000 -10.616446 355.000000
15.786000 -10.037977 355.000000
15.786000 -9.459509 355.000000
15.786000 -8.881042 355.000000
15.786000 -8.302573 355.000000
15.786000 -7.724105 355.000000
15.741532 -7.125509 354.000000
15.741532 -6.548670 354.000000
15.741532 -5.971831 354.000000
15.741532 -5.394993 354.000000
15.741532 -4.818154 354.000000
15.741532 -4.241316 354.000000
15.741532 -3.664477 354.000000
15.741532 -3.087639 354.000000
15.741532 -2.510800 354.000000
15.741532 -1.933962 354.000000
15.741532 -1.357123 354.000000
15.741532 -0.780285 354.000000
15.741532 -0.203446 354.000000
15.741532 0.373392 354.000000
15.741532 0.950231 354.000000
15.741532 1.527069 354.000000
15.741532 2.103908 354.000000
15.741532 2.680747 354.000000
15.741532 3.257585 354.000000
15.741532 3.834424 354.000000
15.741532 4.411262 354.000000
15.741532 4.988101 354.000000
15.741532 5.564939 354.000000
15.741532 6.141778 354.000000
15.741532 6.718616 354.000000
15.741532 7.295455 354.000000
15.741532 7.872293 354.000000
15.741532 8.449131 354.000000
15.741532 9.025970 354.000000
15.741532 9.602809 354.000000
15.741532 10.179647 354.000000
15.741532 10.756486 354.000000
15.741532 11.333324 354.000000
15.741532 11.910163 354.000000
15.741532 12.487001 354.000000
15.741532 13.063840 354.000000
15.741532 13.640679 354.000000
15.741532 14.217518 354.000000
15.741532 14.794356 354.000000
15.741532 15.371195 354.000000
15.741532 15.948033 354.000000
15.741532 16.524872 354.000000
15.741532 17.101709 354.000000
15.741532 17.678549 354.000000
15.741532 18.255386 354.000000
15.741532 18.832226 354.000000
15.741532 19.409063 354.000000
15.741532 19.985903 354.000000
15.741532 20.562740 354.000000
15.697065 21.079863 353.000000
15.697065 21.655073 353.000000
15.697065 22.230282 353.000000
15.697065 22.805490 353.000000
15.697065 23.380699 353.000000
15.697065 23.955908 353.000000
15.697065 24.531116 353.000000
15.697065 25.106327 353.000000
15.697065 25.681536 353.000000
15.697065 26.256744 353.000000
15.697065 26.831953 353.000000
15.697065 27.407162 353.000000
15.652597 27.903099 352.000000
15.697065 28.557581 353.000000
15.697065 29.132790 353.000000
15.697065 29.707998 353.000000
15.697065 30.283207 353.000000
15.697065 30.858418 353.000000
15.652597 31.344578 352.000000
15.652597 31.918156 352.000000
15.652597 32.491737 352.000000
15.652597 33.065315 352.000000
15.652597 33.638897 352.000000
15.652597 34.212475 352.000000
15.652597 34.786053 352.000000
15.652597 35.359634 352.000000
15.652597 35.933212 352.000000
15.652597 36.506794 352.000000
15.652597 37.080372 352.000000
15.652597 37.653954 352.000000
15.652597 38.227531 352.000000
15.652597 38.801109 352.000000
15.652597 39.374691 352.000000
15.652597 39.948269 352.000000
15.652597 40.521851 352.000000
15.697065 41.212181 353.000000
15.697065 41.787388 353.000000
15.697065 42.362598 353.000000
15.697065 42.937805 353.000000
15.697065 43.513016 353.000000
15.697065 44.088226 353.000000
15.697065 44.663433 353.000000
15.697065 45.238644 353.000000
15.697065 45.813850 353.000000
15.697065 46.389061 353.000000
15.697065 46.964272 353.000000
15.697065 47.539478 353.000000
15.697065 48.114689 353.000000
15.697065 48.689896 353.000000
15.697065 49.265106 353.000000
15.697065 49.840317 353.000000
15.697065 50.415524 353.000000
15.697065 50.990734 353.000000
15.697065 51.565941 353.000000
15.697065 52.141151 353.000000
15.697065 52.716362 353.000000
15.697065 53.291569 353.000000
15.697065 53.866779 353.000000
15.697065 54.441986 353.000000
15.697065 55.017197 353.000000
15.697065 55.592407 353.000000
15.697065 56.167614 353.000000
15.697065 56.742825 353.000000
15.697065 57.318031 353.000000
15.697065 57.893242 353.000000
15.697065 58.468452 353.000000
15.697065 59.043659 353.000000
15.652597 59.449974 352.000000
15.652597 60.023556 352.000000
15.652597 60.597134 352.000000
15.652597 61.170715 352.000000
15.652597 61.744293 352.000000
15.741532 65.556145 354.000000
15.741532 66.132988 354.000000
15.741532 66.709824 354.000000
15.830468 67.666809 356.000000
15.830468 68.246910 356.000000
15.830468 68.827003 356.000000
15.741532 69.017181 354.000000
15.741532 69.594017 354.000000
15.741532 70.170853 354.000000
15.741532 70.747696 354.000000
15.034812 71.428040 338.107056
15.034812 71.978981 338.107056
15.034812 72.529922 338.107056
14.979784 72.813385 336.869568
15.004971 73.485657 337.435974
15.004971 74.035507 337.435974
15.004971 74.585350 337.435974
15.041267 75.316956 338.252228
15.041267 75.868126 338.252228
15.041267 76.419312 338.252228
15.035667 76.941833 338.126312
15.035667 77.492805 338.126312
14.996339 77.839645 337.241882
14.996339 78.389175 337.241882
14.996339 78.938698 337.241882
14.996339 79.488235 337.241882
15.050561 80.327156 338.461243
15.050561 80.878677 338.461243
15.109426 81.748672 339.784973
15.109426 82.302345 339.784973
15.109426 82.856018 339.784973
15.073572 83.211777 338.978699
15.073572 83.764137 338.978699
15.073572 84.316498 338.978699
15.006433 84.490845 337.468872
14.885933 84.357880 334.759033
14.885933 84.903366 334.759033
14.869921 85.356934 334.398926
14.957750 86.409218 336.374084
14.957750 86.957336 336.374084
14.957750 87.505455 336.374084
14.839964 87.360176 333.725250
14.839964 87.903984 333.725250
14.830385 88.390694 333.509857
14.811634 88.821693 333.088165
14.811634 89.364464 333.088165
14.798823 89.829468 332.800110
14.777428 90.241104 332.318939
14.777428 90.782608 332.318939
14.777428 91.324120 332.318939
14.761814 91.768570 331.967834
14.753287 92.256180 331.776062
14.753287 92.796806 331.776062
14.747862 93.303108 331.654053
14.723614 93.689240 331.108765
14.723614 94.228783 331.108765
14.706318 94.656982 330.719788
14.680727 95.030243 330.144318
14.680727 95.568214 330.144318
14.669109 96.030121 329.883057
14.668777 96.565475 329.875580
14.668777 97.103004 329.875580
14.634585 97.412941 329.106659
14.577073 97.564278 327.813293
14.577073 98.098442 327.813293
14.097404 109.851570 317.026367
14.097404 110.368156 317.026367
14.097404 110.884758 317.026367
14.175627 112.019478 318.785461
14.175627 112.538940 318.785461
14.175627 113.058388 318.785461
14.064540 112.687798 316.287292
14.057898 113.149719 316.137939
14.057898 113.664864 316.137939
14.054564 114.152924 316.062958
14.064331 114.747650 316.282623
14.064331 115.263023 316.282623
14.064331 115.778397 316.282623
14.079261 116.417221 316.618347
14.079261 116.933144 316.618347
14.079261 117.449066 316.618347
14.079261 117.964996 316.618347
14.077446 118.465652 316.577545
14.077446 118.981514 316.577545
14.075820 119.483574 316.540985
14.020296 119.526031 315.292358
14.020296 120.039787 315.292358
14.009406 120.459900 315.047424
14.000034 120.892357 314.836700
14.000034 121.405373 314.836700
14.046973 122.327156 315.892273
14.046973 122.841911 315.892273
14.046973 123.356651 315.892273
14.046183 123.864410 315.874481
14.045938 124.376961 315.868988
14.045938 124.891663 315.868988
14.044220 125.391037 315.830353
14.042603 125.891174 315.793976
14.042603 126.405754 315.793976
14.041174 126.907425 315.761871
14.051764 127.518051 316.000000
14.051764 128.032974 316.000000
14.051764 128.547882 316.000000
14.051764 129.062805 316.000000
14.051764 129.577728 316.000000
14.051764 130.092636 316.000000
14.051764 130.607559 316.000000
14.051764 131.122482 316.000000
14.051764 131.637390 316.000000
14.051764 132.152313 316.000000
14.096231 133.087067 317.000000
14.096231 133.603622 317.000000
14.096231 134.120163 317.000000
14.051764 134.211990 316.000000
14.051764 134.726898 316.000000
14.051764 135.241821 316.000000
14.051764 135.756744 316.000000
14.051764 136.271652 316.000000
14.051764 136.786575 316.000000
14.007297 136.866989 315.000000
14.007297 137.380280 315.000000
14.007297 137.893570 315.000000
13.962830 137.967484 314.000000
13.962830 138.479141 314.000000
13.962830 138.990799 314.000000
13.962830 139.502457 314.000000
13.962830 140.014114 314.000000
13.918362 140.078247 313.000000
13.918362 140.588272 313.000000
13.918362 141.098297 313.000000
13.918362 141.608337 313.000000
13.873894 141.664307 312.000000
13.873894 142.172714 312.000000
13.873894 142.681107 312.000000
13.873894 143.189514 312.000000
13.873894 143.697906 312.000000
13.829425 143.744110 311.000000
13.829425 144.250885 311.000000
13.829425 144.757645 311.000000
13.784958 144.797333 310.000000
13.784958 145.302475 310.000000
13.784958 145.807617 310.000000
13.784958 146.312759 310.000000
13.740490 146.344284 309.000000
13.696023 146.372559 308.000000
13.696023 146.874435 308.000000
13.696023 147.376328 308.000000
13.696023 147.878204 308.000000
13.696023 148.380081 308.000000
13.696023 148.881973 308.000000
13.613729 148.486252 306.149323
13.613729 148.985123 306.149323
13.579208 149.104950 305.373047
13.549162 149.271530 304.697357
13.549162 149.768036 304.697357
13.518152 149.920624 304.000000
13.473685 149.921204 303.000000
13.473685 150.414932 303.000000
13.429217 150.410614 302.000000
13.384750 150.403046 301.000000
13.384750 150.893524 301.000000
13.340282 150.881073 300.000000
13.340282 151.369919 300.000000
13.340282 151.858765 300.000000
13.295815 151.839783 299.000000
13.295815 152.326996 299.000000
13.295815 152.814209 299.000000
13.251347 152.788712 298.000000
13.206880 152.759964 297.000000
13.206880 153.243912 297.000000
13.206880 153.727875 297.000000
13.206880 154.211838 297.000000
13.206880 154.695786 297.000000
13.162412 154.657257 296.000000
13.162412 155.139587 296.000000
13.162412 155.621918 296.000000
13.117944 155.576859 295.000000
13.117944 156.057556 295.000000
13.117944 156.538254 295.000000
13.117944 157.018951 295.000000
13.117944 157.499649 295.000000
13.073477 157.444839 294.000000
13.073477 157.923904 294.000000
13.029009 157.864182 293.000000
13.029009 158.341629 293.000000
13.029009 158.819061 293.000000
12.984541 158.752838 292.000000
12.984541 159.228638 292.000000
12.984541 159.704453 292.000000
12.984541 160.180267 292.000000
12.940073 160.105881 291.000000
12.940073 160.580063 291.000000
12.940073 161.054245 291.000000
12.940073 161.528427 291.000000
12.940073 162.002609 291.000000
12.895606 161.918442 290.000000
12.895606 162.390991 290.000000
12.895606 162.863541 290.000000
12.895606 163.336090 290.000000
12.895606 163.808640 290.000000
12.895606 164.281204 290.000000
16.350637 -14.653563 354.705688
16.350637 -14.075574 354.705688
16.364204 -13.508784 355.000000
16.364204 -12.930317 355.000000
16.364204 -12.351850 355.000000
16.364204 -11.773381 355.000000
16.364204 -11.194913 355.000000
16.364204 -10.616446 355.000000
16.364204 -10.037977 355.000000
16.364204 -9.459509 355.000000
16.364204 -8.881042 355.000000
16.364204 -8.302573 355.000000
16.318108 -7.702347 354.000000
16.318108 -7.125509 354.000000
16.318108 -6.548670 354.000000
16.318108 -5.971831 354.000000
16.318108 -5.394993 354.000000
16.318108 -4.818154 354.000000
16.318108 -4.241316 354.000000
16.318108 -3.664477 354.000000
16.318108 -3.087639 354.000000
16.318108 -2.510800 354.000000
16.318108 -1.933962 354.000000
16.318108 -1.357123 354.000000
16.318108 -0.780285 354.000000
16.318108 -0.203446 354.000000
16.318108 0.373392 354.000000
16.318108 0.950231 354.000000
16.318108 1.527069 354.000000
16.318108 2.103908 354.000000
16.318108 2.680747 354.000000
16.318108 3.257585 354.000000
16.318108 3.834424 354.000000
16.318108 4.411262 354.000000
16.318108 4.988101 354.000000
16.318108 5.564939 354.000000
16.318108 6.141778 354.000000
16.318108 6.718616 354.000000
16.318108 7.295455 354.000000
16.318108 7.872293 354.000000
16.318108 8.449131 354.000000
16.318108 9.025970 354.000000
16.318108 9.602809 354.000000
16.318108 10.179647 354.000000
16.318108 10.756486 354.000000
16.318108 11.333324 354.000000
16.318108 11.910163 354.000000
16.318108 12.487001 354.000000
16.318108 13.063840 354.000000
16.318108 13.640679 354.000000
16.318108 14.217518 354.000000
16.318108 14.794356 354.000000
16.318108 15.371195 354.000000
16.318108 15.948033 354.000000
16.318108 16.524872 354.000000
16.318108 17.101709 354.000000
16.318108 17.678549 354.000000
16.318108 18.255386 354.000000
16.318108 18.832226 354.000000
16.318108 19.409063 354.000000
16.318108 19.985903 354.000000
16.272011 20.504654 353.000000
16.272011 21.079863 353.000000
16.272011 21.655073 353.000000
16.272011 22.230282 353.000000
16.272011 22.805490 353.000000
16.272011 23.380699 353.000000
16.272011 23.955908 353.000000
16.272011 24.531116 353.000000
16.272011 25.106327 353.000000
16.272011 25.681536 353.000000
16.272011 26.256744 353.000000
16.225914 26.755941 352.000000
16.225914 27.329519 352.000000
16.225914 27.903099 352.000000
16.225914 28.476679 352.000000
16.225914 29.050259 352.000000
16.225914 29.623838 352.000000
16.225914 30.197418 352.000000
16.225914 30.770998 352.000000
16.225914 31.344578 352.000000
16.225914 31.918156 352.000000
16.225914 32.491737 352.000000
16.225914 33.065315 352.000000
16.225914 33.638897 352.000000
16.225914 34.212475 352.000000
16.225914 34.786053 352.000000
16.225914 35.359634 352.000000
16.225914 35.933212 352.000000
16.225914 36.506794 352.000000
16.225914 37.080372 352.000000
16.225914 37.653954 352.000000
16.225914 38.227531 352.000000
16.272011 38.911343 353.000000
16.272011 39.486553 353.000000
16.272011 40.061760 353.000000
16.272011 40.636971 353.000000
16.272011 41.212181 353.000000
16.272011 41.787388 353.000000
16.272011 42.362598 353.000000
16.272011 42.937805 353.000000
16.272011 43.513016 353.000000
16.272011 44.088226 353.000000
16.272011 44.663433 353.000000
16.272011 45.238644 353.000000
16.272011 45.813850 353.000000
16.272011 46.389061 353.000000
16.272011 46.964272 353.000000
16.272011 47.539478 353.000000
16.272011 48.114689 353.000000
16.272011 48.689896 353.000000
16.272011 49.265106 353.000000
16.272011 49.840317 353.000000
16.272011 50.415524 353.000000
16.272011 50.990734 353.000000
16.272011 51.565941 353.000000
16.272011 52.141151 353.000000
16.272011 52.716362 353.000000
16.272011 53.291569 353.000000
16.272011 53.866779 353.000000
16.272011 54.441986 353.000000
16.272011 55.017197 353.000000
16.272011 55.592407 353.000000
16.272011 56.167614 353.000000
16.272011 56.742825 353.000000
16.272011 57.318031 353.000000
16.272011 57.893242 353.000000
16.272011 58.468452 353.000000
16.272011 59.043659 353.000000
16.225914 59.449974 352.000000
16.225914 60.023556 352.000000
16.225914 60.597134 352.000000
16.225914 61.170715 352.000000
15.592193 75.316956 338.252228
15.592193 75.868126 338.252228
15.592193 76.419312 338.252228
15.586389 76.941833 338.126312
15.586389 77.492805 338.126312
15.544847 77.835770 337.225128
15.540953 78.365646 337.140656
15.540953 78.915009 337.140656
15.530951 79.413231 336.923676
15.767373 81.179489 342.052551
15.767373 81.736855 342.052551
15.767373 82.294220 342.052551
16.225914 85.261055 352.000000
16.225914 85.834633 352.000000
16.225914 86.408211 352.000000
15.625681 83.764137 338.978699
15.625681 84.316498 338.978699
15.556082 84.490845 337.468872
15.484422 86.291100 335.914276
15.484422 86.838470 335.914276
15.484422 87.385834 335.914276
14.559981 114.079529 315.859741
14.579473 114.747650 316.282623
14.579473 115.263023 316.282623
14.579473 115.778397 316.282623
14.567310 116.196754 316.018738
14.567310 116.711700 316.018738
14.551453 117.099037 315.674713
14.548354 117.588379 315.607513
14.547473 118.095505 315.588379
14.547473 118.609749 315.588379
14.543063 119.087898 315.492737
14.527126 119.470917 315.147003
14.527126 119.984451 315.147003
14.516500 120.409836 314.916473
14.505587 120.832092 314.679749
14.505587 121.344856 314.679749
14.541200 122.156784 315.452301
14.541200 122.670815 315.452301
14.541200 123.184837 315.452301
14.540114 123.689636 315.428772
14.541119 124.212204 315.450562
14.541119 124.726219 315.450562
14.542324 125.250633 315.476715
14.546391 125.799873 315.564941
14.546391 126.314079 315.564941
14.547767 126.840279 315.594788
14.549953 127.373665 315.642181
14.549953 127.888000 315.642181
14.549953 128.402328 315.642181
14.566446 129.062805 316.000000
14.566446 129.577728 316.000000
14.566446 130.092636 316.000000
14.566446 130.607559 316.000000
14.612543 131.537430 317.000000
14.612543 132.053970 317.000000
14.612543 132.570526 317.000000
14.612543 133.087067 317.000000
14.612543 133.603622 317.000000
14.612543 134.120163 317.000000
14.566446 134.211990 316.000000
14.566446 134.726898 316.000000
14.566446 135.241821 316.000000
14.566446 135.756744 316.000000
14.566446 136.271652 316.000000
14.566446 136.786575 316.000000
14.566446 137.301498 316.000000
14.566446 137.816406 316.000000
14.520350 137.893570 315.000000
14.520350 138.406860 315.000000
14.520350 138.920151 315.000000
14.474254 138.990799 314.000000
14.474254 139.502457 314.000000
14.474254 140.014114 314.000000
14.474254 140.525787 314.000000
14.474254 141.037445 314.000000
14.474254 141.549103 314.000000
14.474254 142.060760 314.000000
14.474254 142.572418 314.000000
14.474254 143.084076 314.000000
14.474254 143.595734 314.000000
14.428158 143.648453 313.000000
14.428158 144.158478 313.000000
14.428158 144.668503 313.000000
14.335964 144.250885 311.000000
14.335964 144.757645 311.000000
14.335964 145.264420 311.000000
14.335964 145.771194 311.000000
14.289867 145.807617 310.000000
14.289867 146.312759 310.000000
14.243772 146.344284 309.000000
14.197675 146.372559 308.000000
14.197675 146.874435 308.000000
14.197675 147.376328 308.000000
14.197675 147.878204 308.000000
14.197675 148.380081 308.000000
14.197675 148.881973 308.000000
14.112367 148.486252 306.149323
14.112367 148.985123 306.149323
14.076582 149.104950 305.373047
14.045435 149.271530 304.697357
14.045435 149.768036 304.697357
14.013290 149.920624 304.000000
13.967194 149.921204 303.000000
13.967194 150.414932 303.000000
13.967194 150.908676 303.000000
13.921098 150.902725 302.000000
13.921098 151.394836 302.000000
13.875001 151.384003 301.000000
13.828905 151.369919 300.000000
13.828905 151.858765 300.000000
13.828905 152.347610 300.000000
13.782808 152.326996 299.000000
13.782808 152.814209 299.000000
13.782808 153.301437 299.000000
13.736712 153.274307 298.000000
13.736712 153.759888 298.000000
13.690617 153.727875 297.000000
13.690617 154.211838 297.000000
13.690617 154.695786 297.000000
13.690617 155.179749 297.000000
13.644519 155.139587 296.000000
13.644519 155.621918 296.000000
13.644519 156.104233 296.000000
13.598422 156.057556 295.000000
13.598422 156.538254 295.000000
13.598422 157.018951 295.000000
13.552326 156.965775 294.000000
13.552326 157.444839 294.000000
13.552326 157.923904 294.000000
13.506229 157.864182 293.000000
13.506229 158.341629 293.000000
13.506229 158.819061 293.000000
13.460134 158.752838 292.000000
13.460134 159.228638 292.000000
13.460134 159.704453 292.000000
13.460134 160.180267 292.000000
13.414037 160.105881 291.000000
13.414037 160.580063 291.000000
13.414037 161.054245 291.000000
13.414037 161.528427 291.000000
13.414037 162.002609 291.000000
13.367941 161.918442 290.000000
13.367941 162.390991 290.000000
13.367941 162.863541 290.000000
13.367941 163.336090 290.000000
13.367941 163.808640 290.000000
13.367941 164.281204 290.000000
16.928360 -14.653563 354.705688
16.928360 -14.075574 354.705688
16.942408 -13.508784 355.000000
16.942408 -12.930317 355.000000
16.942408 -12.351850 355.000000
16.942408 -11.773381 355.000000
16.942408 -11.194913 355.000000
16.942408 -10.616446 355.000000
16.942408 -10.037977 355.000000
16.942408 -9.459509 355.000000
16.942408 -8.881042 355.000000
16.942408 -8.302573 355.000000
16.894682 -7.702347 354.000000
16.894682 -7.125509 354.000000
16.894682 -6.548670 354.000000
16.894682 -5.971831 354.000000
16.894682 -5.394993 354.000000
16.894682 -4.818154 354.000000
16.894682 -4.241316 354.000000
16.894682 -3.664477 354.000000
16.894682 -3.087639 354.000000
16.894682 -2.510800 354.000000
16.894682 -1.933962 354.000000
16.894682 -1.357123 354.000000
16.894682 -0.780285 354.000000
16.894682 -0.203446 354.000000
16.894682 0.373392 354.000000
16.894682 0.950231 354.000000
16.894682 1.527069 354.000000
16.894682 2.103908 354.000000
16.894682 2.680747 354.000000
16.894682 3.257585 354.000000
16.894682 3.834424 354.000000
16.894682 4.411262 354.000000
16.894682 4.988101 354.000000
16.894682 5.564939 354.000000
16.894682 6.141778 354.000000
16.894682 6.718616 354.000000
16.894682 7.295455 354.000000
16.894682 7.872293 354.000000
16.894682 8.449131 354.000000
16.894682 9.025970 354.000000
16.894682 9.602809 354.000000
16.894682 10.179647 354.000000
16.894682 10.756486 354.000000
16.894682 11.333324 354.000000
16.894682 11.910163 354.000000
16.894682 12.487001 354.000000
16.894682 13.063840 354.000000
16.894682 13.640679 354.000000
16.894682 14.217518 354.000000
16.894682 14.794356 354.000000
16.894682 15.371195 354.000000
16.894682 15.948033 354.000000
16.894682 16.524872 354.000000
16.894682 17.101709 354.000000
