12.752088 83.028076 336.000000
12.752088 83.575584 336.000000
12.326462 81.315323 324.785339
12.534135 83.223457 330.257263
12.534135 83.761604 330.257263
12.618661 84.868248 332.484406
12.618661 85.410027 332.484406
12.618661 85.951805 332.484406
12.605318 86.402122 332.132843
12.590641 86.842094 331.746124
12.590641 87.382675 331.746124
12.574497 87.810509 331.320740
12.556738 88.225616 330.852814
12.556738 88.764732 330.852814
12.537203 89.164925 330.338104
12.515715 89.549461 329.771912
12.508639 90.035889 329.585480
12.508639 90.572945 329.585480
12.528138 91.252022 330.099243
12.552763 91.970337 330.748077
12.552763 92.509285 330.748077
12.552763 93.048233 330.748077
12.546172 93.538048 330.574432
12.546172 94.076714 330.574432
12.540258 94.570786 330.418610
12.535220 95.070992 330.285858
12.535220 95.609184 330.285858
12.531293 96.117256 330.182373
12.528749 96.635651 330.115326
12.528749 97.173576 330.115326
12.529121 97.714401 330.125153
12.532825 98.281387 330.222748
12.532825 98.819481 330.222748
12.535245 99.376747 330.286499
12.535954 99.920609 330.305206
12.535954 100.458839 330.305206
12.535954 100.997063 330.305206
12.534274 101.521683 330.260925
12.534274 102.059837 330.260925
12.533085 102.588257 330.229584
12.532367 103.120453 330.210663
12.532367 103.658524 330.210663
12.532161 104.194893 330.205231
12.532502 104.735809 330.214233
12.532962 105.277748 330.226349
12.532962 105.815849 330.226349
12.718034 107.924461 335.102753
12.718115 108.471191 335.104858
12.718115 109.017235 335.104858
12.718135 109.563469 335.105408
12.718135 110.109512 335.105408
12.718135 110.655571 335.105408
12.358755 108.059364 325.636230
12.157599 106.822533 320.336060
12.157599 107.344513 320.336060
12.083501 107.727867 318.383667
12.083501 108.246681 318.383667
12.083501 108.765480 318.383667
12.060722 109.078262 317.783478
12.060722 109.596085 317.783478
12.074188 110.236855 318.138275
12.074188 110.755249 318.138275
12.074188 111.273659 318.138275
12.036040 111.438858 317.133148
11.996091 111.584038 316.080536
11.996091 112.099083 316.080536
11.993035 112.585434 316.000000
11.993035 113.100349 316.000000
11.993035 113.615265 316.000000
12.030988 114.491356 317.000000
12.030988 115.007904 317.000000
12.030988 115.524452 317.000000
12.030988 116.041000 317.000000
12.030988 116.557549 317.000000
12.030988 117.074097 317.000000
11.993035 117.219696 316.000000
11.993035 117.734612 316.000000
11.955082 117.875320 315.000000
11.955082 118.388611 315.000000
11.955082 118.901894 315.000000
11.917129 119.036102 314.000000
11.917129 119.547760 314.000000
11.917129 120.059418 314.000000
11.917129 120.571075 314.000000
11.917129 121.082741 314.000000
11.917129 121.594398 314.000000
11.917129 122.106056 314.000000
11.917129 122.617714 314.000000
11.955082 123.521492 315.000000
11.955082 124.034782 315.000000
11.955082 124.548073 315.000000
11.955082 125.061363 315.000000
11.955082 125.574646 315.000000
11.955082 126.087936 315.000000
11.955082 126.601227 315.000000
11.955082 127.114517 315.000000
11.955082 127.627800 315.000000
11.917129 127.734306 314.000000
11.955082 128.654373 315.000000
11.955082 129.167664 315.000000
11.955082 129.680954 315.000000
11.917129 129.780945 314.000000
11.917129 130.292603 314.000000
11.917129 130.804260 314.000000
11.917129 131.315918 314.000000
11.917129 131.827576 314.000000
11.917129 132.339233 314.000000
11.917129 132.850891 314.000000
11.879176 132.937836 313.000000
11.879176 133.447861 313.000000
11.863743 133.783859 312.593353
11.879176 134.467926 313.000000
11.879176 134.977951 313.000000
11.879176 135.487976 313.000000
11.879176 135.998001 313.000000
11.879176 136.508041 313.000000
11.879176 137.018066 313.000000
11.879176 137.528091 313.000000
11.879176 138.038132 313.000000
11.841224 138.105515 312.000000
11.841224 138.613907 312.000000
11.841224 139.122314 312.000000
11.841224 139.630707 312.000000
11.803271 139.689941 311.000000
11.803271 140.196716 311.000000
11.803271 140.703476 311.000000
11.803271 141.210251 311.000000
11.803271 141.717026 311.000000
11.803271 142.223801 311.000000
11.765319 142.271622 310.000000
11.765319 142.776764 310.000000
11.765319 143.281906 310.000000
11.727366 143.323212 309.000000
11.727366 143.826721 309.000000
11.689413 143.863144 308.000000
11.689413 144.365036 308.000000
11.689413 144.866913 308.000000
11.689413 145.368790 308.000000
11.651461 145.397079 307.000000
11.651461 145.897339 307.000000
11.651461 146.397583 307.000000
11.613508 146.419342 306.000000
11.575556 146.437836 305.000000
11.575556 146.934830 305.000000
11.537602 146.948441 304.000000
11.499650 146.958786 303.000000
11.499650 147.452530 303.000000
11.499650 147.946259 303.000000
11.461698 147.950089 302.000000
11.461698 148.442200 302.000000
11.461698 148.934311 302.000000
11.423745 148.931625 301.000000
11.423745 149.422089 301.000000
11.385793 149.414536 300.000000
11.385793 149.903381 300.000000
11.385793 150.392227 300.000000
11.385793 150.881073 300.000000
11.347839 150.865341 299.000000
11.347839 151.352570 299.000000
11.309887 151.331955 298.000000
11.309887 151.817535 298.000000
11.309887 152.303131 298.000000
11.309887 152.788712 298.000000
11.271935 152.759964 297.000000
11.271935 153.243912 297.000000
11.271935 153.727875 297.000000
11.271935 154.211838 297.000000
11.271935 154.695786 297.000000
11.233982 154.657257 296.000000
11.233982 155.139587 296.000000
11.233982 155.621918 296.000000
11.233982 156.104233 296.000000
11.196029 156.057556 295.000000
11.196029 156.538254 295.000000
11.196029 157.018951 295.000000
11.196029 157.499649 295.000000
11.158076 157.444839 294.000000
11.158076 157.923904 294.000000
11.158076 158.402969 294.000000
11.158076 158.882050 294.000000
11.158076 159.361115 294.000000
11.120124 159.296509 293.000000
11.082170 159.228638 292.000000
11.082170 159.704453 292.000000
11.082170 160.180267 292.000000
11.082170 160.656067 292.000000
11.082170 161.131882 292.000000
11.082170 161.607697 292.000000
11.082170 162.083496 292.000000
11.082170 162.559311 292.000000
11.044218 162.476776 291.000000
11.044218 162.950958 291.000000
11.044218 163.425140 291.000000
11.044218 163.899323 291.000000
11.044218 164.373505 291.000000
11.044218 164.847687 291.000000
11.006266 164.753754 290.000000
11.006266 165.226303 290.000000
11.006266 165.698853 290.000000
11.006266 166.171402 290.000000
11.006266 166.643951 290.000000
11.006266 167.116501 290.000000
14.473593 -9.147889 365.666656
14.473593 -8.552040 365.666656
14.473593 -7.956191 365.666656
14.488294 -7.367818 366.038086
14.488294 -6.771363 366.038086
14.488294 -6.174909 366.038086
14.488078 -5.578372 366.032654
14.488078 -4.981926 366.032654
14.487934 -4.385437 366.029022
14.487831 -3.788970 366.026398
14.487831 -3.192535 366.026398
14.484704 -2.595539 365.947418
14.484704 -1.999232 365.947418
14.484704 -1.402926 365.947418
14.526367 -0.808939 367.000000
14.526367 -0.210917 367.000000
14.526367 0.387105 367.000000
14.486786 0.982442 366.000000
14.486786 1.578835 366.000000
14.486786 2.175227 366.000000
14.486786 2.771619 366.000000
14.486786 3.368011 366.000000
14.486786 3.964404 366.000000
14.486786 4.560796 366.000000
14.447205 5.143098 365.000000
14.447205 5.737861 365.000000
14.433207 6.326488 364.646332
14.474830 6.940633 365.697937
14.474830 7.536533 365.697937
14.474830 8.132433 365.697937
14.467823 8.724108 365.520905
14.457927 9.313345 365.270905
14.457927 9.908550 365.270905
14.448792 10.497118 365.040131
14.440311 11.085435 364.825836
14.440311 11.679914 364.825836
14.432395 12.267665 364.625854
14.424973 12.855204 364.438354
14.424973 13.449052 364.438354
14.417988 14.036098 364.261871
14.413589 14.625196 364.150757
14.413589 15.218575 364.150757
14.407623 15.805408 364.000000
14.407623 16.398542 364.000000
14.407623 16.991674 364.000000
14.407623 17.584808 364.000000
14.407623 18.177942 364.000000
14.407623 18.771076 364.000000
14.407623 19.364208 364.000000
14.368042 19.902514 363.000000
14.368042 20.494019 363.000000
14.407623 21.143608 364.000000
14.407623 21.736742 364.000000
14.407623 22.329876 364.000000
14.407623 22.923010 364.000000
14.407623 23.516142 364.000000
14.407623 24.109276 364.000000
14.407623 24.702410 364.000000
14.407623 25.295542 364.000000
14.407623 25.888676 364.000000
14.407623 26.481810 364.000000
14.368042 27.000561 363.000000
14.368042 27.592064 363.000000
14.368042 28.183569 363.000000
14.368042 28.775072 363.000000
14.328461 29.285679 362.000000
14.328461 29.875553 362.000000
14.328461 30.465427 362.000000
14.328461 31.055302 362.000000
14.328461 31.645176 362.000000
14.328461 32.235050 362.000000
14.328461 32.824924 362.000000
14.328461 33.414799 362.000000
14.288879 33.910736 361.000000
14.288879 34.498981 361.000000
14.288879 35.087227 361.000000
14.288879 35.675472 361.000000
14.249297 36.163265 360.000000
14.249297 36.749878 360.000000
14.249297 37.336494 360.000000
14.249297 37.923111 360.000000
14.249297 38.509727 360.000000
14.288879 39.204941 361.000000
14.288879 39.793186 361.000000
14.288879 40.381432 361.000000
13.918872 39.908779 351.652008
13.894949 40.412209 351.047577
13.894949 40.984238 351.047577
13.878489 41.507042 350.631744
13.851167 41.995544 349.941437
13.848790 42.558472 349.881409
13.848790 43.128597 349.881409
13.843890 43.683262 349.757599
13.842462 44.248623 349.721527
13.842462 44.818489 349.721527
13.981293 45.843575 353.229004
13.981293 46.419155 353.229004
13.981293 46.994736 353.229004
13.958958 47.494328 352.664734
13.731136 47.284466 346.908966
13.731136 47.849751 346.908966
13.727072 48.400700 346.806274
14.170135 50.546268 358.000000
14.170135 51.129623 358.000000
14.170135 51.712982 358.000000
14.170135 52.296337 358.000000
14.170135 52.879696 358.000000
13.685544 51.634716 345.757080
13.660403 52.102238 345.121948
13.660403 52.664612 345.121948
13.613236 53.043198 343.930298
13.600609 53.553905 343.611267
13.600609 54.113819 343.611267
13.582633 54.601460 343.157104
13.582633 55.160629 343.157104
13.582633 55.719803 343.157104
13.542192 56.111408 342.135406
13.440220 56.242203 339.559143
13.662590 57.735195 345.177185
13.662590 58.297661 345.177185
13.662590 58.860119 345.177185
13.639359 59.321537 344.590240
13.639359 59.883041 344.590240
13.627348 60.391327 344.286835
13.606706 60.860004 343.765289
13.606706 61.420166 343.765289
13.378507 60.940853 338.000000
13.378507 61.491619 338.000000
13.378507 62.042389 338.000000
13.508329 63.200546 341.279877
13.508329 63.756660 341.279877
13.508329 64.312767 341.279877
13.480545 64.735458 340.577942
13.452591 65.155029 339.871674
13.452591 65.708847 339.871674
13.425406 66.128769 339.184875
13.413424 66.621956 338.882172
13.413424 67.174156 338.882172
13.401989 67.668610 338.593231
13.392668 68.172905 338.357758
13.392668 68.724251 338.357758
13.378008 69.199768 337.987366
13.376003 69.740067 337.936737
13.376003 70.290733 337.936737
13.371921 70.819771 337.833588
13.338925 71.194168 337.000000
13.338925 71.743301 337.000000
13.338925 72.292442 337.000000
13.338925 72.841576 337.000000
13.338925 73.390717 337.000000
13.338925 73.939857 337.000000
13.299344 74.267952 336.000000
13.299344 74.815460 336.000000
13.299344 75.362968 336.000000
13.318765 76.021317 336.490631
13.318765 76.569633 336.490631
13.318765 77.117935 336.490631
13.314394 77.640755 336.380219
13.338925 78.332954 337.000000
13.338925 78.882088 337.000000
13.338925 79.431229 337.000000
13.338925 79.980362 337.000000
13.338925 80.529503 337.000000
13.338925 81.078636 337.000000
13.299344 81.385551 336.000000
13.299344 81.933060 336.000000
13.299344 82.480568 336.000000
13.299344 83.028076 336.000000
13.299344 83.575584 336.000000
13.299344 84.123093 336.000000
13.299344 84.670601 336.000000
13.299344 85.218109 336.000000
13.284711 85.671249 335.630310
13.287024 86.233170 335.688751
13.287024 86.780167 335.688751
13.287024 87.327171 335.688751
13.281835 87.839844 335.557617
13.281835 88.386627 335.557617
13.276125 88.895195 335.413391
13.269846 89.399437 335.254730
13.269846 89.945732 335.254730
13.266896 90.471909 335.180206
13.263651 90.995819 335.098236
13.045449 90.035889 329.585480
13.045449 90.572945 329.585480
13.065784 91.252022 330.099243
13.091466 91.970337 330.748077
13.091466 92.509285 330.748077
13.091466 93.048233 330.748077
13.084593 93.538048 330.574432
13.084593 94.076714 330.574432
13.078425 94.570786 330.418610
13.073171 95.070992 330.285858
13.073171 95.609184 330.285858
13.069075 96.117256 330.182373
13.066421 96.635651 330.115326
13.066421 97.173576 330.115326
13.066810 97.714401 330.125153
13.070672 98.281387 330.222748
13.070672 98.819481 330.222748
13.073196 99.376747 330.286499
13.073936 99.920609 330.305206
13.073936 100.458839 330.305206
13.073936 100.997063 330.305206
13.072185 101.521683 330.260925
13.072185 102.059837 330.260925
13.070944 102.588257 330.229584
13.070194 103.120453 330.210663
13.263608 105.192474 335.097137
13.263608 105.738510 335.097137
13.263608 106.284538 335.097137
13.070816 105.277748 330.226349
13.070816 105.815849 330.226349
13.263830 107.924461 335.102753
13.263914 108.471191 335.104858
13.263914 109.017235 335.104858
13.263935 109.563469 335.105408
13.263935 110.109512 335.105408
13.263935 110.655571 335.105408
12.876391 107.952545 325.314331
12.592353 110.236855 318.138275
12.592353 110.755249 318.138275
12.592353 111.273659 318.138275
12.552568 111.438858 317.133148
12.510904 111.584038 316.080536
12.510904 112.099083 316.080536
12.472932 112.272331 315.121185
12.586880 113.816177 318.000000
12.586880 114.334358 318.000000
12.586880 114.852531 318.000000
12.586880 115.370712 318.000000
12.586880 115.888885 318.000000
12.547298 116.041000 317.000000
12.547298 116.557549 317.000000
12.547298 117.074097 317.000000
12.547298 117.590645 317.000000
12.507717 117.734612 316.000000
12.468135 117.875320 315.000000
12.468135 118.388611 315.000000
12.468135 118.901894 315.000000
12.428554 119.036102 314.000000
12.428554 119.547760 314.000000
12.428554 120.059418 314.000000
12.428554 120.571075 314.000000
12.428554 121.082741 314.000000
12.428554 121.594398 314.000000
12.428554 122.106056 314.000000
12.428554 122.617714 314.000000
12.468135 123.521492 315.000000
12.468135 124.034782 315.000000
12.468135 124.548073 315.000000
12.468135 125.061363 315.000000
12.468135 125.574646 315.000000
12.468135 126.087936 315.000000
12.468135 126.601227 315.000000
12.468135 127.114517 315.000000
12.468135 127.627800 315.000000
12.428554 127.734306 314.000000
12.468135 128.654373 315.000000
12.468135 129.167664 315.000000
12.468135 129.680954 315.000000
12.428554 129.780945 314.000000
12.428554 130.292603 314.000000
12.428554 130.804260 314.000000
12.428554 131.315918 314.000000
12.428554 131.827576 314.000000
12.428554 132.339233 314.000000
12.428554 132.850891 314.000000
12.388972 132.937836 313.000000
12.388972 133.447861 313.000000
12.372877 133.783859 312.593353
12.388972 134.467926 313.000000
12.388972 134.977951 313.000000
12.388972 135.487976 313.000000
12.388972 135.998001 313.000000
12.388972 136.508041 313.000000
12.388972 137.018066 313.000000
12.388972 137.528091 313.000000
12.388972 138.038132 313.000000
12.349391 138.105515 312.000000
12.349391 138.613907 312.000000
12.349391 139.122314 312.000000
12.349391 139.630707 312.000000
12.309810 139.689941 311.000000
12.309810 140.196716 311.000000
12.309810 140.703476 311.000000
12.309810 141.210251 311.000000
12.309810 141.717026 311.000000
12.309810 142.223801 311.000000
12.270228 142.271622 310.000000
12.270228 142.776764 310.000000
12.270228 143.281906 310.000000
12.230647 143.323212 309.000000
12.230647 143.826721 309.000000
12.230647 144.330246 309.000000
12.191066 144.365036 308.000000
12.191066 144.866913 308.000000
12.191066 145.368790 308.000000
12.191066 145.870682 308.000000
12.191066 146.372559 308.000000
12.191066 146.874435 308.000000
12.151484 146.897842 307.000000
12.111903 146.917969 306.000000
12.111903 147.416595 306.000000
12.072322 147.431824 305.000000
12.072322 147.928818 305.000000
12.072322 148.425812 305.000000
11.993159 147.946259 303.000000
11.953578 147.950089 302.000000
11.953578 148.442200 302.000000
11.953578 148.934311 302.000000
11.913997 148.931625 301.000000
11.913997 149.422089 301.000000
11.874415 149.414536 300.000000
11.874415 149.903381 300.000000
11.874415 150.392227 300.000000
11.874415 150.881073 300.000000
11.834833 150.865341 299.000000
11.834833 151.352570 299.000000
11.834833 151.839783 299.000000
11.795252 151.817535 298.000000
11.795252 152.303131 298.000000
11.795252 152.788712 298.000000
11.755671 152.759964 297.000000
11.755671 153.243912 297.000000
11.755671 153.727875 297.000000
11.755671 154.211838 297.000000
11.755671 154.695786 297.000000
11.716089 154.657257 296.000000
11.716089 155.139587 296.000000
11.716089 155.621918 296.000000
11.716089 156.104233 296.000000
11.676508 156.057556 295.000000
11.676508 156.538254 295.000000
11.676508 157.018951 295.000000
11.676508 157.499649 295.000000
11.636927 157.444839 294.000000
11.636927 157.923904 294.000000
11.636927 158.402969 294.000000
11.636927 158.882050 294.000000
11.636927 159.361115 294.000000
11.597345 159.296509 293.000000
11.557763 159.228638 292.000000
11.557763 159.704453 292.000000
11.557763 160.180267 292.000000
11.557763 160.656067 292.000000
11.557763 161.131882 292.000000
11.557763 161.607697 292.000000
11.557763 162.083496 292.000000
11.557763 162.559311 292.000000
11.518182 162.476776 291.000000
11.518182 162.950958 291.000000
11.518182 163.425140 291.000000
11.518182 163.899323 291.000000
11.478601 163.808640 290.000000
11.478601 164.281204 290.000000
11.478601 164.753754 290.000000
11.478601 165.226303 290.000000
11.478601 165.698853 290.000000
11.478601 166.171402 290.000000
11.478601 166.643951 290.000000
11.478601 167.116501 290.000000
15.069168 -9.147889 365.666656
15.069168 -8.552040 365.666656
15.069168 -7.956191 365.666656
15.084476 -7.367818 366.038086
15.084476 -6.771363 366.038086
15.084476 -6.174909 366.038086
15.084251 -5.578372 366.032654
15.084251 -4.981926 366.032654
15.084102 -4.385437 366.029022
15.083994 -3.788970 366.026398
15.083994 -3.192535 366.026398
15.080739 -2.595539 365.947418
15.080739 -1.999232 365.947418
15.080739 -1.402926 365.947418
15.124116 -0.808939 367.000000
15.124116 -0.210917 367.000000
15.124116 0.387105 367.000000
15.082906 0.982442 366.000000
15.082906 1.578835 366.000000
15.082906 2.175227 366.000000
15.082906 2.771619 366.000000
15.082906 3.368011 366.000000
15.082906 3.964404 366.000000
15.082906 4.560796 366.000000
15.041696 5.143098 365.000000
15.041696 5.737861 365.000000
15.027122 6.326488 364.646332
15.070457 6.940633 365.697937
15.070457 7.536533 365.697937
15.070457 8.132433 365.697937
15.063162 8.724108 365.520905
15.052859 9.313345 365.270905
15.052859 9.908550 365.270905
15.043349 10.497118 365.040131
15.034517 11.085435 364.825836
15.034517 11.679914 364.825836
15.026277 12.267665 364.625854
15.018550 12.855204 364.438354
15.018550 13.449052 364.438354
15.011277 14.036098 364.261871
15.006699 14.625196 364.150757
15.006699 15.218575 364.150757
15.000485 15.805408 364.000000
15.000485 16.398542 364.000000
15.000485 16.991674 364.000000
15.000485 17.584808 364.000000
15.000485 18.177942 364.000000
15.000485 18.771076 364.000000
15.000485 19.364208 364.000000
14.959275 19.902514 363.000000
14.959275 20.494019 363.000000
15.000485 21.143608 364.000000
15.000485 21.736742 364.000000
15.000485 22.329876 364.000000
15.000485 22.923010 364.000000
15.000485 23.516142 364.000000
15.000485 24.109276 364.000000
15.000485 24.702410 364.000000
15.000485 25.295542 364.000000
15.000485 25.888676 364.000000
15.000485 26.481810 364.000000
14.918065 26.926180 362.000000
14.918065 27.516054 362.000000
14.918065 28.105930 362.000000
14.918065 28.695805 362.000000
14.918065 29.285679 362.000000
14.918065 29.875553 362.000000
14.918065 30.465427 362.000000
14.918065 31.055302 362.000000
14.918065 31.645176 362.000000
14.918065 32.235050 362.000000
14.918065 32.824924 362.000000
14.918065 33.414799 362.000000
14.876856 33.910736 361.000000
14.876856 34.498981 361.000000
14.876856 35.087227 361.000000
14.876856 35.675472 361.000000
14.835644 36.163265 360.000000
14.835644 36.749878 360.000000
14.835644 37.336494 360.000000
14.835644 37.923111 360.000000
14.835644 38.509727 360.000000
14.876856 39.204941 361.000000
14.876856 39.793186 361.000000
14.876856 40.381432 361.000000
14.835644 40.856186 360.000000
14.835644 41.442802 360.000000
14.835644 42.029419 360.000000
14.835644 42.616035 360.000000
14.794434 43.082642 359.000000
14.794434 43.667625 359.000000
14.794434 44.252613 359.000000
14.794434 44.837597 359.000000
14.815040 45.485847 359.500000
14.815040 46.071648 359.500000
14.815040 46.657448 359.500000
14.813323 47.237774 359.458344
14.813323 47.823509 359.458344
14.811462 48.403164 359.413208
14.809447 48.982155 359.364288
14.809447 49.567734 359.364288
14.807263 50.145920 359.311310
14.804900 50.723312 359.253937
14.804900 51.308712 359.253937
14.794434 51.857430 359.000000
14.794434 52.442417 359.000000
14.794434 53.027401 359.000000
14.764860 53.505219 358.282349
14.764860 54.089031 358.282349
14.764860 54.672848 358.282349
14.761902 55.245598 358.210571
14.756588 55.809196 358.081635
14.756588 56.392689 358.081635
14.676197 56.665787 356.130890
14.602660 56.959251 354.346436
14.602660 57.536659 354.346436
14.601506 58.109467 354.318420
14.585678 58.623215 353.934357
14.585678 59.199944 353.934357
14.568815 59.707561 353.525146
14.224794 58.860119 345.177185
14.200606 59.321537 344.590240
14.200606 59.883041 344.590240
14.188103 60.391327 344.286835
14.166610 60.860004 343.765289
14.166610 61.420166 343.765289
13.929022 60.940853 338.000000
14.794434 65.312103 359.000000
14.794434 65.897095 359.000000
14.794434 66.482079 359.000000
14.064187 63.756660 341.279877
14.064187 64.312767 341.279877
14.035259 64.735458 340.577942
14.050603 65.361801 340.950256
14.050603 65.917381 340.950256
14.050603 66.472954 340.950256
14.012229 66.845467 340.019104
14.012229 67.399521 340.019104
13.995873 67.874260 339.622223
13.982427 68.361931 339.295929
13.982427 68.914810 339.295929
13.963006 69.371201 338.824646
13.949219 69.854263 338.490082
13.949219 70.405830 338.490082
13.931932 70.869461 338.070618
13.908664 71.301064 337.506012
13.908664 71.851028 337.506012
13.891339 72.310806 337.085602
13.875022 72.774490 336.689636
13.875022 73.323128 336.689636
13.861970 73.802261 336.372925
13.847973 74.275307 336.033264
13.839780 74.778603 335.834473
13.839780 75.325844 335.834473
13.866821 76.021317 336.490631
13.866821 76.569633 336.490631
13.866821 77.117935 336.490631
13.862270 77.640755 336.380219
13.887812 78.332954 337.000000
13.887812 78.882088 337.000000
13.887812 79.431229 337.000000
13.887812 79.980362 337.000000
13.887812 80.529503 337.000000
13.887812 81.078636 337.000000
13.846601 81.385551 336.000000
13.846601 81.933060 336.000000
13.846601 82.480568 336.000000
13.846601 83.028076 336.000000
13.846601 83.575584 336.000000
13.846601 84.123093 336.000000
13.846601 84.670601 336.000000
13.846601 85.218109 336.000000
13.831367 85.671249 335.630310
13.833776 86.233170 335.688751
13.833776 86.780167 335.688751
13.833776 87.327171 335.688751
13.828370 87.839844 335.557617
13.828370 88.386627 335.557617
13.822428 88.895195 335.413391
13.815889 89.399437 335.254730
13.815889 89.945732 335.254730
13.812818 90.471909 335.180206
13.809440 90.995819 335.098236
13.487779 89.409592 327.292847
13.487779 89.942909 327.292847
13.469232 90.351807 326.842773
13.461065 90.829300 326.644623
13.461065 91.361565 326.644623
13.454183 91.846840 326.477600
13.443062 92.302467 326.207733
13.443062 92.834015 326.207733
13.433864 93.301689 325.984558
13.418797 93.727638 325.618927
13.418797 94.258224 325.618927
13.397834 94.640747 325.110260
13.389962 95.114594 324.919250
13.389962 95.644043 324.919250
13.372478 96.047913 324.494965
13.361403 96.496689 324.226227
13.361403 97.025009 324.226227
13.351712 97.482582 323.991058
13.340257 97.926422 323.713074
13.340257 98.453911 323.713074
13.324647 98.865585 323.334320
13.312382 99.300957 323.036682
13.312382 99.827347 323.036682
13.300249 100.262268 322.742279
13.287997 100.695328 322.444977
13.809395 105.192474 335.097137
13.809395 105.738510 335.097137
13.809395 106.284538 335.097137
13.262134 102.596924 321.817352
13.244258 102.982338 321.383606
13.809626 107.924461 335.102753
13.809713 108.471191 335.104858
13.809713 109.017235 335.104858
13.809735 109.563469 335.105408
13.809735 110.109512 335.105408
13.809735 110.655571 335.105408
13.406243 107.952545 325.314331
12.965039 111.064232 314.608093
12.965039 111.576866 314.608093
12.965039 112.089523 314.608093
13.104819 113.816177 318.000000
13.104819 114.334358 318.000000
13.104819 114.852531 318.000000
13.104819 115.370712 318.000000
13.104819 115.888885 318.000000
13.063609 116.041000 317.000000
13.063609 116.557549 317.000000
13.063609 117.074097 317.000000
13.063609 117.590645 317.000000
12.936394 116.957039 313.912994
12.934473 117.451118 313.866394
12.934473 117.962563 313.866394
12.934724 118.476295 313.872467
12.935425 118.994202 313.889496
12.935425 119.505684 313.889496
12.937257 120.034149 313.933929
12.937257 120.545708 313.933929
12.937257 121.057251 313.933929
12.930917 121.509232 313.780090
12.926337 121.977325 313.668976
12.926337 122.488434 313.668976
12.920450 122.943550 313.526123
12.981189 124.034782 315.000000
12.981189 124.548073 315.000000
12.981189 125.061363 315.000000
12.981189 125.574646 315.000000
12.981189 126.087936 315.000000
12.981189 126.601227 315.000000
12.981189 127.114517 315.000000
12.981189 127.627800 315.000000
12.981189 128.141098 315.000000
12.981189 128.654373 315.000000
12.981189 129.167664 315.000000
12.981189 129.680954 315.000000
12.981189 130.194244 315.000000
12.981189 130.707535 315.000000
12.981189 131.220825 315.000000
12.981189 131.734116 315.000000
13.063609 133.087067 317.000000
13.063609 133.603622 317.000000
13.063609 134.120163 317.000000
13.063609 134.636703 317.000000
13.063609 135.153259 317.000000
12.917471 134.152115 313.453827
12.981189 135.327133 315.000000
12.981189 135.840424 315.000000
12.981189 136.353714 315.000000
12.939979 136.432510 314.000000
12.939979 136.944168 314.000000
12.939979 137.455826 314.000000
12.939979 137.967484 314.000000
12.939979 138.479141 314.000000
12.898768 138.548157 313.000000
12.898768 139.058182 313.000000
12.898768 139.568222 313.000000
12.898768 140.078247 313.000000
12.857558 140.139114 312.000000
12.857558 140.647507 312.000000
12.857558 141.155914 312.000000
12.857558 141.664307 312.000000
12.857558 142.172714 312.000000
12.816349 142.223801 311.000000
12.816349 142.730560 311.000000
12.816349 143.237335 311.000000
12.775139 143.281906 310.000000
12.775139 143.787048 310.000000
12.775139 144.292191 310.000000
12.733929 144.330246 309.000000
12.692718 144.365036 308.000000
12.692718 144.866913 308.000000
12.692718 145.368790 308.000000
12.692718 145.870682 308.000000
12.692718 146.372559 308.000000
12.692718 146.874435 308.000000
12.651507 146.897842 307.000000
12.610298 146.917969 306.000000
12.610298 147.416595 306.000000
12.569088 147.431824 305.000000
12.569088 147.928818 305.000000
12.569088 148.425812 305.000000
12.486668 147.946259 303.000000
12.517884 148.811096 303.757507
12.517884 149.306076 303.757507
12.517884 149.801041 303.757507
12.445457 149.426407 302.000000
12.445457 149.918518 302.000000
12.404247 149.912567 301.000000
12.363038 149.903381 300.000000
12.363038 150.392227 300.000000
12.363038 150.881073 300.000000
12.321827 150.865341 299.000000
12.321827 151.352570 299.000000
12.321827 151.839783 299.000000
12.321827 152.326996 299.000000
12.321827 152.814209 299.000000
12.280617 152.788712 298.000000
12.239407 152.759964 297.000000
12.239407 153.243912 297.000000
12.239407 153.727875 297.000000
12.239407 154.211838 297.000000
12.239407 154.695786 297.000000
12.239407 155.179749 297.000000
12.198196 155.139587 296.000000
12.198196 155.621918 296.000000
12.198196 156.104233 296.000000
12.156986 156.057556 295.000000
12.156986 156.538254 295.000000
12.156986 157.018951 295.000000
12.156986 157.499649 295.000000
12.115777 157.444839 294.000000
12.115777 157.923904 294.000000
12.115777 158.402969 294.000000
12.115777 158.882050 294.000000
12.115777 159.361115 294.000000
12.074567 159.296509 293.000000
12.074567 159.773941 293.000000
12.074567 160.251389 293.000000
12.033356 160.180267 292.000000
12.033356 160.656067 292.000000
12.033356 161.131882 292.000000
12.033356 161.607697 292.000000
12.033356 162.083496 292.000000
12.033356 162.559311 292.000000
11.992146 162.476776 291.000000
11.992146 162.950958 291.000000
11.992146 163.425140 291.000000
11.992146 163.899323 291.000000
11.950935 163.808640 290.000000
11.950935 164.281204 290.000000
11.950935 164.753754 290.000000
11.950935 165.226303 290.000000
11.950935 165.698853 290.000000
11.950935 166.171402 290.000000
11.950935 166.643951 290.000000
11.950935 167.116501 290.000000
15.721864 -9.779267 367.000000
15.721864 -9.181246 367.000000
15.721864 -8.583223 367.000000
15.703958 -7.976107 366.582001
15.703958 -7.378766 366.582001
15.703958 -6.781425 366.582001
15.701186 -6.182993 366.517334
15.699173 -5.585042 366.470306
15.699173 -4.987883 366.470306
15.694328 -4.389369 366.357208
15.721864 -3.799048 367.000000
15.721864 -3.201027 367.000000
15.721864 -2.603005 367.000000
15.721864 -2.004983 367.000000
15.721864 -1.406961 367.000000
15.721864 -0.808939 367.000000
15.721864 -0.210917 367.000000
15.721864 0.387105 367.000000
15.679025 0.982442 366.000000
15.679025 1.578835 366.000000
15.679025 2.175227 366.000000
15.679025 2.771619 366.000000
15.679025 3.368011 366.000000
15.679025 3.964404 366.000000
15.679025 4.560796 366.000000
15.636187 5.143098 365.000000
15.636187 5.737861 365.000000
15.636187 6.332624 365.000000
15.666084 6.940633 365.697937
15.666084 7.536533 365.697937
15.666084 8.132433 365.697937
15.658501 8.724108 365.520905
15.647791 9.313345 365.270905
15.647791 9.908550 365.270905
15.637906 10.497118 365.040131
15.628725 11.085435 364.825836
15.628725 11.679914 364.825836
15.620158 12.267665 364.625854
15.612125 12.855204 364.438354
15.612125 13.449052 364.438354
15.604566 14.036098 364.261871
15.599805 14.625196 364.150757
15.599805 15.218575 364.150757
15.593348 15.805408 364.000000
15.593348 16.398542 364.000000
15.593348 16.991674 364.000000
15.593348 17.584808 364.000000
15.550508 18.128002 363.000000
15.550508 18.719505 363.000000
15.550508 19.311010 363.000000
15.550508 19.902514 363.000000
15.550508 20.494019 363.000000
15.550508 21.085522 363.000000
15.550508 21.677025 363.000000
15.550508 22.268530 363.000000
15.550508 22.860033 363.000000
15.550508 23.451538 363.000000
15.550508 24.043041 363.000000
15.550508 24.634544 363.000000
15.550508 25.226049 363.000000
15.550508 25.817553 363.000000
15.550508 26.409058 363.000000
15.507669 26.926180 362.000000
15.507669 27.516054 362.000000
15.507669 28.105930 362.000000
15.507669 28.695805 362.000000
15.507669 29.285679 362.000000
15.507669 29.875553 362.000000
15.507669 30.465427 362.000000
15.507669 31.055302 362.000000
15.507669 31.645176 362.000000
15.507669 32.235050 362.000000
15.507669 32.824924 362.000000
15.507669 33.414799 362.000000
15.464831 33.910736 361.000000
15.464831 34.498981 361.000000
15.464831 35.087227 361.000000
15.464831 35.675472 361.000000
15.421990 36.163265 360.000000
15.421990 36.749878 360.000000
15.421990 37.336494 360.000000
15.421990 37.923111 360.000000
15.421990 38.509727 360.000000
15.464831 39.204941 361.000000
15.464831 39.793186 361.000000
15.464831 40.381432 361.000000
15.421990 40.856186 360.000000
15.421990 41.442802 360.000000
15.421990 42.029419 360.000000
15.421990 42.616035 360.000000
15.379152 43.082642 359.000000
15.379152 43.667625 359.000000
15.379152 44.252613 359.000000
15.379152 44.837597 359.000000
15.400572 45.485847 359.500000
15.400572 46.071648 359.500000
15.400572 46.657448 359.500000
15.398787 47.237774 359.458344
15.398787 47.823509 359.458344
15.396853 48.403164 359.413208
15.394758 48.982155 359.364288
15.394758 49.567734 359.364288
15.392488 50.145920 359.311310
15.390032 50.723312 359.253937
15.390032 51.308712 359.253937
15.379152 51.857430 359.000000
15.379152 52.442417 359.000000
15.379152 53.027401 359.000000
15.348410 53.505219 358.282349
15.348410 54.089031 358.282349
15.348410 54.672848 358.282349
15.345335 55.245598 358.210571
15.339811 55.809196 358.081635
15.339811 56.392689 358.081635
15.256244 56.665787 356.130890
15.179800 56.959251 354.346436
15.179800 57.536659 354.346436
15.178599 58.109467 354.318420
15.162146 58.623215 353.934357
15.162146 59.199944 353.934357
15.144616 59.707561 353.525146
14.890661 59.272755 347.597015
14.890661 59.839153 347.597015
14.890661 60.405560 347.597015
14.860657 60.849106 346.896606
14.837298 61.317833 346.351318
14.837298 61.882206 346.351318
14.799335 62.286812 345.465149
15.379152 65.312103 359.000000
15.379152 65.897095 359.000000
15.379152 66.482079 359.000000
14.720096 64.192970 343.615417
14.720096 64.752892 343.615417
14.683075 65.148552 342.751251
14.644701 65.535332 341.855469
14.644701 66.092384 341.855469
14.605923 66.472954 340.950256
14.566033 66.845467 340.019104
14.566033 67.399521 340.019104
14.549031 67.874260 339.622223
14.535052 68.361931 339.295929
14.535052 68.914810 339.295929
14.514863 69.371201 338.824646
14.500532 69.854263 338.490082
14.500532 70.405830 338.490082
14.482562 70.869461 338.070618
14.458375 71.301064 337.506012
14.458375 71.851028 337.506012
14.440366 72.310806 337.085602
14.423402 72.774490 336.689636
14.423402 73.323128 336.689636
14.409835 73.802261 336.372925
14.395284 74.275307 336.033264
14.386768 74.778603 335.834473
14.386768 75.325844 335.834473
14.414877 76.021317 336.490631
14.414877 76.569633 336.490631
14.414877 77.117935 336.490631
14.410146 77.640755 336.380219
14.436698 78.332954 337.000000
14.436698 78.882088 337.000000
14.436698 79.431229 337.000000
14.436698 79.980362 337.000000
14.436698 80.529503 337.000000
14.436698 81.078636 337.000000
14.393859 81.385551 336.000000
14.393859 81.933060 336.000000
14.393859 82.480568 336.000000
14.393859 83.028076 336.000000
14.393859 83.575584 336.000000
14.393859 84.123093 336.000000
14.393859 84.670601 336.000000
14.393859 85.218109 336.000000
14.378021 85.671249 335.630310
14.380525 86.233170 335.688751
14.380525 86.780167 335.688751
14.380525 87.327171 335.688751
14.374907 87.839844 335.557617
14.374907 88.386627 335.557617
14.368730 88.895195 335.413391
14.361933 89.399437 335.254730
14.361933 89.945732 335.254730
14.358739 90.471909 335.180206
14.355228 90.995819 335.098236
14.020855 89.409592 327.292847
14.020855 89.942909 327.292847
14.001574 90.351807 326.842773
13.993085 90.829300 326.644623
13.993085 91.361565 326.644623
13.985930 91.846840 326.477600
13.974369 92.302467 326.207733
13.974369 92.834015 326.207733
13.964808 93.301689 325.984558
13.949145 93.727638 325.618927
13.949145 94.258224 325.618927
13.927355 94.640747 325.110260
13.919171 95.114594 324.919250
13.919171 95.644043 324.919250
13.900996 96.047913 324.494965
13.889483 96.496689 324.226227
13.889483 97.025009 324.226227
13.879409 97.482582 323.991058
13.867500 97.926422 323.713074
13.867500 98.453911 323.713074
13.851274 98.865585 323.334320
13.838525 99.300957 323.036682
13.838525 99.827347 323.036682
13.825913 100.262268 322.742279
13.813177 100.695328 322.444977
14.355181 105.192474 335.097137
14.355181 105.738510 335.097137
14.355181 106.284538 335.097137
13.786290 102.596924 321.817352
13.767710 102.982338 321.383606
13.758764 103.438774 321.174805
13.735801 103.788612 320.638763
13.735801 104.311089 320.638763
13.721803 104.726723 320.311981
13.716068 105.204697 320.178162
13.716068 105.726425 320.178162
13.622760 113.816177 318.000000
13.622760 114.334358 318.000000
13.622760 114.852531 318.000000
13.622760 115.370712 318.000000
13.622760 115.888885 318.000000
13.579921 116.041000 317.000000
13.579921 116.557549 317.000000
13.579921 117.074097 317.000000
13.579921 117.590645 317.000000
13.378006 116.859970 312.286652
13.378006 117.368843 312.286652
13.378006 117.877701 312.286652
13.377766 118.384445 312.281036
13.377766 118.893303 312.281036
13.389281 119.504951 312.549866
13.395429 120.069351 312.693359
13.395429 120.578873 312.693359
13.400654 121.135643 312.815338
13.402885 121.665619 312.867432
13.402885 122.175438 312.867432
13.426302 122.899590 313.414032
13.438622 123.523544 313.701630
13.438622 124.034721 313.701630
13.441881 124.576103 313.777740
13.449461 125.157928 313.954651
13.449461 125.669518 313.954651
13.449674 126.183098 313.959625
13.494243 127.114517 315.000000
13.494243 127.627800 315.000000
13.494243 128.141098 315.000000
13.494243 128.654373 315.000000
13.494243 129.167664 315.000000
13.494243 129.680954 315.000000
13.494243 130.194244 315.000000
13.494243 130.707535 315.000000
13.494243 131.220825 315.000000
13.494243 131.734116 315.000000
13.579921 133.087067 317.000000
13.579921 133.603622 317.000000
13.579921 134.120163 317.000000
13.579921 134.636703 317.000000
13.579921 135.153259 317.000000
13.428007 134.152115 313.453827
13.494243 135.327133 315.000000
13.494243 135.840424 315.000000
13.537082 136.786575 316.000000
13.537082 137.301498 316.000000
13.537082 137.816406 316.000000
13.494243 137.893570 315.000000
13.451405 137.967484 314.000000
13.451405 138.479141 314.000000
13.451405 138.990799 314.000000
13.451405 139.502457 314.000000
13.451405 140.014114 314.000000
13.408566 140.078247 313.000000
13.408566 140.588272 313.000000
13.408566 141.098297 313.000000
13.408566 141.608337 313.000000
13.408566 142.118362 313.000000
13.408566 142.628387 313.000000
13.408566 143.138428 313.000000
13.365726 143.189514 312.000000
13.365726 143.697906 312.000000
13.322887 143.744110 311.000000
13.322887 144.250885 311.000000
13.322887 144.757645 311.000000
13.322887 145.264420 311.000000
13.280048 145.302475 310.000000
13.237209 145.337265 309.000000
13.237209 145.840775 309.000000
13.194370 145.870682 308.000000
13.194370 146.372559 308.000000
13.194370 146.874435 308.000000
13.194370 147.376328 308.000000
13.194370 147.878204 308.000000
13.194370 148.380081 308.000000
13.136413 148.227982 306.647064
13.100688 148.323212 305.813141
13.100688 148.821533 305.813141
13.062654 148.886337 304.925293
13.040133 149.125671 304.399597
13.040133 149.621674 304.399597
13.012627 149.801041 303.757507
12.937338 149.426407 302.000000
12.937338 149.918518 302.000000
12.894499 149.912567 301.000000
12.851660 149.903381 300.000000
12.851660 150.392227 300.000000
12.851660 150.881073 300.000000
12.808821 150.865341 299.000000
12.808821 151.352570 299.000000
12.808821 151.839783 299.000000
12.808821 152.326996 299.000000
12.808821 152.814209 299.000000
12.765982 152.788712 298.000000
12.765982 153.274307 298.000000
12.765982 153.759888 298.000000
12.723143 153.727875 297.000000
12.723143 154.211838 297.000000
12.723143 154.695786 297.000000
12.723143 155.179749 297.000000
12.680305 155.139587 296.000000
12.680305 155.621918 296.000000
12.680305 156.104233 296.000000
12.680305 156.586563 296.000000
12.637465 156.538254 295.000000
12.637465 157.018951 295.000000
12.637465 157.499649 295.000000
12.594626 157.444839 294.000000
12.594626 157.923904 294.000000
12.594626 158.402969 294.000000
12.594626 158.882050 294.000000
12.594626 159.361115 294.000000
12.551788 159.296509 293.000000
12.551788 159.773941 293.000000
12.551788 160.251389 293.000000
12.508948 160.180267 292.000000
12.508948 160.656067 292.000000
12.508948 161.131882 292.000000
12.508948 161.607697 292.000000
12.508948 162.083496 292.000000
12.508948 162.559311 292.000000
12.466109 162.476776 291.000000
12.466109 162.950958 291.000000
12.466109 163.425140 291.000000
12.466109 163.899323 291.000000
12.423271 163.808640 290.000000
12.423271 164.281204 290.000000
12.423271 164.753754 290.000000
12.423271 165.226303 290.000000
12.423271 165.698853 290.000000
12.423271 166.171402 290.000000
16.275145 -10.945405 366.000000
16.275145 -10.349012 366.000000
16.319613 -9.779267 367.000000
16.319613 -9.181246 367.000000
16.319613 -8.583223 367.000000
16.301025 -7.976107 366.582001
16.301025 -7.378766 366.582001
16.301025 -6.781425 366.582001
16.298149 -6.182993 366.517334
16.296057 -5.585042 366.470306
16.296057 -4.987883 366.470306
16.291027 -4.389369 366.357208
16.319613 -3.799048 367.000000
16.319613 -3.201027 367.000000
16.319613 -2.603005 367.000000
16.319613 -2.004983 367.000000
16.319613 -1.406961 367.000000
16.319613 -0.808939 367.000000
16.275145 -0.210343 366.000000
16.275145 0.386050 366.000000
16.275145 0.982442 366.000000
16.275145 1.578835 366.000000
16.275145 2.175227 366.000000
16.275145 2.771619 366.000000
16.230677 3.358809 365.000000
16.230677 3.953572 365.000000
16.230677 4.548335 365.000000
16.230677 5.143098 365.000000
16.230677 5.737861 365.000000
16.230677 6.332624 365.000000
16.231184 6.927603 365.011414
16.231184 7.522385 365.011414
16.231184 8.117167 365.011414
16.218479 8.705128 364.725677
16.209585 9.294345 364.525696
16.209585 9.888335 364.525696
16.201248 10.476933 364.338196
16.193399 11.065255 364.161713
16.193399 11.658652 364.161713
16.185989 12.246442 363.995056
16.157845 12.817242 363.362122
16.157845 13.409335 363.362122
16.141743 13.987474 363.000000
16.186209 14.619142 364.000000
16.186209 15.212275 364.000000
16.186209 15.805408 364.000000
16.141743 16.353491 363.000000
16.141743 16.944994 363.000000
16.141743 17.536499 363.000000
16.141743 18.128002 363.000000
16.141743 18.719505 363.000000
16.141743 19.311010 363.000000
16.141743 19.902514 363.000000
16.141743 20.494019 363.000000
16.141743 21.085522 363.000000
16.141743 21.677025 363.000000
16.141743 22.268530 363.000000
16.141743 22.860033 363.000000
16.141743 23.451538 363.000000
16.141743 24.043041 363.000000
16.097275 24.566681 362.000000
16.097275 25.156555 362.000000
16.097275 25.746429 362.000000
16.097275 26.336304 362.000000
16.097275 26.926180 362.000000
16.097275 27.516054 362.000000
16.097275 28.105930 362.000000
16.097275 28.695805 362.000000
16.097275 29.285679 362.000000
16.097275 29.875553 362.000000
16.097275 30.465427 362.000000
16.097275 31.055302 362.000000
16.097275 31.645176 362.000000
16.097275 32.235050 362.000000
16.052807 32.734245 361.000000
16.052807 33.322491 361.000000
16.052807 33.910736 361.000000
16.052807 34.498981 361.000000
16.052807 35.087227 361.000000
16.052807 35.675472 361.000000
16.008337 36.163265 360.000000
16.008337 36.749878 360.000000
16.008337 37.336494 360.000000
16.008337 37.923111 360.000000
16.008337 38.509727 360.000000
16.008337 39.096340 360.000000
16.008337 39.682957 360.000000
16.008337 40.269573 360.000000
16.008337 40.856186 360.000000
16.008337 41.442802 360.000000
16.008337 42.029419 360.000000
16.008337 42.616035 360.000000
15.963870 43.082642 359.000000
15.963870 43.667625 359.000000
15.963870 44.252613 359.000000
15.963870 44.837597 359.000000
16.008337 45.549110 360.000000
16.008337 46.135727 360.000000
16.008337 46.722343 360.000000
15.984252 47.237774 359.458344
15.984252 47.823509 359.458344
15.982246 48.403164 359.413208
15.980070 48.982155 359.364288
15.980070 49.567734 359.364288
15.977715 50.145920 359.311310
15.975163 50.723312 359.253937
15.975163 51.308712 359.253937
15.963870 51.857430 359.000000
15.975232 52.479736 359.255493
15.975232 53.065140 359.255493
15.976367 53.654358 359.281036
15.977617 54.244041 359.309143
15.977617 54.829536 359.309143
15.977617 55.415028 359.309143
15.974546 55.989746 359.240051
15.974546 56.575127 359.240051
15.973761 57.157692 359.222412
15.973113 57.740700 359.207825
15.973113 58.326023 359.207825
15.972634 58.909584 359.197083
15.972363 59.493874 359.190948
15.973185 60.082268 359.209442
15.973185 60.667595 359.209442
15.973185 61.252918 359.209442
15.480443 59.930660 348.128540
15.480443 60.497932 348.128540
15.480443 61.065205 348.128540
15.457582 61.541454 347.614410
15.457582 62.107883 347.614410
15.421082 62.526333 346.793610
15.963870 65.312103 359.000000
15.963870 65.897095 359.000000
15.963870 66.482079 359.000000
15.343741 64.461784 345.054352
15.343741 65.024048 345.054352
15.306654 65.427780 344.220306
15.268157 65.822731 343.354614
15.268157 66.382225 343.354614
15.229251 66.771126 342.479645
15.189200 67.152130 341.578979
15.189200 67.708725 341.578979
15.148302 68.081512 340.659241
15.132633 68.565620 340.306885
15.132633 69.120140 340.306885
15.110067 69.570778 339.799438
15.093661 70.048332 339.430481
15.093661 70.601425 339.430481
15.073149 71.057831 338.969208
15.047803 71.489769 338.399231
15.047803 72.041183 338.399231
15.026960 72.492043 337.930481
15.007085 72.946091 337.483521
15.007085 73.496017 337.483521
14.990729 73.965248 337.115723
14.973120 74.427040 336.719727
14.933755 74.778603 335.834473
14.933755 75.325844 335.834473
14.926231 75.834862 335.665283
14.920768 76.353851 335.542389
14.920768 76.900612 335.542389
14.910275 77.392914 335.306427
14.898877 77.879715 335.050110
14.898877 78.425674 335.050110
14.895103 78.951630 334.965240
14.881013 79.422256 334.648407
14.881013 79.967560 334.648407
14.867716 80.440926 334.349365
14.941116 81.385551 336.000000
14.941116 81.933060 336.000000
14.941116 82.480568 336.000000
14.941116 83.028076 336.000000
14.941116 83.575584 336.000000
14.941116 84.123093 336.000000
14.698580 83.296158 330.545776
14.698580 83.834778 330.545776
14.698747 84.374359 330.549530
14.698747 84.912979 330.549530
14.698747 85.451607 330.549530
14.686684 85.919670 330.278259
14.686393 86.456146 330.271729
14.686393 86.994316 330.271729
14.664672 87.403030 329.783264
14.644351 87.818542 329.326263
14.644351 88.355179 329.326263
14.612557 88.698814 328.611267
14.587620 89.082008 328.050476
13.886640 116.859970 312.286652
13.886640 117.368843 312.286652
13.886640 117.877701 312.286652
13.886390 118.384445 312.281036
13.886390 118.893303 312.281036
13.898344 119.504951 312.549866
13.904726 120.069351 312.693359
13.904726 120.578873 312.693359
13.910150 121.135643 312.815338
13.912465 121.665619 312.867432
13.912465 122.175438 312.867432
13.936772 122.899590 313.414032
13.949561 123.523544 313.701630
13.949561 124.034721 313.701630
13.952946 124.576103 313.777740
13.960813 125.157928 313.954651
13.960813 125.669518 313.954651
13.961034 126.183098 313.959625
14.007297 127.114517 315.000000
14.007297 127.627800 315.000000
14.007297 128.141098 315.000000
14.051764 129.062805 316.000000
14.051764 129.577728 316.000000
14.051764 130.092636 316.000000
14.051764 130.607559 316.000000
14.051764 131.122482 316.000000
14.051764 131.637390 316.000000
14.096231 132.570526 317.000000
14.096231 133.087067 317.000000
14.096231 133.603622 317.000000
14.096231 134.120163 317.000000
14.096231 134.636703 317.000000
14.096231 135.153259 317.000000
14.096231 135.669800 317.000000
14.096231 136.186356 317.000000
14.096231 136.702896 317.000000
14.096231 137.219452 317.000000
14.051764 137.301498 316.000000
14.051764 137.816406 316.000000
14.007297 137.893570 315.000000
13.962830 137.967484 314.000000
13.962830 138.479141 314.000000
13.962830 138.990799 314.000000
13.962830 139.502457 314.000000
13.962830 140.014114 314.000000
13.918362 140.078247 313.000000
13.918362 140.588272 313.000000
13.918362 141.098297 313.000000
13.918362 141.608337 313.000000
13.918362 142.118362 313.000000
13.918362 142.628387 313.000000
13.918362 143.138428 313.000000
13.873894 143.189514 312.000000
13.873894 143.697906 312.000000
13.829425 143.744110 311.000000
13.829425 144.250885 311.000000
13.829425 144.757645 311.000000
13.829425 145.264420 311.000000
13.784958 145.302475 310.000000
13.784958 145.807617 310.000000
13.784958 146.312759 310.000000
13.740490 146.344284 309.000000
13.696023 146.372559 308.000000
13.696023 146.874435 308.000000
13.696023 147.376328 308.000000
13.740490 148.358337 309.000000
13.740490 148.861847 309.000000
13.740490 149.365356 309.000000
