4.938984 82.150642 326.000000
4.938984 82.681854 326.000000
4.938984 83.213066 326.000000
4.938984 83.744286 326.000000
4.938984 84.275497 326.000000
4.938984 84.806709 326.000000
4.938984 85.337921 326.000000
4.938984 85.869133 326.000000
4.938984 86.400345 326.000000
4.923834 86.664894 325.000000
4.923834 87.194481 325.000000
4.923834 87.724060 325.000000
4.908684 87.982094 324.000000
4.908684 88.510048 324.000000
4.893534 88.763199 323.000000
4.878383 89.013084 322.000000
4.863233 89.259705 321.000000
4.863233 89.782776 321.000000
4.863233 90.305840 321.000000
4.848083 90.545952 320.000000
4.848083 91.067390 320.000000
4.848083 91.588821 320.000000
4.848083 92.110260 320.000000
4.848083 92.631699 320.000000
4.832932 92.862030 319.000000
4.832932 93.381836 319.000000
4.832932 93.901642 319.000000
4.832932 94.421448 319.000000
4.817782 94.643631 318.000000
4.817782 95.161804 318.000000
4.817782 95.679985 318.000000
4.802632 95.895653 317.000000
4.802632 96.412193 317.000000
4.802632 96.928741 317.000000
4.802632 97.445290 317.000000
4.802632 97.961838 317.000000
4.802632 98.478386 317.000000
4.787482 98.682655 316.000000
4.787482 99.197571 316.000000
4.772332 99.396942 315.000000
4.772332 99.910225 315.000000
4.772332 100.423515 315.000000
4.757181 100.616371 314.000000
4.757181 101.128029 314.000000
4.757181 101.639687 314.000000
4.757181 102.151344 314.000000
4.742031 102.336060 313.000000
4.742031 102.846085 313.000000
4.742031 103.356117 313.000000
4.726881 103.534302 312.000000
4.726881 104.042702 312.000000
4.726881 104.551102 312.000000
4.726881 105.059502 312.000000
4.711730 105.229546 311.000000
4.711730 105.736313 311.000000
4.711730 106.243088 311.000000
4.711730 106.749855 311.000000
4.711730 107.256622 311.000000
4.711730 107.763397 311.000000
4.711730 108.270164 311.000000
4.711730 108.776939 311.000000
4.711730 109.283707 311.000000
4.696580 109.437454 310.000000
4.696580 109.942596 310.000000
4.696580 110.447739 310.000000
4.696580 110.952873 310.000000
4.696580 111.458015 310.000000
4.696580 111.963158 310.000000
4.681430 112.105499 309.000000
4.681430 112.609009 309.000000
4.681430 113.112518 309.000000
4.681430 113.616028 309.000000
4.681430 114.119545 309.000000
4.666280 114.252106 308.000000
4.666280 114.753990 308.000000
4.666280 115.255867 308.000000
4.666280 115.757751 308.000000
4.666280 116.259636 308.000000
4.666280 116.761513 308.000000
4.666280 117.263397 308.000000
4.666280 117.765282 308.000000
4.666280 118.267159 308.000000
4.666280 118.769043 308.000000
4.651130 118.883690 307.000000
4.651130 119.383949 307.000000
4.651130 119.884201 307.000000
4.651130 120.384453 307.000000
4.651130 120.884705 307.000000
4.651130 121.384956 307.000000
4.651130 121.885208 307.000000
4.651130 122.385460 307.000000
4.651130 122.885712 307.000000
4.651130 123.385963 307.000000
4.651130 123.886223 307.000000
4.651130 124.386475 307.000000
4.635979 124.479927 306.000000
4.635979 124.978546 306.000000
4.635979 125.477173 306.000000
4.635979 125.975792 306.000000
4.635979 126.474419 306.000000
4.635979 126.973038 306.000000
4.635979 127.471664 306.000000
4.635979 127.970284 306.000000
4.635979 128.468918 306.000000
4.635979 128.967529 306.000000
4.635979 129.466156 306.000000
4.635979 129.964783 306.000000
4.635979 130.463409 306.000000
4.635979 130.962021 306.000000
4.635979 131.460648 306.000000
4.635979 131.959274 306.000000
4.635979 132.457901 306.000000
4.635979 132.956512 306.000000
4.635979 133.455139 306.000000
4.620829 133.516006 305.000000
4.620829 134.013000 305.000000
4.620829 134.509995 305.000000
4.620829 135.006989 305.000000
4.620829 135.503983 305.000000
4.620829 136.000977 305.000000
4.620829 136.497971 305.000000
4.620829 136.994965 305.000000
4.620829 137.491959 305.000000
4.620829 137.988953 305.000000
4.605679 138.031891 304.000000
4.605679 138.527252 304.000000
4.605679 139.022614 304.000000
4.605679 139.517975 304.000000
4.605679 140.013351 304.000000
4.605679 140.508713 304.000000
4.605679 141.004074 304.000000
4.605679 141.499435 304.000000
4.605679 141.994797 304.000000
4.605679 142.490158 304.000000
4.605679 142.985535 304.000000
4.605679 143.480896 304.000000
4.605679 143.976257 304.000000
4.605679 144.471619 304.000000
4.605679 144.966980 304.000000
4.590528 144.983856 303.000000
4.590528 145.477585 303.000000
4.590528 145.971329 303.000000
4.590528 146.465057 303.000000
4.575378 146.473785 302.000000
4.575378 146.965881 302.000000
4.575378 147.457993 302.000000
4.575378 147.950089 302.000000
4.575378 148.442200 302.000000
4.575378 148.934311 302.000000
4.575378 149.426407 302.000000
4.575378 149.918518 302.000000
4.560228 149.912567 301.000000
4.560228 150.403046 301.000000
4.560228 150.893524 301.000000
4.560228 151.384003 301.000000
4.545078 151.369919 300.000000
4.545078 151.858765 300.000000
4.545078 152.347610 300.000000
4.545078 152.836456 300.000000
4.545078 153.325302 300.000000
4.545078 153.814148 300.000000
4.545078 154.302994 300.000000
4.545078 154.791840 300.000000
4.529928 154.763077 299.000000
4.529928 155.250305 299.000000
4.529928 155.737518 299.000000
4.529928 156.224731 299.000000
4.514777 156.187820 298.000000
4.514777 156.673416 298.000000
4.514777 157.158997 298.000000
4.514777 157.644592 298.000000
4.499627 157.599533 297.000000
4.499627 158.083496 297.000000
4.499627 158.567444 297.000000
4.499627 159.051407 297.000000
4.499627 159.535370 297.000000
4.499627 160.019318 297.000000
4.499627 160.503281 297.000000
4.499627 160.987244 297.000000
4.499627 161.471191 297.000000
4.484477 161.409851 296.000000
4.484477 161.892181 296.000000
4.484477 162.374512 296.000000
4.469326 162.306641 295.000000
4.469326 162.787338 295.000000
4.469326 163.268036 295.000000
4.469326 163.748734 295.000000
4.469326 164.229431 295.000000
4.469326 164.710129 295.000000
4.454176 164.630875 294.000000
4.454176 165.109940 294.000000
4.454176 165.589020 294.000000
4.454176 166.068085 294.000000
4.454176 166.547150 294.000000
4.454176 167.026215 294.000000
4.454176 167.505295 294.000000
4.454176 167.984360 294.000000
4.439026 167.890427 293.000000
4.439026 168.367859 293.000000
4.439026 168.845306 293.000000
4.439026 169.322739 293.000000
4.439026 169.800186 293.000000
4.423876 169.696472 292.000000
4.423876 170.172272 292.000000
4.423876 170.648087 292.000000
4.423876 171.123901 292.000000
4.423876 171.599716 292.000000
4.408725 171.486221 291.000000
4.408725 171.960403 291.000000
4.408725 172.434586 291.000000
4.408725 172.908768 291.000000
4.393575 172.787125 290.000000
4.393575 173.259674 290.000000
4.393575 173.732224 290.000000
4.393575 174.204773 290.000000
4.393575 174.677322 290.000000
4.393575 175.149872 290.000000
6.157893 5.171279 367.000000
6.157893 5.769301 367.000000
6.157893 6.367323 367.000000
6.157893 6.965345 367.000000
6.152300 7.556497 366.666656
6.152300 8.153975 366.666656
6.150063 8.748272 366.533325
5.591950 19.901703 333.270721
5.591950 20.444763 333.270721
5.591950 20.987823 333.270721
5.419617 20.867348 323.000000
5.419617 21.393671 323.000000
5.419617 21.919996 323.000000
5.419617 22.446320 323.000000
5.419617 22.972645 323.000000
5.419617 23.498970 323.000000
5.402838 23.950912 322.000000
5.402838 24.475607 322.000000
5.402838 25.000301 322.000000
5.402838 25.524996 322.000000
5.402838 26.049692 322.000000
5.402838 26.574387 322.000000
5.402838 27.099081 322.000000
5.402838 27.623775 322.000000
5.402838 28.148472 322.000000
5.419617 28.762213 323.000000
5.419617 29.288536 323.000000
5.419617 29.814861 323.000000
5.419617 30.341185 323.000000
5.402838 30.771946 322.000000
5.402838 31.296640 322.000000
5.402838 31.821335 322.000000
5.419617 32.446484 323.000000
5.419617 32.972809 323.000000
5.419617 33.499130 323.000000
5.419617 34.025455 323.000000
5.419617 34.551781 323.000000
5.419617 35.078106 323.000000
5.419617 35.604427 323.000000
5.419617 36.130753 323.000000
5.402838 36.543591 322.000000
5.402838 37.068283 322.000000
5.402838 37.592979 322.000000
5.402838 38.117676 322.000000
5.402838 38.642368 322.000000
5.402838 39.167065 322.000000
5.402838 39.691761 322.000000
5.402838 40.216454 322.000000
5.402838 40.741150 322.000000
5.402838 41.265842 322.000000
5.419617 41.920322 323.000000
5.419617 42.446648 323.000000
5.419617 42.972973 323.000000
5.419617 43.499294 323.000000
5.419617 44.025620 323.000000
5.419617 44.551945 323.000000
5.419617 45.078270 323.000000
5.419617 45.604591 323.000000
5.419617 46.130917 323.000000
5.419617 46.657242 323.000000
5.419617 47.183567 323.000000
5.419617 47.709892 323.000000
5.419617 48.236214 323.000000
5.419617 48.762539 323.000000
5.419617 49.288864 323.000000
5.419617 49.815189 323.000000
5.419617 50.341515 323.000000
5.419617 50.867836 323.000000
5.419617 51.394161 323.000000
5.419617 51.920486 323.000000
5.419617 52.446812 323.000000
5.419617 52.973133 323.000000
5.419617 53.499462 323.000000
5.419617 54.025787 323.000000
5.419617 54.552113 323.000000
5.419617 55.078434 323.000000
5.419617 55.604759 323.000000
5.419617 56.131084 323.000000
5.436396 56.832813 324.000000
5.436396 57.360767 324.000000
5.436396 57.888721 324.000000
5.436396 58.416676 324.000000
5.436396 58.944630 324.000000
5.436396 59.472584 324.000000
5.453175 60.185726 325.000000
5.453175 60.715309 325.000000
5.453175 61.244892 325.000000
5.453175 61.774475 325.000000
5.436396 62.112354 324.000000
5.436396 62.640308 324.000000
5.453175 63.363228 325.000000
5.453175 63.892811 325.000000
5.453175 64.422394 325.000000
5.453175 64.951981 325.000000
5.466598 65.642746 325.799988
5.466598 66.173630 325.799988
5.470793 66.755707 326.049988
5.474741 67.335556 326.285278
5.474741 67.867233 326.285278
5.477538 68.433853 326.451965
5.479304 68.988037 326.557220
5.479304 69.520157 326.557220
5.503512 70.361778 328.000000
5.503512 70.896248 328.000000
5.503512 71.430725 328.000000
5.520291 72.184601 329.000000
5.520291 72.720703 329.000000
5.520291 73.256805 329.000000
5.520291 73.792908 329.000000
5.503512 74.103081 328.000000
5.503512 74.637558 328.000000
5.503512 75.172028 328.000000
5.503512 75.706497 328.000000
5.486733 76.008530 327.000000
5.486733 76.541367 327.000000
5.486733 77.074211 327.000000
5.486733 77.607056 327.000000
5.486733 78.139893 327.000000
5.486733 78.672737 327.000000
5.469954 78.963364 326.000000
5.469954 79.494576 326.000000
5.469954 80.025795 326.000000
5.469954 80.557007 326.000000
5.469954 81.088219 326.000000
5.469954 81.619431 326.000000
5.469954 82.150642 326.000000
5.469954 82.681854 326.000000
5.453175 82.957809 325.000000
5.453175 83.487396 325.000000
5.453175 84.016975 325.000000
5.453175 84.546562 325.000000
5.453175 85.076149 325.000000
5.453175 85.605728 325.000000
5.436396 85.870277 324.000000
5.436396 86.398232 324.000000
5.436396 86.926186 324.000000
5.436396 87.454140 324.000000
5.419617 87.710548 323.000000
5.419617 88.236877 323.000000
5.419617 88.763199 323.000000
5.402838 89.013084 322.000000
5.386059 89.259705 321.000000
5.386059 89.782776 321.000000
5.386059 90.305840 321.000000
5.369280 90.545952 320.000000
5.369280 91.067390 320.000000
5.369280 91.588821 320.000000
5.369280 92.110260 320.000000
5.369280 92.631699 320.000000
5.352501 92.862030 319.000000
5.352501 93.381836 319.000000
5.352501 93.901642 319.000000
5.352501 94.421448 319.000000
5.335722 94.643631 318.000000
5.335722 95.161804 318.000000
5.335722 95.679985 318.000000
5.318943 95.895653 317.000000
5.318943 96.412193 317.000000
5.318943 96.928741 317.000000
5.318943 97.445290 317.000000
5.318943 97.961838 317.000000
5.302164 98.167732 316.000000
5.302164 98.682655 316.000000
5.302164 99.197571 316.000000
5.285385 99.396942 315.000000
5.268606 99.593048 314.000000
5.268606 100.104713 314.000000
5.268606 100.616371 314.000000
5.268606 101.128029 314.000000
5.268606 101.639687 314.000000
5.268606 102.151344 314.000000
5.251827 102.336060 313.000000
5.251827 102.846085 313.000000
5.251827 103.356117 313.000000
5.251827 103.866150 313.000000
5.235048 104.042702 312.000000
5.235048 104.551102 312.000000
5.235048 105.059502 312.000000
5.218269 105.229546 311.000000
5.218269 105.736313 311.000000
5.218269 106.243088 311.000000
5.218269 106.749855 311.000000
5.218269 107.256622 311.000000
5.218269 107.763397 311.000000
5.218269 108.270164 311.000000
5.218269 108.776939 311.000000
5.218269 109.283707 311.000000
5.218269 109.790482 311.000000
5.218269 110.297249 311.000000
5.201490 110.447739 310.000000
5.201490 110.952873 310.000000
5.201490 111.458015 310.000000
5.201490 111.963158 310.000000
5.201490 112.468300 310.000000
5.201490 112.973442 310.000000
5.184711 113.112518 309.000000
5.184711 113.616028 309.000000
5.184711 114.119545 309.000000
5.184711 114.623055 309.000000
5.167932 114.753990 308.000000
5.167932 115.255867 308.000000
5.167932 115.757751 308.000000
5.167932 116.259636 308.000000
5.167932 116.761513 308.000000
5.167932 117.263397 308.000000
5.167932 117.765282 308.000000
5.167932 118.267159 308.000000
5.167932 118.769043 308.000000
5.167932 119.270927 308.000000
5.167932 119.772804 308.000000
5.167932 120.274689 308.000000
5.167932 120.776573 308.000000
5.167932 121.278450 308.000000
5.167932 121.780334 308.000000
5.151153 121.885208 307.000000
5.151153 122.385460 307.000000
5.151153 122.885712 307.000000
5.151153 123.385963 307.000000
5.151153 123.886223 307.000000
5.151153 124.386475 307.000000
5.151153 124.886726 307.000000
5.151153 125.386978 307.000000
5.151153 125.887230 307.000000
5.151153 126.387482 307.000000
5.134374 126.474419 306.000000
5.134374 126.973038 306.000000
5.134374 127.471664 306.000000
5.134374 127.970284 306.000000
5.134374 128.468918 306.000000
5.134374 128.967529 306.000000
5.134374 129.466156 306.000000
5.134374 129.964783 306.000000
5.134374 130.463409 306.000000
5.134374 130.962021 306.000000
5.134374 131.460648 306.000000
5.134374 131.959274 306.000000
5.134374 132.457901 306.000000
5.134374 132.956512 306.000000
5.134374 133.455139 306.000000
5.117595 133.516006 305.000000
5.117595 134.013000 305.000000
5.117595 134.509995 305.000000
5.117595 135.006989 305.000000
5.117595 135.503983 305.000000
5.117595 136.000977 305.000000
5.117595 136.497971 305.000000
5.117595 136.994965 305.000000
5.117595 137.491959 305.000000
5.117595 137.988953 305.000000
5.100816 138.031891 304.000000
5.100816 138.527252 304.000000
5.100816 139.022614 304.000000
5.100816 139.517975 304.000000
5.100816 140.013351 304.000000
5.100816 140.508713 304.000000
5.100816 141.004074 304.000000
5.100816 141.499435 304.000000
5.100816 141.994797 304.000000
5.100816 142.490158 304.000000
5.100816 142.985535 304.000000
5.100816 143.480896 304.000000
5.100816 143.976257 304.000000
5.100816 144.471619 304.000000
5.100816 144.966980 304.000000
5.084037 144.983856 303.000000
5.084037 145.477585 303.000000
5.084037 145.971329 303.000000
5.084037 146.465057 303.000000
5.067258 146.473785 302.000000
5.067258 146.965881 302.000000
5.067258 147.457993 302.000000
5.067258 147.950089 302.000000
5.067258 148.442200 302.000000
5.067258 148.934311 302.000000
5.067258 149.426407 302.000000
5.067258 149.918518 302.000000
5.050479 149.912567 301.000000
5.050479 150.403046 301.000000
5.050479 150.893524 301.000000
5.050479 151.384003 301.000000
5.033700 151.369919 300.000000
5.033700 151.858765 300.000000
5.033700 152.347610 300.000000
5.033700 152.836456 300.000000
5.033700 153.325302 300.000000
5.033700 153.814148 300.000000
5.033700 154.302994 300.000000
5.033700 154.791840 300.000000
5.016921 154.763077 299.000000
5.016921 155.250305 299.000000
5.016921 155.737518 299.000000
5.000142 155.702240 298.000000
5.000142 156.187820 298.000000
5.000142 156.673416 298.000000
5.000142 157.158997 298.000000
4.983363 157.115585 297.000000
4.983363 157.599533 297.000000
4.983363 158.083496 297.000000
4.983363 158.567444 297.000000
4.983363 159.051407 297.000000
4.983363 159.535370 297.000000
4.983363 160.019318 297.000000
4.983363 160.503281 297.000000
4.983363 160.987244 297.000000
4.966584 160.927521 296.000000
4.966584 161.409851 296.000000
4.966584 161.892181 296.000000
4.966584 162.374512 296.000000
4.949805 162.306641 295.000000
4.949805 162.787338 295.000000
4.949805 163.268036 295.000000
4.949805 163.748734 295.000000
4.949805 164.229431 295.000000
4.949805 164.710129 295.000000
4.933026 164.630875 294.000000
4.933026 165.109940 294.000000
4.933026 165.589020 294.000000
4.933026 166.068085 294.000000
4.933026 166.547150 294.000000
4.933026 167.026215 294.000000
4.916247 166.935547 293.000000
4.916247 167.412979 293.000000
4.916247 167.890427 293.000000
4.899468 167.793228 292.000000
4.899468 168.269043 292.000000
4.899468 168.744843 292.000000
4.899468 169.220657 292.000000
4.899468 169.696472 292.000000
4.899468 170.172272 292.000000
4.899468 170.648087 292.000000
4.882689 170.537857 291.000000
4.882689 171.012039 291.000000
4.882689 171.486221 291.000000
4.882689 171.960403 291.000000
4.882689 172.434586 291.000000
4.865910 172.314575 290.000000
4.865910 172.787125 290.000000
4.865910 173.259674 290.000000
4.865910 173.732224 290.000000
6.755641 3.377214 367.000000
6.755641 3.975236 367.000000
6.755641 4.573258 367.000000
6.755641 5.171279 367.000000
6.755641 5.769301 367.000000
6.755641 6.367323 367.000000
6.755641 6.965345 367.000000
6.755641 7.563366 367.000000
6.755641 8.161388 367.000000
6.755641 8.759410 367.000000
6.749505 9.348933 366.666656
6.749505 9.946411 366.666656
6.748389 10.542148 366.606049
6.746856 11.136996 366.522736
6.746856 11.734240 366.522736
6.746168 12.330228 366.485382
6.746168 12.927411 366.485382
6.746168 13.524594 366.485382
5.945701 12.446156 323.000000
5.945701 12.972480 323.000000
5.945701 13.498805 323.000000
5.945701 14.025129 323.000000
5.945701 14.551455 323.000000
5.945701 15.077779 323.000000
5.945701 15.604103 323.000000
5.943655 16.124876 322.888885
5.943655 16.651022 322.888885
5.942168 17.172865 322.808075
6.290713 18.737026 341.742767
6.290713 19.293890 341.742767
6.290713 19.850758 341.742767
6.134762 19.901703 333.270721
6.134762 20.444763 333.270721
6.134762 20.987823 333.270721
5.945701 20.867348 323.000000
5.945701 21.393671 323.000000
5.945701 21.919996 323.000000
5.945701 22.446320 323.000000
5.945701 22.972645 323.000000
5.945701 23.498970 323.000000
5.927293 23.950912 322.000000
5.927293 24.475607 322.000000
5.927293 25.000301 322.000000
5.927293 25.524996 322.000000
5.927293 26.049692 322.000000
5.927293 26.574387 322.000000
5.927293 27.099081 322.000000
5.927293 27.623775 322.000000
5.927293 28.148472 322.000000
5.927293 28.673166 322.000000
5.927293 29.197861 322.000000
5.927293 29.722555 322.000000
5.927293 30.247252 322.000000
5.927293 30.771946 322.000000
5.927293 31.296640 322.000000
5.927293 31.821335 322.000000
5.927293 32.346031 322.000000
5.927293 32.870724 322.000000
5.927293 33.395420 322.000000
5.927293 33.920116 322.000000
5.927293 34.444809 322.000000
5.927293 34.969505 322.000000
5.927293 35.494202 322.000000
5.927293 36.018894 322.000000
5.927293 36.543591 322.000000
5.927293 37.068283 322.000000
5.927293 37.592979 322.000000
5.927293 38.117676 322.000000
5.927293 38.642368 322.000000
5.927293 39.167065 322.000000
5.927293 39.691761 322.000000
5.927293 40.216454 322.000000
5.927293 40.741150 322.000000
5.927293 41.265842 322.000000
5.927293 41.790539 322.000000
5.927293 42.315235 322.000000
5.927293 42.839928 322.000000
5.927293 43.364624 322.000000
5.927293 43.889320 322.000000
5.927293 44.414013 322.000000
5.927293 44.938709 322.000000
5.927293 45.463406 322.000000
5.927293 45.988098 322.000000
5.927293 46.512794 322.000000
5.927293 47.037487 322.000000
5.927293 47.562183 322.000000
5.927293 48.086880 322.000000
5.927293 48.611572 322.000000
5.927293 49.136269 322.000000
5.927293 49.660965 322.000000
5.945701 50.341515 323.000000
5.945701 50.867836 323.000000
5.945701 51.394161 323.000000
5.945701 51.920486 323.000000
5.945701 52.446812 323.000000
5.945701 52.973133 323.000000
5.945701 53.499462 323.000000
5.945701 54.025787 323.000000
5.945701 54.552113 323.000000
5.945701 55.078434 323.000000
5.945701 55.604759 323.000000
5.945701 56.131084 323.000000
5.945701 56.657410 323.000000
5.945701 57.183735 323.000000
5.945701 57.710056 323.000000
5.964108 58.416676 324.000000
5.964108 58.944630 324.000000
5.964108 59.472584 324.000000
5.964108 60.000538 324.000000
5.964108 60.528492 324.000000
5.964108 61.056446 324.000000
5.964108 61.584400 324.000000
5.964108 62.112354 324.000000
5.964108 62.640308 324.000000
5.964108 63.168262 324.000000
5.982516 63.892811 325.000000
5.982516 64.422394 325.000000
5.982516 64.951981 325.000000
5.982516 65.481560 325.000000
5.982516 66.011147 325.000000
5.982516 66.540726 325.000000
5.982516 67.070313 325.000000
5.982516 67.599892 325.000000
6.000924 68.339111 326.000000
6.000924 68.870323 326.000000
6.000924 69.401535 326.000000
6.019332 70.147263 327.000000
6.037739 70.896248 328.000000
6.037739 71.430725 328.000000
6.037739 71.965195 328.000000
6.037739 72.499664 328.000000
6.037739 73.034142 328.000000
6.037739 73.568611 328.000000
6.037739 74.103081 328.000000
6.019332 74.409996 327.000000
6.019332 74.942841 327.000000
6.019332 75.475685 327.000000
6.019332 76.008530 327.000000
6.019332 76.541367 327.000000
6.019332 77.074211 327.000000
6.019332 77.607056 327.000000
6.019332 78.139893 327.000000
6.000924 78.432152 326.000000
6.000924 78.963364 326.000000
6.000924 79.494576 326.000000
6.000924 80.025795 326.000000
6.000924 80.557007 326.000000
6.000924 81.088219 326.000000
6.000924 81.619431 326.000000
5.982516 81.898643 325.000000
5.982516 82.428230 325.000000
5.982516 82.957809 325.000000
5.964108 83.230507 324.000000
5.964108 83.758461 324.000000
5.964108 84.286415 324.000000
5.964108 84.814369 324.000000
5.964108 85.342323 324.000000
5.964108 85.870277 324.000000
5.945701 86.131577 323.000000
5.945701 86.657898 323.000000
5.945701 87.184227 323.000000
5.945701 87.710548 323.000000
5.945701 88.236877 323.000000
5.945701 88.763199 323.000000
5.927293 89.013084 322.000000
5.908885 89.259705 321.000000
5.908885 89.782776 321.000000
5.908885 90.305840 321.000000
5.890478 90.545952 320.000000
5.890478 91.067390 320.000000
5.890478 91.588821 320.000000
5.890478 92.110260 320.000000
5.890478 92.631699 320.000000
5.872070 92.862030 319.000000
5.872070 93.381836 319.000000
5.872070 93.901642 319.000000
5.853662 94.125450 318.000000
5.853662 94.643631 318.000000
5.853662 95.161804 318.000000
5.835254 95.379105 317.000000
5.835254 95.895653 317.000000
5.835254 96.412193 317.000000
5.835254 96.928741 317.000000
5.835254 97.445290 317.000000
5.835254 97.961838 317.000000
5.816846 98.167732 316.000000
5.816846 98.682655 316.000000
5.816846 99.197571 316.000000
5.798439 99.396942 315.000000
5.780031 99.593048 314.000000
5.780031 100.104713 314.000000
5.780031 100.616371 314.000000
5.780031 101.128029 314.000000
5.780031 101.639687 314.000000
5.780031 102.151344 314.000000
5.761623 102.336060 313.000000
5.761623 102.846085 313.000000
5.761623 103.356117 313.000000
5.761623 103.866150 313.000000
5.743216 104.042702 312.000000
5.743216 104.551102 312.000000
5.743216 105.059502 312.000000
5.724808 105.229546 311.000000
5.724808 105.736313 311.000000
5.724808 106.243088 311.000000
5.724808 106.749855 311.000000
5.724808 107.256622 311.000000
5.724808 107.763397 311.000000
5.724808 108.270164 311.000000
5.724808 108.776939 311.000000
5.724808 109.283707 311.000000
5.724808 109.790482 311.000000
5.724808 110.297249 311.000000
5.724808 110.804024 311.000000
5.724808 111.310791 311.000000
5.724808 111.817558 311.000000
5.706400 111.963158 310.000000
5.706400 112.468300 310.000000
5.706400 112.973442 310.000000
5.706400 113.478584 310.000000
5.687992 113.616028 309.000000
5.687992 114.119545 309.000000
5.687992 114.623055 309.000000
5.687992 115.126564 309.000000
5.687992 115.630081 309.000000
5.687992 116.133591 309.000000
5.687992 116.637100 309.000000
5.687992 117.140610 309.000000
5.687992 117.644127 309.000000
5.687992 118.147636 309.000000
5.669585 118.267159 308.000000
5.669585 118.769043 308.000000
5.669585 119.270927 308.000000
5.669585 119.772804 308.000000
5.669585 120.274689 308.000000
5.669585 120.776573 308.000000
5.669585 121.278450 308.000000
5.669585 121.780334 308.000000
5.669585 122.282219 308.000000
5.669585 122.784103 308.000000
5.669585 123.285980 308.000000
5.651177 123.385963 307.000000
5.651177 123.886223 307.000000
5.651177 124.386475 307.000000
5.651177 124.886726 307.000000
5.651177 125.386978 307.000000
5.651177 125.887230 307.000000
5.651177 126.387482 307.000000
5.651177 126.887733 307.000000
5.651177 127.387985 307.000000
5.651177 127.888237 307.000000
5.651177 128.388489 307.000000
5.651177 128.888748 307.000000
5.651177 129.388992 307.000000
5.651177 129.889252 307.000000
5.651177 130.389496 307.000000
5.632769 130.463409 306.000000
5.632769 130.962021 306.000000
5.632769 131.460648 306.000000
5.632769 131.959274 306.000000
5.632769 132.457901 306.000000
5.632769 132.956512 306.000000
5.632769 133.455139 306.000000
5.632769 133.953766 306.000000
5.632769 134.452393 306.000000
5.632769 134.951004 306.000000
5.614361 135.006989 305.000000
5.614361 135.503983 305.000000
5.614361 136.000977 305.000000
5.614361 136.497971 305.000000
5.614361 136.994965 305.000000
5.614361 137.491959 305.000000
5.614361 137.988953 305.000000
5.614361 138.485947 305.000000
5.614361 138.982941 305.000000
5.614361 139.479935 305.000000
5.614361 139.976929 305.000000
5.614361 140.473923 305.000000
5.595953 140.508713 304.000000
5.595953 141.004074 304.000000
5.595953 141.499435 304.000000
5.595953 141.994797 304.000000
5.595953 142.490158 304.000000
5.595953 142.985535 304.000000
5.595953 143.480896 304.000000
5.595953 143.976257 304.000000
5.595953 144.471619 304.000000
5.595953 144.966980 304.000000
5.577546 144.983856 303.000000
5.577546 145.477585 303.000000
5.577546 145.971329 303.000000
5.577546 146.465057 303.000000
5.559138 146.473785 302.000000
5.559138 146.965881 302.000000
5.559138 147.457993 302.000000
5.559138 147.950089 302.000000
5.559138 148.442200 302.000000
5.559138 148.934311 302.000000
5.559138 149.426407 302.000000
5.559138 149.918518 302.000000
5.540730 149.912567 301.000000
5.540730 150.403046 301.000000
5.540730 150.893524 301.000000
5.540730 151.384003 301.000000
5.522323 151.369919 300.000000
5.522323 151.858765 300.000000
5.522323 152.347610 300.000000
5.522323 152.836456 300.000000
5.522323 153.325302 300.000000
5.522323 153.814148 300.000000
5.522323 154.302994 300.000000
5.522323 154.791840 300.000000
5.503915 154.763077 299.000000
5.503915 155.250305 299.000000
5.503915 155.737518 299.000000
5.485507 155.702240 298.000000
5.485507 156.187820 298.000000
5.485507 156.673416 298.000000
5.485507 157.158997 298.000000
5.467099 157.115585 297.000000
5.467099 157.599533 297.000000
5.467099 158.083496 297.000000
5.467099 158.567444 297.000000
5.467099 159.051407 297.000000
5.467099 159.535370 297.000000
5.467099 160.019318 297.000000
5.467099 160.503281 297.000000
5.467099 160.987244 297.000000
5.448692 160.927521 296.000000
5.448692 161.409851 296.000000
5.448692 161.892181 296.000000
5.448692 162.374512 296.000000
5.430284 162.306641 295.000000
5.430284 162.787338 295.000000
5.430284 163.268036 295.000000
5.430284 163.748734 295.000000
5.430284 164.229431 295.000000
5.411876 164.151810 294.000000
5.411876 164.630875 294.000000
5.411876 165.109940 294.000000
5.411876 165.589020 294.000000
5.393468 165.503220 293.000000
5.393468 165.980667 293.000000
5.393468 166.458099 293.000000
5.393468 166.935547 293.000000
5.393468 167.412979 293.000000
5.375061 167.317413 292.000000
5.375061 167.793228 292.000000
5.375061 168.269043 292.000000
5.375061 168.744843 292.000000
5.375061 169.220657 292.000000
5.375061 169.696472 292.000000
5.375061 170.172272 292.000000
5.356653 170.063675 291.000000
5.356653 170.537857 291.000000
5.356653 171.012039 291.000000
5.356653 171.486221 291.000000
5.338245 171.369461 290.000000
5.338245 171.842026 290.000000
5.338245 172.314575 290.000000
5.338245 172.787125 290.000000
5.338245 173.259674 290.000000
5.338245 173.732224 290.000000
7.353390 3.377214 367.000000
7.353390 3.975236 367.000000
7.353390 4.573258 367.000000
7.353390 5.171279 367.000000
7.353390 5.769301 367.000000
7.353390 6.367323 367.000000
7.353390 6.965345 367.000000
7.353390 7.563366 367.000000
7.353390 8.161388 367.000000
7.353390 8.759410 367.000000
7.346711 9.348933 366.666656
7.346711 9.946411 366.666656
7.345496 10.542148 366.606049
7.343827 11.136996 366.522736
7.343827 11.734240 366.522736
7.343079 12.330228 366.485382
7.343079 12.927411 366.485382
7.343079 13.524594 366.485382
7.325338 14.087662 365.600006
7.325338 14.683401 365.600006
7.325338 15.279142 365.600006
7.218644 15.643662 360.274994
7.062789 15.880295 352.496429
7.062789 16.454685 352.496429
6.471784 15.604103 323.000000
6.469558 16.124876 322.888885
6.469558 16.651022 322.888885
6.467939 17.172865 322.808075
6.847323 18.737026 341.742767
6.847323 19.293890 341.742767
6.847323 19.850758 341.742767
6.677573 19.901703 333.270721
6.677573 20.444763 333.270721
6.677573 20.987823 333.270721
6.471784 20.867348 323.000000
6.471784 21.393671 323.000000
6.471784 21.919996 323.000000
6.471784 22.446320 323.000000
6.471784 22.972645 323.000000
6.471784 23.498970 323.000000
6.451747 23.950912 322.000000
6.451747 24.475607 322.000000
6.451747 25.000301 322.000000
6.451747 25.524996 322.000000
6.451747 26.049692 322.000000
6.451747 26.574387 322.000000
6.451747 27.099081 322.000000
6.451747 27.623775 322.000000
6.451747 28.148472 322.000000
6.451747 28.673166 322.000000
6.451747 29.197861 322.000000
6.451747 29.722555 322.000000
6.431711 30.153313 321.000000
6.451747 30.771946 322.000000
6.451747 31.296640 322.000000
6.451747 31.821335 322.000000
6.451747 32.346031 322.000000
6.451747 32.870724 322.000000
6.451747 33.395420 322.000000
6.451747 33.920116 322.000000
6.451747 34.444809 322.000000
6.451747 34.969505 322.000000
6.431711 35.383968 321.000000
6.431711 35.907032 321.000000
6.431711 36.430099 321.000000
6.431711 36.953163 321.000000
6.431711 37.476231 321.000000
6.431711 37.999294 321.000000
6.431711 38.522362 321.000000
6.431711 39.045425 321.000000
6.431711 39.568493 321.000000
6.431711 40.091557 321.000000
6.431711 40.614624 321.000000
6.431711 41.137688 321.000000
6.431711 41.660751 321.000000
6.451747 42.315235 322.000000
6.451747 42.839928 322.000000
6.451747 43.364624 322.000000
6.451747 43.889320 322.000000
6.451747 44.414013 322.000000
6.451747 44.938709 322.000000
6.451747 45.463406 322.000000
6.451747 45.988098 322.000000
6.451747 46.512794 322.000000
6.451747 47.037487 322.000000
6.451747 47.562183 322.000000
6.451747 48.086880 322.000000
6.451747 48.611572 322.000000
6.451747 49.136269 322.000000
6.451747 49.660965 322.000000
6.471784 50.341515 323.000000
6.471784 50.867836 323.000000
6.471784 51.394161 323.000000
6.471784 51.920486 323.000000
6.471784 52.446812 323.000000
6.471784 52.973133 323.000000
6.471784 53.499462 323.000000
6.471784 54.025787 323.000000
6.471784 54.552113 323.000000
6.471784 55.078434 323.000000
6.471784 55.604759 323.000000
6.471784 56.131084 323.000000
6.471784 56.657410 323.000000
6.471784 57.183735 323.000000
6.471784 57.710056 323.000000
6.491821 58.416676 324.000000
6.491821 58.944630 324.000000
6.491821 59.472584 324.000000
6.491821 60.000538 324.000000
6.491821 60.528492 324.000000
6.491821 61.056446 324.000000
6.491821 61.584400 324.000000
6.491821 62.112354 324.000000
6.491821 62.640308 324.000000
6.491821 63.168262 324.000000
6.511857 63.892811 325.000000
6.511857 64.422394 325.000000
6.511857 64.951981 325.000000
6.511857 65.481560 325.000000
6.511857 66.011147 325.000000
6.511857 66.540726 325.000000
6.511857 67.070313 325.000000
6.511857 67.599892 325.000000
6.531894 68.339111 326.000000
6.531894 68.870323 326.000000
6.531894 69.401535 326.000000
6.551930 70.147263 327.000000
6.571967 70.896248 328.000000
6.571967 71.430725 328.000000
6.571967 71.965195 328.000000
6.571967 72.499664 328.000000
6.571967 73.034142 328.000000
6.571967 73.568611 328.000000
6.571967 74.103081 328.000000
6.551930 74.409996 327.000000
6.551930 74.942841 327.000000
6.551930 75.475685 327.000000
6.551930 76.008530 327.000000
6.551930 76.541367 327.000000
6.551930 77.074211 327.000000
6.551930 77.607056 327.000000
6.551930 78.139893 327.000000
6.531894 78.432152 326.000000
6.531894 78.963364 326.000000
6.531894 79.494576 326.000000
6.531894 80.025795 326.000000
6.531894 80.557007 326.000000
6.531894 81.088219 326.000000
6.531894 81.619431 326.000000
6.511857 81.898643 325.000000
6.511857 82.428230 325.000000
6.511857 82.957809 325.000000
6.491821 83.230507 324.000000
6.491821 83.758461 324.000000
6.491821 84.286415 324.000000
6.491821 84.814369 324.000000
6.491821 85.342323 324.000000
6.491821 85.870277 324.000000
6.471784 86.131577 323.000000
6.471784 86.657898 323.000000
6.471784 87.184227 323.000000
6.471784 87.710548 323.000000
6.471784 88.236877 323.000000
6.451747 88.488388 322.000000
6.451747 89.013084 322.000000
6.431711 89.259705 321.000000
6.431711 89.782776 321.000000
6.431711 90.305840 321.000000
6.411675 90.545952 320.000000
6.411675 91.067390 320.000000
6.411675 91.588821 320.000000
6.391638 91.822418 319.000000
6.391638 92.342224 319.000000
6.391638 92.862030 319.000000
6.391638 93.381836 319.000000
6.391638 93.901642 319.000000
6.371602 94.125450 318.000000
6.351565 94.346008 317.000000
6.351565 94.862556 317.000000
6.351565 95.379105 317.000000
6.351565 95.895653 317.000000
6.351565 96.412193 317.000000
6.351565 96.928741 317.000000
6.331529 97.137901 316.000000
6.331529 97.652817 316.000000
6.331529 98.167732 316.000000
6.331529 98.682655 316.000000
6.331529 99.197571 316.000000
6.311492 99.396942 315.000000
6.291456 99.593048 314.000000
6.291456 100.104713 314.000000
6.291456 100.616371 314.000000
6.291456 101.128029 314.000000
6.291456 101.639687 314.000000
6.291456 102.151344 314.000000
6.271419 102.336060 313.000000
6.271419 102.846085 313.000000
6.271419 103.356117 313.000000
6.271419 103.866150 313.000000
6.251383 104.042702 312.000000
6.251383 104.551102 312.000000
6.251383 105.059502 312.000000
6.251383 105.567902 312.000000
6.251383 106.076302 312.000000
6.231347 106.243088 311.000000
6.231347 106.749855 311.000000
6.231347 107.256622 311.000000
6.231347 107.763397 311.000000
6.231347 108.270164 311.000000
6.231347 108.776939 311.000000
6.231347 109.283707 311.000000
6.231347 109.790482 311.000000
6.231347 110.297249 311.000000
6.231347 110.804024 311.000000
6.231347 111.310791 311.000000
6.231347 111.817558 311.000000
6.211310 111.963158 310.000000
6.211310 112.468300 310.000000
6.211310 112.973442 310.000000
6.211310 113.478584 310.000000
6.191273 113.616028 309.000000
6.191273 114.119545 309.000000
6.191273 114.623055 309.000000
6.191273 115.126564 309.000000
6.191273 115.630081 309.000000
6.191273 116.133591 309.000000
6.191273 116.637100 309.000000
6.191273 117.140610 309.000000
6.191273 117.644127 309.000000
6.191273 118.147636 309.000000
6.171237 118.267159 308.000000
6.171237 118.769043 308.000000
6.171237 119.270927 308.000000
6.171237 119.772804 308.000000
6.171237 120.274689 308.000000
6.171237 120.776573 308.000000
6.171237 121.278450 308.000000
6.171237 121.780334 308.000000
6.171237 122.282219 308.000000
6.171237 122.784103 308.000000
6.171237 123.285980 308.000000
6.151201 123.385963 307.000000
6.151201 123.886223 307.000000
6.151201 124.386475 307.000000
6.151201 124.886726 307.000000
6.151201 125.386978 307.000000
6.151201 125.887230 307.000000
6.151201 126.387482 307.000000
6.151201 126.887733 307.000000
6.151201 127.387985 307.000000
6.151201 127.888237 307.000000
6.151201 128.388489 307.000000
6.151201 128.888748 307.000000
6.151201 129.388992 307.000000
6.151201 129.889252 307.000000
6.151201 130.389496 307.000000
6.131164 130.463409 306.000000
6.131164 130.962021 306.000000
6.131164 131.460648 306.000000
6.131164 131.959274 306.000000
6.131164 132.457901 306.000000
6.131164 132.956512 306.000000
6.131164 133.455139 306.000000
6.131164 133.953766 306.000000
6.131164 134.452393 306.000000
6.131164 134.951004 306.000000
6.131164 135.449631 306.000000
6.131164 135.948257 306.000000
6.131164 136.446884 306.000000
6.111127 136.497971 305.000000
6.111127 136.994965 305.000000
6.111127 137.491959 305.000000
6.111127 137.988953 305.000000
6.111127 138.485947 305.000000
6.111127 138.982941 305.000000
6.111127 139.479935 305.000000
6.111127 139.976929 305.000000
6.111127 140.473923 305.000000
6.111127 140.970917 305.000000
6.091091 141.004074 304.000000
6.091091 141.499435 304.000000
6.091091 141.994797 304.000000
6.091091 142.490158 304.000000
6.091091 142.985535 304.000000
6.091091 143.480896 304.000000
6.091091 143.976257 304.000000
6.091091 144.471619 304.000000
6.091091 144.966980 304.000000
6.091091 145.462357 304.000000
6.071054 145.477585 303.000000
6.071054 145.971329 303.000000
6.071054 146.465057 303.000000
6.051018 146.473785 302.000000
6.051018 146.965881 302.000000
6.051018 147.457993 302.000000
6.051018 147.950089 302.000000
6.051018 148.442200 302.000000
6.051018 148.934311 302.000000
6.051018 149.426407 302.000000
6.051018 149.918518 302.000000
6.030982 149.912567 301.000000
6.030982 150.403046 301.000000
6.030982 150.893524 301.000000
6.030982 151.384003 301.000000
6.010945 151.369919 300.000000
6.010945 151.858765 300.000000
6.010945 152.347610 300.000000
6.010945 152.836456 300.000000
6.010945 153.325302 300.000000
6.010945 153.814148 300.000000
5.990909 153.788651 299.000000
5.990909 154.275864 299.000000
5.990909 154.763077 299.000000
5.990909 155.250305 299.000000
5.990909 155.737518 299.000000
5.970872 155.702240 298.000000
5.970872 156.187820 298.000000
5.970872 156.673416 298.000000
5.970872 157.158997 298.000000
5.950836 157.115585 297.000000
5.950836 157.599533 297.000000
5.950836 158.083496 297.000000
5.950836 158.567444 297.000000
5.950836 159.051407 297.000000
5.950836 159.535370 297.000000
5.950836 160.019318 297.000000
5.930799 159.962860 296.000000
5.930799 160.445190 296.000000
5.930799 160.927521 296.000000
5.930799 161.409851 296.000000
5.930799 161.892181 296.000000
5.910763 161.825943 295.000000
5.910763 162.306641 295.000000
5.910763 162.787338 295.000000
5.910763 163.268036 295.000000
5.910763 163.748734 295.000000
5.910763 164.229431 295.000000
5.890727 164.151810 294.000000
5.890727 164.630875 294.000000
5.890727 165.109940 294.000000
5.890727 165.589020 294.000000
5.870689 165.503220 293.000000
5.870689 165.980667 293.000000
5.870689 166.458099 293.000000
5.870689 166.935547 293.000000
5.870689 167.412979 293.000000
5.850653 167.317413 292.000000
5.850653 167.793228 292.000000
5.850653 168.269043 292.000000
5.850653 168.744843 292.000000
5.850653 169.220657 292.000000
5.850653 169.696472 292.000000
5.850653 170.172272 292.000000
5.830617 170.063675 291.000000
5.830617 170.537857 291.000000
5.830617 171.012039 291.000000
5.830617 171.486221 291.000000
5.810580 171.369461 290.000000
5.810580 171.842026 290.000000
5.810580 172.314575 290.000000
5.810580 172.787125 290.000000
5.810580 173.259674 290.000000
7.951138 3.377214 367.000000
7.951138 3.975236 367.000000
7.951138 4.573258 367.000000
7.951138 5.171279 367.000000
7.951138 5.769301 367.000000
7.951138 6.367323 367.000000
7.951138 6.965345 367.000000
7.951138 7.563366 367.000000
7.951138 8.161388 367.000000
7.951138 8.759410 367.000000
7.943916 9.348933 366.666656
7.943916 9.946411 366.666656
7.942603 10.542148 366.606049
7.940797 11.136996 366.522736
7.940797 11.734240 366.522736
7.939989 12.330228 366.485382
7.939989 12.927411 366.485382
7.939989 13.524594 366.485382
7.920806 14.087662 365.600006
7.920806 14.683401 365.600006
7.920806 15.279142 365.600006
7.805439 15.643662 360.274994
7.636915 15.880295 352.496429
7.636915 16.454685 352.496429
6.997868 15.604103 323.000000
6.995460 16.124876 322.888885
6.995460 16.651022 322.888885
6.993710 17.172865 322.808075
7.403934 18.737026 341.742767
7.403934 19.293890 341.742767
7.403934 19.850758 341.742767
7.114301 19.609303 328.374207
7.114301 20.144382 328.374207
6.997868 20.341022 323.000000
6.997868 20.867348 323.000000
6.997868 21.393671 323.000000
6.997868 21.919996 323.000000
6.997868 22.446320 323.000000
6.997868 22.972645 323.000000
6.976202 23.426216 322.000000
6.976202 23.950912 322.000000
6.976202 24.475607 322.000000
6.976202 25.000301 322.000000
6.954537 25.445726 321.000000
6.954537 25.968792 321.000000
6.954537 26.491858 321.000000
6.954537 27.014921 321.000000
6.954537 27.537987 321.000000
6.954537 28.061052 321.000000
6.954537 28.584118 321.000000
6.954537 29.107183 321.000000
6.954537 29.630247 321.000000
6.954537 30.153313 321.000000
6.976202 30.771946 322.000000
6.976202 31.296640 322.000000
6.976202 31.821335 322.000000
6.976202 32.346031 322.000000
6.976202 32.870724 322.000000
6.976202 33.395420 322.000000
6.976202 33.920116 322.000000
6.976202 34.444809 322.000000
6.976202 34.969505 322.000000
6.954537 35.383968 321.000000
6.954537 35.907032 321.000000
6.954537 36.430099 321.000000
6.954537 36.953163 321.000000
6.954537 37.476231 321.000000
6.954537 37.999294 321.000000
6.954537 38.522362 321.000000
6.954537 39.045425 321.000000
6.954537 39.568493 321.000000
6.954537 40.091557 321.000000
6.954537 40.614624 321.000000
6.954537 41.137688 321.000000
6.954537 41.660751 321.000000
6.976202 42.315235 322.000000
6.976202 42.839928 322.000000
6.976202 43.364624 322.000000
6.976202 43.889320 322.000000
6.976202 44.414013 322.000000
6.976202 44.938709 322.000000
6.976202 45.463406 322.000000
6.976202 45.988098 322.000000
6.976202 46.512794 322.000000
6.976202 47.037487 322.000000
6.976202 47.562183 322.000000
6.976202 48.086880 322.000000
6.976202 48.611572 322.000000
6.976202 49.136269 322.000000
6.976202 49.660965 322.000000
6.976202 50.185658 322.000000
6.976202 50.710354 322.000000
6.976202 51.235046 322.000000
6.976202 51.759743 322.000000
6.976202 52.284439 322.000000
6.976202 52.809132 322.000000
6.976202 53.333828 322.000000
6.976202 53.858524 322.000000
6.997868 54.552113 323.000000
6.997868 55.078434 323.000000
6.997868 55.604759 323.000000
6.997868 56.131084 323.000000
6.997868 56.657410 323.000000
6.997868 57.183735 323.000000
6.997868 57.710056 323.000000
6.997868 58.236382 323.000000
6.997868 58.762707 323.000000
6.997868 59.289032 323.000000
6.997868 59.815357 323.000000
6.997868 60.341679 323.000000
6.997868 60.868004 323.000000
6.997868 61.394329 323.000000
6.997868 61.920654 323.000000
6.997868 62.446976 323.000000
7.019533 63.168262 324.000000
7.019533 63.696217 324.000000
7.019533 64.224167 324.000000
7.019533 64.752121 324.000000
7.041199 65.481560 325.000000
7.041199 66.011147 325.000000
7.041199 66.540726 325.000000
7.041199 67.070313 325.000000
7.041199 67.599892 325.000000
7.062864 68.339111 326.000000
7.062864 68.870323 326.000000
7.062864 69.401535 326.000000
7.062864 69.932747 326.000000
7.084529 70.680099 327.000000
7.084529 71.212944 327.000000
7.084529 71.745789 327.000000
7.084529 72.278633 327.000000
7.084529 72.811470 327.000000
7.084529 73.344315 327.000000
7.084529 73.877159 327.000000
7.084529 74.409996 327.000000
7.084529 74.942841 327.000000
7.084529 75.475685 327.000000
7.084529 76.008530 327.000000
7.084529 76.541367 327.000000
7.084529 77.074211 327.000000
7.062864 77.369728 326.000000
7.062864 77.900940 326.000000
7.062864 78.432152 326.000000
7.062864 78.963364 326.000000
7.062864 79.494576 326.000000
7.062864 80.025795 326.000000
7.062864 80.557007 326.000000
7.062864 81.088219 326.000000
7.041199 81.369064 325.000000
7.041199 81.898643 325.000000
7.041199 82.428230 325.000000
7.019533 82.702553 324.000000
7.019533 83.230507 324.000000
7.019533 83.758461 324.000000
6.997868 84.026276 323.000000
6.997868 84.552605 323.000000
6.997868 85.078926 323.000000
6.997868 85.605255 323.000000
6.997868 86.131577 323.000000
6.997868 86.657898 323.000000
6.997868 87.184227 323.000000
6.997868 87.710548 323.000000
6.997868 88.236877 323.000000
6.976202 88.488388 322.000000
6.976202 89.013084 322.000000
6.954537 89.259705 321.000000
6.954537 89.782776 321.000000
6.954537 90.305840 321.000000
6.932872 90.545952 320.000000
6.932872 91.067390 320.000000
6.932872 91.588821 320.000000
6.911207 91.822418 319.000000
6.911207 92.342224 319.000000
6.911207 92.862030 319.000000
6.911207 93.381836 319.000000
6.911207 93.901642 319.000000
6.889542 94.125450 318.000000
6.867877 94.346008 317.000000
6.867877 94.862556 317.000000
6.867877 95.379105 317.000000
6.867877 95.895653 317.000000
6.867877 96.412193 317.000000
6.867877 96.928741 317.000000
6.846211 97.137901 316.000000
6.846211 97.652817 316.000000
6.846211 98.167732 316.000000
6.824546 98.370361 315.000000
6.824546 98.883652 315.000000
6.824546 99.396942 315.000000
6.802880 99.593048 314.000000
6.802880 100.104713 314.000000
6.802880 100.616371 314.000000
6.802880 101.128029 314.000000
6.802880 101.639687 314.000000
6.802880 102.151344 314.000000
6.802880 102.663002 314.000000
6.781215 102.846085 313.000000
6.781215 103.356117 313.000000
6.781215 103.866150 313.000000
6.781215 104.376175 313.000000
6.781215 104.886208 313.000000
6.759550 105.059502 312.000000
6.759550 105.567902 312.000000
6.759550 106.076302 312.000000
6.759550 106.584702 312.000000
6.737885 106.749855 311.000000
6.737885 107.256622 311.000000
6.737885 107.763397 311.000000
6.737885 108.270164 311.000000
6.737885 108.776939 311.000000
6.737885 109.283707 311.000000
6.737885 109.790482 311.000000
6.737885 110.297249 311.000000
6.737885 110.804024 311.000000
6.737885 111.310791 311.000000
6.737885 111.817558 311.000000
6.737885 112.324333 311.000000
6.716220 112.468300 310.000000
6.716220 112.973442 310.000000
6.716220 113.478584 310.000000
6.716220 113.983719 310.000000
6.716220 114.488861 310.000000
6.716220 114.994003 310.000000
6.694555 115.126564 309.000000
6.694555 115.630081 309.000000
6.694555 116.133591 309.000000
6.694555 116.637100 309.000000
6.694555 117.140610 309.000000
6.694555 117.644127 309.000000
6.694555 118.147636 309.000000
6.694555 118.651146 309.000000
6.694555 119.154655 309.000000
6.672889 119.270927 308.000000
6.672889 119.772804 308.000000
6.672889 120.274689 308.000000
6.672889 120.776573 308.000000
6.672889 121.278450 308.000000
6.672889 121.780334 308.000000
6.672889 122.282219 308.000000
6.672889 122.784103 308.000000
6.672889 123.285980 308.000000
6.672889 123.787865 308.000000
6.672889 124.289749 308.000000
6.672889 124.791626 308.000000
6.672889 125.293510 308.000000
6.672889 125.795395 308.000000
6.672889 126.297272 308.000000
6.672889 126.799156 308.000000
6.672889 127.301041 308.000000
6.672889 127.802917 308.000000
6.672889 128.304810 308.000000
6.672889 128.806686 308.000000
6.672889 129.308563 308.000000
6.672889 129.810455 308.000000
6.672889 130.312332 308.000000
6.672889 130.814209 308.000000
6.651224 130.889755 307.000000
6.651224 131.390015 307.000000
6.651224 131.890259 307.000000
6.651224 132.390518 307.000000
6.629559 132.457901 306.000000
6.629559 132.956512 306.000000
6.629559 133.455139 306.000000
6.629559 133.953766 306.000000
6.629559 134.452393 306.000000
6.629559 134.951004 306.000000
6.629559 135.449631 306.000000
6.629559 135.948257 306.000000
6.629559 136.446884 306.000000
6.607893 136.497971 305.000000
6.607893 136.994965 305.000000
6.607893 137.491959 305.000000
6.607893 137.988953 305.000000
6.607893 138.485947 305.000000
6.607893 138.982941 305.000000
6.607893 139.479935 305.000000
6.607893 139.976929 305.000000
6.607893 140.473923 305.000000
6.607893 140.970917 305.000000
6.586228 141.004074 304.000000
6.586228 141.499435 304.000000
6.586228 141.994797 304.000000
6.586228 142.490158 304.000000
6.586228 142.985535 304.000000
6.586228 143.480896 304.000000
6.586228 143.976257 304.000000
6.586228 144.471619 304.000000
6.586228 144.966980 304.000000
6.586228 145.462357 304.000000
6.564563 145.477585 303.000000
6.564563 145.971329 303.000000
6.564563 146.465057 303.000000
6.542898 146.473785 302.000000
