22.584896 132.427795 313.000000
22.512739 132.513107 312.000000
22.512739 133.021500 312.000000
22.512739 133.529907 312.000000
22.512739 134.038315 312.000000
22.512739 134.546707 312.000000
22.440582 134.622238 311.000000
22.368425 134.694504 310.000000
22.368425 135.199646 310.000000
22.368425 135.704788 310.000000
22.368425 136.209930 310.000000
22.368425 136.715073 310.000000
22.368425 137.220215 310.000000
22.296270 137.281082 309.000000
22.296270 137.784592 309.000000
22.296270 138.288101 309.000000
22.224113 138.342438 308.000000
22.224113 138.844330 308.000000
22.224113 139.346207 308.000000
22.224113 139.848099 308.000000
22.224113 140.349976 308.000000
22.151957 140.394562 307.000000
22.079802 140.435867 306.000000
22.079802 140.934494 306.000000
22.079802 141.433105 306.000000
22.007645 141.467911 305.000000
22.007645 141.964905 305.000000
22.007645 142.461899 305.000000
21.935490 142.490158 304.000000
21.935490 142.985535 304.000000
21.863333 143.008911 303.000000
21.863333 143.502655 303.000000
21.863333 143.996384 303.000000
21.863333 144.490112 303.000000
21.791176 144.505356 302.000000
21.719021 144.517334 301.000000
21.719021 145.007813 301.000000
21.719021 145.498291 301.000000
21.646864 145.503769 300.000000
21.646864 145.992615 300.000000
21.646864 146.481461 300.000000
21.646864 146.970306 300.000000
21.646864 147.459152 300.000000
21.574709 147.454834 299.000000
21.574709 147.942047 299.000000
21.574709 148.429260 299.000000
21.502552 148.418427 298.000000
21.430397 148.404343 297.000000
21.430397 148.888290 297.000000
21.430397 149.372253 297.000000
21.358238 149.351639 296.000000
21.358238 149.833969 296.000000
21.286083 149.808472 295.000000
21.286083 150.289169 295.000000
21.286083 150.769867 295.000000
21.213926 150.737869 294.000000
21.213926 151.216934 294.000000
21.213926 151.695999 294.000000
21.213926 152.175079 294.000000
21.141769 152.134903 293.000000
21.141769 152.612350 293.000000
21.069614 152.567291 292.000000
21.069614 153.043106 292.000000
21.069614 153.518921 292.000000
21.069614 153.994720 292.000000
20.997458 153.941528 291.000000
20.997458 154.415710 291.000000
20.925303 154.357620 290.000000
24.211662 119.048859 328.138184
24.211662 119.583542 328.138184
24.211662 120.118248 328.138184
24.156567 120.378403 327.391510
24.043140 120.344131 325.854248
24.043140 120.875114 325.854248
23.938301 120.876694 324.433350
23.833338 120.873032 323.010803
23.833338 121.399368 323.010803
23.788807 121.697906 322.407288
23.788807 122.223267 322.407288
23.788807 122.748619 322.407288
23.749411 123.069832 321.873352
23.749411 123.594315 321.873352
23.749411 124.118805 321.873352
23.749411 124.643295 321.873352
23.749411 125.167786 321.873352
23.749411 125.692276 321.873352
23.718594 126.052979 321.455688
23.537401 125.609833 319.000000
23.537401 126.129639 319.000000
23.537401 126.649445 319.000000
23.463615 126.770599 318.000000
23.463615 127.288780 318.000000
23.389832 127.405045 317.000000
23.421185 128.093079 317.424927
23.421185 128.610306 317.424927
23.421185 129.127548 317.424927
23.367699 129.348724 316.700043
23.367699 129.864777 316.700043
23.312943 130.075333 315.957947
23.261410 130.301514 315.259521
23.261410 130.815231 315.259521
23.208639 131.031006 314.544342
23.163452 131.287445 313.931915
23.094692 131.407745 313.000000
23.094692 131.917770 313.000000
23.094692 132.427795 313.000000
23.094692 132.937836 313.000000
23.094692 133.447861 313.000000
23.094692 133.957886 313.000000
23.020906 134.038315 312.000000
23.020906 134.546707 312.000000
23.020906 135.055115 312.000000
22.947121 135.129013 311.000000
22.947121 135.635773 311.000000
22.947121 136.142548 311.000000
22.873335 136.209930 310.000000
22.873335 136.715073 310.000000
22.873335 137.220215 310.000000
22.873335 137.725357 310.000000
22.873335 138.230499 310.000000
22.799551 138.288101 309.000000
22.799551 138.791611 309.000000
22.799551 139.295120 309.000000
22.725765 139.346207 308.000000
22.725765 139.848099 308.000000
22.725765 140.349976 308.000000
22.725765 140.851852 308.000000
22.651981 140.894806 307.000000
22.651981 141.395065 307.000000
22.578196 141.433105 306.000000
22.504412 141.467911 305.000000
22.504412 141.964905 305.000000
22.504412 142.461899 305.000000
22.430626 142.490158 304.000000
22.430626 142.985535 304.000000
22.430626 143.480896 304.000000
22.356842 143.502655 303.000000
22.356842 143.996384 303.000000
22.356842 144.490112 303.000000
22.283056 144.505356 302.000000
22.283056 144.997467 302.000000
22.283056 145.489563 302.000000
22.209272 145.498291 301.000000
22.135487 145.503769 300.000000
22.135487 145.992615 300.000000
22.135487 146.481461 300.000000
22.135487 146.970306 300.000000
22.135487 147.459152 300.000000
22.061703 147.454834 299.000000
22.061703 147.942047 299.000000
22.061703 148.429260 299.000000
21.987917 148.418427 298.000000
21.914133 148.404343 297.000000
21.914133 148.888290 297.000000
21.914133 149.372253 297.000000
21.840345 149.351639 296.000000
21.840345 149.833969 296.000000
21.840345 150.316299 296.000000
21.766562 150.289169 295.000000
21.766562 150.769867 295.000000
21.766562 151.250565 295.000000
21.766562 151.731262 295.000000
21.766562 152.211960 295.000000
21.692776 152.175079 294.000000
21.692776 152.654144 294.000000
21.692776 153.133209 294.000000
21.618992 153.089783 293.000000
21.545206 153.043106 292.000000
21.545206 153.518921 292.000000
21.545206 153.994720 292.000000
21.545206 154.470535 292.000000
21.471422 154.415710 291.000000
24.746113 119.048859 328.138184
24.746113 119.583542 328.138184
24.746113 120.118248 328.138184
24.689804 120.378403 327.391510
24.228672 121.271194 321.276825
24.228672 121.794708 321.276825
24.228672 122.318230 321.276825
24.150997 122.447914 320.246826
24.105797 122.739609 319.647461
24.105797 123.260468 319.647461
24.073578 123.615906 319.220245
24.044121 123.984154 318.829620
24.044121 124.503693 318.829620
23.992334 124.753944 318.142944
23.950277 125.052757 317.585236
23.950277 125.570259 317.585236
23.914789 125.900925 317.114655
23.889650 126.284775 316.781311
23.889650 126.800964 316.781311
23.841455 127.060310 316.142242
23.879408 127.778542 316.645508
23.879408 128.294510 316.645508
23.879408 128.810486 316.645508
23.834986 129.085876 316.056458
23.834986 129.600876 316.056458
23.791510 129.878555 315.479950
23.748051 130.154434 314.903687
23.748051 130.667572 314.903687
23.708883 130.964340 314.384308
23.674767 131.287445 313.931915
23.604488 131.407745 313.000000
23.604488 131.917770 313.000000
23.604488 132.427795 313.000000
23.604488 132.937836 313.000000
23.604488 133.447861 313.000000
23.604488 133.957886 313.000000
23.529074 134.038315 312.000000
23.529074 134.546707 312.000000
23.529074 135.055115 312.000000
23.453659 135.129013 311.000000
23.453659 135.635773 311.000000
23.453659 136.142548 311.000000
23.378246 136.209930 310.000000
23.378246 136.715073 310.000000
23.378246 137.220215 310.000000
23.378246 137.725357 310.000000
23.378246 138.230499 310.000000
23.302832 138.288101 309.000000
23.302832 138.791611 309.000000
23.302832 139.295120 309.000000
23.227419 139.346207 308.000000
23.227419 139.848099 308.000000
23.227419 140.349976 308.000000
23.227419 140.851852 308.000000
23.152004 140.894806 307.000000
23.152004 141.395065 307.000000
23.152004 141.895309 307.000000
23.076591 141.931732 306.000000
23.076591 142.430359 306.000000
23.001177 142.461899 305.000000
23.001177 142.958878 305.000000
22.925764 142.985535 304.000000
22.925764 143.480896 304.000000
22.850349 143.502655 303.000000
22.850349 143.996384 303.000000
22.850349 144.490112 303.000000
22.850349 144.983856 303.000000
22.774937 144.997467 302.000000
22.774937 145.489563 302.000000
22.774937 145.981674 302.000000
22.699524 145.988770 301.000000
22.699524 146.479233 301.000000
22.624109 146.481461 300.000000
22.624109 146.970306 300.000000
22.624109 147.459152 300.000000
22.624109 147.947998 300.000000
22.548697 147.942047 299.000000
22.548697 148.429260 299.000000
22.473282 148.418427 298.000000
22.473282 148.904022 298.000000
22.473282 149.389603 298.000000
22.397869 149.372253 297.000000
22.397869 149.856216 297.000000
22.397869 150.340164 297.000000
22.322453 150.316299 296.000000
22.247040 150.289169 295.000000
22.247040 150.769867 295.000000
22.247040 151.250565 295.000000
22.247040 151.731262 295.000000
22.247040 152.211960 295.000000
22.171627 152.175079 294.000000
22.171627 152.654144 294.000000
22.171627 153.133209 294.000000
22.096212 153.089783 293.000000
22.020800 153.043106 292.000000
22.020800 153.518921 292.000000
22.020800 153.994720 292.000000
22.020800 154.470535 292.000000
21.945385 154.415710 291.000000
21.869972 154.357620 290.000000
24.751951 121.271194 321.276825
24.751951 121.794708 321.276825
24.751951 122.318230 321.276825
24.672598 122.447914 320.246826
24.403849 124.211075 316.758514
24.403849 124.727226 316.758514
24.403849 125.243378 316.758514
24.351526 125.489899 316.079376
24.310865 125.794556 315.551605
24.310865 126.308746 315.551605
24.259666 126.555840 314.887054
24.216787 126.844353 314.330505
24.216787 127.356560 314.330505
24.198927 127.774429 314.098663
24.174738 128.158020 313.784698
24.174738 128.669342 313.784698
24.146118 129.027695 313.413208
24.111158 129.350861 312.959442
24.111158 129.860825 312.959442
24.082825 130.217575 312.591675
24.066563 130.638657 312.380585
24.026838 130.931213 311.864960
24.026838 131.439392 311.864960
24.114285 132.427795 313.000000
24.114285 132.937836 313.000000
24.114285 133.447861 313.000000
24.114285 133.957886 313.000000
24.037241 134.038315 312.000000
24.037241 134.546707 312.000000
24.037241 135.055115 312.000000
23.960197 135.129013 311.000000
23.960197 135.635773 311.000000
23.960197 136.142548 311.000000
23.883156 136.209930 310.000000
23.883156 136.715073 310.000000
23.883156 137.220215 310.000000
23.883156 137.725357 310.000000
23.883156 138.230499 310.000000
23.806112 138.288101 309.000000
23.806112 138.791611 309.000000
23.806112 139.295120 309.000000
23.729071 139.346207 308.000000
23.729071 139.848099 308.000000
23.729071 140.349976 308.000000
23.729071 140.851852 308.000000
23.729071 141.353745 308.000000
23.729071 141.855621 308.000000
23.652029 141.895309 307.000000
23.574986 141.931732 306.000000
23.574986 142.430359 306.000000
23.497944 142.461899 305.000000
23.497944 142.958878 305.000000
23.420900 142.985535 304.000000
23.420900 143.480896 304.000000
23.343859 143.502655 303.000000
23.343859 143.996384 303.000000
23.343859 144.490112 303.000000
23.343859 144.983856 303.000000
23.266817 144.997467 302.000000
23.266817 145.489563 302.000000
23.266817 145.981674 302.000000
23.266817 146.473785 302.000000
23.266817 146.965881 302.000000
23.189774 146.969711 301.000000
23.189774 147.460190 301.000000
23.189774 147.950668 301.000000
23.112732 147.947998 300.000000
23.112732 148.436844 300.000000
23.112732 148.925690 300.000000
23.035690 148.916489 299.000000
22.958647 148.904022 298.000000
22.958647 149.389603 298.000000
22.958647 149.875198 298.000000
22.881605 149.856216 297.000000
22.881605 150.340164 297.000000
22.881605 150.824127 297.000000
22.881605 151.308090 297.000000
22.881605 151.792038 297.000000
22.881605 152.276001 297.000000
22.804562 152.245621 296.000000
22.804562 152.727936 296.000000
22.727518 152.692673 295.000000
22.650476 152.654144 294.000000
22.650476 153.133209 294.000000
22.650476 153.612289 294.000000
22.573435 153.567230 293.000000
22.496391 153.518921 292.000000
22.496391 153.994720 292.000000
22.496391 154.470535 292.000000
22.496391 154.946350 292.000000
22.342306 155.302719 290.000000
24.919767 124.211075 316.758514
24.919767 124.727226 316.758514
24.919767 125.243378 316.758514
24.866339 125.489899 316.079376
24.824818 125.794556 315.551605
24.824818 126.308746 315.551605
24.772535 126.555840 314.887054
24.728752 126.844353 314.330505
24.728752 127.356560 314.330505
24.710512 127.774429 314.098663
24.685814 128.158020 313.784698
24.685814 128.669342 313.784698
24.388065 137.220215 310.000000
24.388065 137.725357 310.000000
24.388065 138.230499 310.000000
24.309395 138.288101 309.000000
24.309395 138.791611 309.000000
24.309395 139.295120 309.000000
24.230722 139.346207 308.000000
24.230722 139.848099 308.000000
24.230722 140.349976 308.000000
24.230722 140.851852 308.000000
24.230722 141.353745 308.000000
24.230722 141.855621 308.000000
24.152052 141.895309 307.000000
24.152052 142.395569 307.000000
24.152052 142.895813 307.000000
24.152052 143.396072 307.000000
24.073381 143.427597 306.000000
23.916039 142.985535 304.000000
23.916039 143.480896 304.000000
23.837368 143.502655 303.000000
23.837368 143.996384 303.000000
23.837368 144.490112 303.000000
23.837368 144.983856 303.000000
23.837368 145.477585 303.000000
23.837368 145.971329 303.000000
23.758696 145.981674 302.000000
23.758696 146.473785 302.000000
23.758696 146.965881 302.000000
23.680025 146.969711 301.000000
23.680025 147.460190 301.000000
23.680025 147.950668 301.000000
23.601355 147.947998 300.000000
23.601355 148.436844 300.000000
23.601355 148.925690 300.000000
23.522684 148.916489 299.000000
23.444012 148.904022 298.000000
23.444012 149.389603 298.000000
23.444012 149.875198 298.000000
23.365341 149.856216 297.000000
23.365341 150.340164 297.000000
23.365341 150.824127 297.000000
23.365341 151.308090 297.000000
23.365341 151.792038 297.000000
23.365341 152.276001 297.000000
23.286669 152.245621 296.000000
23.286669 152.727936 296.000000
23.286669 153.210266 296.000000
23.207998 153.173370 295.000000
23.207998 153.654068 295.000000
23.207998 154.134766 295.000000
23.129326 154.091354 294.000000
23.050655 154.044662 293.000000
23.050655 154.522110 293.000000
22.971985 154.470535 292.000000
22.971985 154.946350 292.000000
22.893312 154.889893 291.000000
24.892975 137.220215 310.000000
24.892975 137.725357 310.000000
24.892975 138.230499 310.000000
24.812675 138.288101 309.000000
24.812675 138.791611 309.000000
24.812675 139.295120 309.000000
24.732376 139.346207 308.000000
24.732376 139.848099 308.000000
24.732376 140.349976 308.000000
24.732376 140.851852 308.000000
24.732376 141.353745 308.000000
24.732376 141.855621 308.000000
24.652075 141.895309 307.000000
24.652075 142.395569 307.000000
24.652075 142.895813 307.000000
24.652075 143.396072 307.000000
24.571775 143.427597 306.000000
24.324699 142.479004 302.923065
24.324699 142.972610 302.923065
24.330875 143.502655 303.000000
24.330875 143.996384 303.000000
24.330875 144.490112 303.000000
24.330875 144.983856 303.000000
24.330875 145.477585 303.000000
24.330875 145.971329 303.000000
24.330875 146.465057 303.000000
24.250576 146.473785 302.000000
24.250576 146.965881 302.000000
24.250576 147.457993 302.000000
24.250576 147.950089 302.000000
24.250576 148.442200 302.000000
24.170277 148.441147 301.000000
24.089977 148.436844 300.000000
24.089977 148.925690 300.000000
24.089977 149.414536 300.000000
24.009678 149.403702 299.000000
24.009678 149.890915 299.000000
23.929377 149.875198 298.000000
23.929377 150.360779 298.000000
23.929377 150.846375 298.000000
23.849077 150.824127 297.000000
23.849077 151.308090 297.000000
23.849077 151.792038 297.000000
23.849077 152.276001 297.000000
23.849077 152.759964 297.000000
23.849077 153.243912 297.000000
23.768776 153.210266 296.000000
23.688477 153.173370 295.000000
23.688477 153.654068 295.000000
23.688477 154.134766 295.000000
23.608177 154.091354 294.000000
23.527876 154.044662 293.000000
23.527876 154.522110 293.000000
23.447577 154.470535 292.000000
23.447577 154.946350 292.000000
23.447577 155.422165 292.000000
23.286978 155.302719 290.000000
23.286978 155.775269 290.000000
25.234028 139.346207 308.000000
25.234028 139.848099 308.000000
25.234028 140.349976 308.000000
25.234028 140.851852 308.000000
25.234028 141.353745 308.000000
25.234028 141.855621 308.000000
25.152100 141.895309 307.000000
25.152100 142.395569 307.000000
25.152100 142.895813 307.000000
25.152100 143.396072 307.000000
25.070171 143.427597 306.000000
24.818081 142.479004 302.923065
24.818081 142.972610 302.923065
24.824385 143.502655 303.000000
24.824385 143.996384 303.000000
24.824385 144.490112 303.000000
24.824385 144.983856 303.000000
24.824385 145.477585 303.000000
24.824385 145.971329 303.000000
24.824385 146.465057 303.000000
24.742456 146.473785 302.000000
24.742456 146.965881 302.000000
24.742456 147.457993 302.000000
24.742456 147.950089 302.000000
24.742456 148.442200 302.000000
24.660528 148.441147 301.000000
24.660528 148.931625 301.000000
24.660528 149.422089 301.000000
24.578600 149.414536 300.000000
24.578600 149.903381 300.000000
24.578600 150.392227 300.000000
24.496672 150.378128 299.000000
24.496672 150.865341 299.000000
24.496672 151.352570 299.000000
24.414742 151.331955 298.000000
24.332813 151.308090 297.000000
24.332813 151.792038 297.000000
24.332813 152.276001 297.000000
24.332813 152.759964 297.000000
24.332813 153.243912 297.000000
24.332813 153.727875 297.000000
24.168955 153.173370 295.000000
24.168955 153.654068 295.000000
24.168955 154.134766 295.000000
24.168955 154.615463 295.000000
24.087027 154.570419 294.000000
24.087027 155.049484 294.000000
24.005098 154.999542 293.000000
24.005098 155.476990 293.000000
23.841240 155.838257 291.000000
23.759312 155.775269 290.000000
23.759312 156.720383 290.000000
25.735680 139.848099 308.000000
25.735680 140.349976 308.000000
25.735680 140.851852 308.000000
25.735680 141.353745 308.000000
25.735680 141.855621 308.000000
25.652122 141.895309 307.000000
25.652122 142.395569 307.000000
25.652122 142.895813 307.000000
25.652122 143.396072 307.000000
25.568565 143.427597 306.000000
25.401451 145.462357 304.000000
25.401451 145.957718 304.000000
25.401451 146.453079 304.000000
25.317894 146.465057 303.000000
25.234337 146.473785 302.000000
25.234337 146.965881 302.000000
25.234337 147.457993 302.000000
25.234337 147.950089 302.000000
25.234337 148.442200 302.000000
25.150780 148.441147 301.000000
25.150780 148.931625 301.000000
25.150780 149.422089 301.000000
25.067223 149.414536 300.000000
25.067223 149.903381 300.000000
25.067223 150.392227 300.000000
24.983664 150.378128 299.000000
24.983664 150.865341 299.000000
24.983664 151.352570 299.000000
24.900106 151.331955 298.000000
24.816549 151.308090 297.000000
24.816549 151.792038 297.000000
24.816549 152.276001 297.000000
24.816549 152.759964 297.000000
24.816549 153.243912 297.000000
24.816549 153.727875 297.000000
24.732990 153.692596 296.000000
24.732990 154.174927 296.000000
24.649433 154.134766 295.000000
24.649433 154.615463 295.000000
24.649433 155.096161 295.000000
24.649433 155.576859 295.000000
24.565876 155.528564 294.000000
24.482319 155.476990 293.000000
24.398762 155.422165 292.000000
26.152147 140.894806 307.000000
26.152147 141.395065 307.000000
26.152147 141.895309 307.000000
26.152147 142.395569 307.000000
26.152147 142.895813 307.000000
26.152147 143.396072 307.000000
25.896589 145.462357 304.000000
25.896589 145.957718 304.000000
25.896589 146.453079 304.000000
25.896589 146.948441 304.000000
25.811403 146.958786 303.000000
25.811403 147.452530 303.000000
25.726217 147.457993 302.000000
25.726217 147.950089 302.000000
25.726217 148.442200 302.000000
25.726217 148.934311 302.000000
25.641029 148.931625 301.000000
25.641029 149.422089 301.000000
25.641029 149.912567 301.000000
25.555843 149.903381 300.000000
25.555843 150.392227 300.000000
25.555843 150.881073 300.000000
25.555843 151.369919 300.000000
25.555843 151.858765 300.000000
25.470657 151.839783 299.000000
25.385471 151.817535 298.000000
25.385471 152.303131 298.000000
25.385471 152.788712 298.000000
25.300285 152.759964 297.000000
25.300285 153.243912 297.000000
25.300285 153.727875 297.000000
25.215099 153.692596 296.000000
25.215099 154.174927 296.000000
25.129913 154.134766 295.000000
25.129913 154.615463 295.000000
25.129913 155.096161 295.000000
25.129913 155.576859 295.000000
25.044727 155.528564 294.000000
24.959539 155.476990 293.000000
24.959539 155.954422 293.000000
24.874353 156.373779 292.000000
24.703981 155.775269 290.000000
24.703981 156.720383 290.000000
24.703981 157.192932 290.000000
26.652170 140.894806 307.000000
26.652170 141.395065 307.000000
26.652170 141.895309 307.000000
26.652170 142.395569 307.000000
26.652170 142.895813 307.000000
26.652170 143.396072 307.000000
26.391726 145.462357 304.000000
26.391726 145.957718 304.000000
26.391726 146.453079 304.000000
26.391726 146.948441 304.000000
26.304911 146.958786 303.000000
26.304911 147.452530 303.000000
26.304911 147.946259 303.000000
26.304911 148.440002 303.000000
26.304911 148.933731 303.000000
26.304911 149.427460 303.000000
26.218096 149.426407 302.000000
26.218096 149.918518 302.000000
26.218096 150.410614 302.000000
26.131281 150.403046 301.000000
26.131281 150.893524 301.000000
26.044466 150.881073 300.000000
26.044466 151.369919 300.000000
26.044466 151.858765 300.000000
26.044466 152.347610 300.000000
25.957651 152.326996 299.000000
25.957651 152.814209 299.000000
25.870836 152.788712 298.000000
25.870836 153.274307 298.000000
25.870836 153.759888 298.000000
25.784023 153.727875 297.000000
25.697206 153.692596 296.000000
25.697206 154.174927 296.000000
25.697206 154.657257 296.000000
25.610392 154.615463 295.000000
25.610392 155.096161 295.000000
25.610392 155.576859 295.000000
25.523577 155.528564 294.000000
25.523577 156.007629 294.000000
25.349947 156.373779 292.000000
25.349947 156.849594 292.000000
25.263132 157.260788 291.000000
25.176317 157.192932 290.000000
25.176317 158.138031 290.000000
26.886866 145.462357 304.000000
26.886866 145.957718 304.000000
26.886866 146.453079 304.000000
26.975307 147.431824 305.000000
26.975307 147.928818 305.000000
26.975307 148.425812 305.000000
26.798420 147.946259 303.000000
26.798420 148.440002 303.000000
26.798420 148.933731 303.000000
26.798420 149.427460 303.000000
26.709974 149.426407 302.000000
26.709974 149.918518 302.000000
26.709974 150.410614 302.000000
26.621532 150.403046 301.000000
26.621532 150.893524 301.000000
26.533089 150.881073 300.000000
26.533089 151.369919 300.000000
26.533089 151.858765 300.000000
26.533089 152.347610 300.000000
26.444645 152.326996 299.000000
26.444645 152.814209 299.000000
26.356201 152.788712 298.000000
26.356201 153.274307 298.000000
26.356201 153.759888 298.000000
26.356201 154.245483 298.000000
26.267759 154.211838 297.000000
26.179314 154.174927 296.000000
26.179314 154.657257 296.000000
26.179314 155.139587 296.000000
26.090870 155.096161 295.000000
26.090870 155.576859 295.000000
26.090870 156.057556 295.000000
26.002426 156.007629 294.000000
25.913982 155.954422 293.000000
27.472073 147.431824 305.000000
27.472073 147.928818 305.000000
27.472073 148.425812 305.000000
27.382002 148.434540 304.000000
27.382002 148.929901 304.000000
27.382002 149.425262 304.000000
27.291929 149.427460 303.000000
27.291929 149.921204 303.000000
27.291929 150.414932 303.000000
27.291929 150.908676 303.000000
27.201855 150.902725 302.000000
27.201855 151.394836 302.000000
27.111784 151.384003 301.000000
27.021709 151.369919 300.000000
27.021709 151.858765 300.000000
27.021709 152.347610 300.000000
27.021709 152.836456 300.000000
27.021709 153.325302 300.000000
26.931639 153.301437 299.000000
26.841566 153.274307 298.000000
26.841566 153.759888 298.000000
26.841566 154.245483 298.000000
26.751495 154.211838 297.000000
26.661421 154.174927 296.000000
26.661421 154.657257 296.000000
26.661421 155.139587 296.000000
26.571348 155.096161 295.000000
26.571348 155.576859 295.000000
26.571348 156.057556 295.000000
26.481276 156.007629 294.000000
26.481276 156.486694 294.000000
26.391205 156.909302 293.000000
26.301132 156.849594 292.000000
26.301132 157.801208 292.000000
26.211060 157.734970 291.000000
26.211060 158.683334 291.000000
26.120987 158.610580 290.000000
26.120987 159.555679 290.000000
27.968840 147.431824 305.000000
27.968840 147.928818 305.000000
27.968840 148.425812 305.000000
27.877140 148.434540 304.000000
27.877140 148.929901 304.000000
27.877140 149.425262 304.000000
27.785437 149.427460 303.000000
27.785437 149.921204 303.000000
27.785437 150.414932 303.000000
27.785437 150.908676 303.000000
27.693735 150.902725 302.000000
27.693735 151.394836 302.000000
27.693735 151.886932 302.000000
27.602036 151.874466 301.000000
27.602036 152.364944 301.000000
27.602036 152.855423 301.000000
27.510332 152.836456 300.000000
27.510332 153.325302 300.000000
27.510332 153.814148 300.000000
27.418633 153.788651 299.000000
27.418633 154.275864 299.000000
27.326931 154.245483 298.000000
27.235231 154.211838 297.000000
27.235231 154.695786 297.000000
27.235231 155.179749 297.000000
27.235231 155.663712 297.000000
27.143528 155.621918 296.000000
27.143528 156.104233 296.000000
27.143528 156.586563 296.000000
26.980505 156.125549 294.222229
26.776724 157.801208 292.000000
26.776724 158.277023 292.000000
26.685024 158.683334 291.000000
26.685024 159.157516 291.000000
26.593323 159.555679 290.000000
26.593323 160.028229 290.000000
28.465605 148.922806 305.000000
28.465605 149.419800 305.000000
28.465605 149.916794 305.000000
28.278946 149.427460 303.000000
28.278946 149.921204 303.000000
28.278946 150.414932 303.000000
28.278946 150.908676 303.000000
28.185614 150.902725 302.000000
28.185614 151.394836 302.000000
28.185614 151.886932 302.000000
28.092287 151.874466 301.000000
28.092287 152.364944 301.000000
28.092287 152.855423 301.000000
27.998955 152.836456 300.000000
27.998955 153.325302 300.000000
27.998955 153.814148 300.000000
27.905626 153.788651 299.000000
27.905626 154.275864 299.000000
27.812296 154.245483 298.000000
27.812296 154.731064 298.000000
27.718967 154.695786 297.000000
27.718967 155.179749 297.000000
27.718967 155.663712 297.000000
27.718967 156.147659 297.000000
27.718967 156.631622 297.000000
27.718967 157.115585 297.000000
27.491596 156.306793 294.563782
27.432594 156.450287 293.931610
27.438976 157.444839 294.000000
27.345648 157.386749 293.000000
28.962372 148.922806 305.000000
28.962372 149.419800 305.000000
28.962372 149.916794 305.000000
28.772455 149.427460 303.000000
28.772455 149.921204 303.000000
28.772455 150.414932 303.000000
28.772455 150.908676 303.000000
28.772455 151.402405 303.000000
28.772455 151.896133 303.000000
28.677494 151.886932 302.000000
28.677494 152.379044 302.000000
28.677494 152.871140 302.000000
28.582537 152.855423 301.000000
28.582537 153.345901 301.000000
28.582537 153.836380 301.000000
28.487577 153.814148 300.000000
28.487577 154.302994 300.000000
28.487577 154.791840 300.000000
28.392620 154.763077 299.000000
28.297661 154.731064 298.000000
28.202703 154.695786 297.000000
28.202703 155.179749 297.000000
28.202703 155.663712 297.000000
28.202703 156.147659 297.000000
28.202703 156.631622 297.000000
28.202703 157.115585 297.000000
27.971361 156.306793 294.563782
27.945200 156.640121 294.288269
27.963028 157.699753 294.476013
27.822870 157.386749 293.000000
27.822870 158.341629 293.000000
27.727909 158.277023 292.000000
27.727909 159.228638 292.000000
27.632952 159.157516 291.000000
27.632952 160.105881 291.000000
27.537992 160.028229 290.000000
29.459137 148.922806 305.000000
29.459137 149.419800 305.000000
29.459137 149.916794 305.000000
29.265963 150.908676 303.000000
29.265963 151.402405 303.000000
29.265963 151.896133 303.000000
29.169374 151.886932 302.000000
29.169374 152.379044 302.000000
29.169374 152.871140 302.000000
29.169374 153.363251 302.000000
29.169374 153.855362 302.000000
29.169374 154.347458 302.000000
29.169374 154.839569 302.000000
29.072788 154.817322 301.000000
29.072788 155.307800 301.000000
28.976200 155.280685 300.000000
28.879614 155.250305 299.000000
28.879614 155.737518 299.000000
28.879614 156.224731 299.000000
28.783026 156.187820 298.000000
28.783026 156.673416 298.000000
28.783026 157.158997 298.000000
28.783026 157.644592 298.000000
28.499899 156.574722 295.068695
28.300091 158.819061 293.000000
28.203503 159.228638 292.000000
28.203503 159.704453 292.000000
28.106916 160.105881 291.000000
28.010328 160.028229 290.000000
28.010328 160.973343 290.000000
29.759472 150.908676 303.000000
29.759472 151.402405 303.000000
29.759472 151.896133 303.000000
29.661255 151.886932 302.000000
29.661255 152.379044 302.000000
29.661255 152.871140 302.000000
29.661255 153.363251 302.000000
29.661255 153.855362 302.000000
29.661255 154.347458 302.000000
29.661255 154.839569 302.000000
29.563040 154.817322 301.000000
29.563040 155.307800 301.000000
29.464823 155.280685 300.000000
29.366608 155.250305 299.000000
29.366608 155.737518 299.000000
29.366608 156.224731 299.000000
29.366608 156.711945 299.000000
29.366608 157.199173 299.000000
29.366608 157.686386 299.000000
29.268391 157.644592 298.000000
29.008530 156.726212 295.354187
28.943186 156.853363 294.688873
28.957600 157.892334 294.835632
28.875526 157.923904 294.000000
28.875526 158.882050 294.000000
30.153133 153.363251 302.000000
30.153133 153.855362 302.000000
30.153133 154.347458 302.000000
30.153133 154.839569 302.000000
30.153133 155.331665 302.000000
30.153133 155.823776 302.000000
30.153133 156.315887 302.000000
29.953445 155.769531 300.000000
29.953445 156.258377 300.000000
29.953445 156.747223 300.000000
29.853601 156.711945 299.000000
29.853601 157.199173 299.000000
29.853601 157.686386 299.000000
29.753756 157.644592 298.000000
29.489584 156.726212 295.354187
29.451494 157.004410 294.972687
29.456278 157.991394 295.020599
29.454224 158.461044 295.000000
29.354376 158.882050 294.000000
29.254534 158.819061 293.000000
29.154688 159.228638 292.000000
29.154688 159.704453 292.000000
29.154688 160.656067 292.000000
29.054844 160.580063 291.000000
28.954998 160.973343 290.000000
28.954998 161.445892 290.000000
30.746489 154.364807 303.000000
30.746489 154.858551 303.000000
30.746489 155.352280 303.000000
30.746489 155.846024 303.000000
30.645014 155.823776 302.000000
30.645014 156.315887 302.000000
30.645014 156.807983 302.000000
30.442068 156.258377 300.000000
30.442068 156.747223 300.000000
30.442068 157.236069 300.000000
30.442068 157.724915 300.000000
30.442068 158.213760 300.000000
30.239120 157.644592 298.000000
30.033089 157.052750 295.969574
29.731754 159.773941 293.000000
29.630280 159.704453 292.000000
29.630280 160.656067 292.000000
29.630280 161.131882 292.000000
29.528809 161.528427 291.000000
29.427332 161.445892 290.000000
29.427332 162.390991 290.000000
31.239998 154.364807 303.000000
31.239998 154.858551 303.000000
31.239998 155.352280 303.000000
31.239998 155.846024 303.000000
31.136894 155.823776 302.000000
31.136894 156.315887 302.000000
31.136894 156.807983 302.000000
30.930689 156.258377 300.000000
30.930689 156.747223 300.000000
30.930689 157.236069 300.000000
30.930689 157.724915 300.000000
30.930689 158.213760 300.000000
30.724485 157.644592 298.000000
30.515144 157.052750 295.969574
30.480911 157.358307 295.637543
30.621386 159.051407 297.000000
30.415180 158.461044 295.000000
30.415180 159.422455 295.000000
30.312077 159.361115 294.000000
31.733507 154.364807 303.000000
31.733507 154.858551 303.000000
31.733507 155.352280 303.000000
31.733507 155.846024 303.000000
31.628775 155.823776 302.000000
31.628775 156.315887 302.000000
31.628775 156.807983 302.000000
31.628775 157.300095 302.000000
31.628775 157.792191 302.000000
31.524044 157.760178 301.000000
31.524044 158.250656 301.000000
31.524044 158.741135 301.000000
31.209850 157.644592 298.000000
30.997204 157.052750 295.969574
30.985806 157.477112 295.860748
31.209850 159.586945 298.000000
31.000389 158.998215 296.000000
30.895658 159.422455 295.000000
30.895658 159.903152 295.000000
30.790926 160.319260 294.000000
30.686197 160.251389 293.000000
30.686197 161.206268 293.000000
30.581465 161.131882 292.000000
30.581465 162.083496 292.000000
30.476736 162.002609 291.000000
30.372004 162.390991 290.000000
30.372004 162.863541 290.000000
32.227016 154.858551 303.000000
32.227016 155.352280 303.000000
32.227016 155.846024 303.000000
32.120655 155.823776 302.000000
32.120655 156.315887 302.000000
32.120655 156.807983 302.000000
32.120655 157.300095 302.000000
32.120655 157.792191 302.000000
32.120655 158.284302 302.000000
32.120655 158.776413 302.000000
32.120655 159.268509 302.000000
31.467684 156.995010 295.860748
31.269777 160.319260 294.000000
31.269777 160.798325 294.000000
31.269777 161.756454 294.000000
31.163418 161.683701 293.000000
31.057056 162.083496 292.000000
31.057056 162.559311 292.000000
30.950699 162.950958 291.000000
30.844337 162.863541 290.000000
32.720524 154.858551 303.000000
32.720524 155.352280 303.000000
32.720524 155.846024 303.000000
32.612534 155.823776 302.000000
32.612534 156.315887 302.000000
32.612534 156.807983 302.000000
32.612534 157.300095 302.000000
32.612534 157.792191 302.000000
32.612534 158.284302 302.000000
32.612534 158.776413 302.000000
32.612534 159.268509 302.000000
32.180580 159.586945 298.000000
32.072594 159.535370 297.000000
32.072594 160.503281 297.000000
31.856617 159.903152 295.000000
33.104416 155.823776 302.000000
33.104416 156.315887 302.000000
33.104416 156.807983 302.000000
33.104416 157.300095 302.000000
33.104416 157.792191 302.000000
33.104416 158.284302 302.000000
33.104416 158.776413 302.000000
33.104416 159.268509 302.000000
32.665947 160.072525 298.000000
32.665947 161.043701 298.000000
32.446712 160.445190 296.000000
32.337097 160.864548 295.000000
32.227478 160.798325 294.000000
32.227478 161.756454 294.000000
32.227478 162.235535 294.000000
32.117863 162.638580 293.000000
32.008244 162.559311 292.000000
32.008244 163.510941 292.000000
31.898626 163.425140 291.000000
31.789007 163.808640 290.000000
33.596294 158.284302 302.000000
33.596294 158.776413 302.000000
33.596294 159.268509 302.000000
32.817574 161.345245 295.000000
32.817574 162.306641 295.000000
32.817574 162.787338 295.000000
32.706326 163.193665 294.000000
32.595081 163.116028 293.000000
32.483833 163.510941 292.000000
32.483833 163.986740 292.000000
32.261345 163.808640 290.000000
32.261345 164.281204 290.000000
34.088173 158.284302 302.000000
34.088173 158.776413 302.000000
34.088173 159.268509 302.000000
33.410927 161.409851 296.000000
33.893032 161.409851 296.000000
33.893032 161.892181 296.000000
33.778530 162.306641 295.000000
33.778530 162.787338 295.000000
33.778530 163.748734 295.000000
33.664028 163.672745 294.000000
33.549526 164.070908 293.000000
33.435020 163.986740 292.000000
33.320518 164.373505 291.000000
33.206013 164.281204 290.000000
33.206013 164.753754 290.000000
34.259010 162.787338 295.000000
34.259010 163.748734 295.000000
34.259010 164.229431 295.000000
34.142876 164.630875 294.000000
34.026745 164.548340 293.000000
33.910614 164.938370 292.000000
33.794483 164.847687 291.000000
33.678349 164.753754 290.000000
33.678349 165.698853 290.000000
34.975010 161.955154 297.000000
34.975010 162.439117 297.000000
34.857250 162.856842 296.000000
34.150684 165.698853 290.000000
34.150684 166.171402 290.000000
35.458748 161.955154 297.000000
35.458748 162.439117 297.000000
35.458748 163.407028 297.000000
35.339355 163.339157 296.000000
35.219967 163.748734 295.000000
35.219967 164.229431 295.000000
35.100578 164.630875 294.000000
35.100578 165.109940 294.000000
34.981190 165.025787 293.000000
34.861797 165.414169 292.000000
34.742409 165.321869 291.000000
34.997108 168.922134 293.133331
35.821465 164.303818 296.000000
35.700447 164.229431 295.000000
35.700447 165.190826 295.000000
35.579426 165.109940 294.000000
35.579426 165.589020 294.000000
35.458408 165.980667 293.000000
35.337391 165.889984 292.000000
35.216373 166.270233 291.000000
35.095352 166.171402 290.000000
36.426220 162.439117 297.000000
36.426220 163.407028 297.000000
36.426220 163.890991 297.000000
35.690338 166.744415 291.000000
36.661404 164.229431 295.000000
36.661404 165.190826 295.000000
36.537128 165.109940 294.000000
36.537128 165.589020 294.000000
36.537128 166.547150 294.000000
36.412853 166.458099 293.000000
36.288574 166.841614 292.000000
37.015976 165.589020 294.000000
37.015976 166.547150 294.000000
37.015976 167.026215 294.000000
37.015976 167.984360 294.000000
36.858597 167.747162 292.750000
36.920322 168.983765 293.240265
36.512360 168.534164 290.000000
37.112228 169.589493 291.000000
36.984695 169.951813 290.000000
36.984695 170.424362 290.000000
37.973679 166.547150 294.000000
37.973679 167.026215 294.000000
37.973679 167.984360 294.000000
37.973679 168.463425 294.000000
37.844517 168.845306 293.000000
37.804775 169.144943 292.692322
37.715351 169.696472 292.000000
38.452526 167.026215 294.000000
38.452526 167.984360 294.000000
38.452526 168.463425 294.000000
38.321739 168.845306 293.000000
38.190945 168.744843 292.000000
38.190945 169.696472 292.000000
38.190945 170.172272 292.000000
38.060158 170.537857 291.000000
37.929363 170.424362 290.000000
37.929363 171.369461 290.000000
38.666538 169.696472 292.000000
38.666538 170.172272 292.000000
38.666538 171.123901 292.000000
38.534119 171.012039 291.000000
38.401699 171.369461 290.000000
39.410229 167.984360 294.000000
39.410229 168.463425 294.000000
39.276180 168.845306 293.000000
39.276180 169.322739 293.000000
39.889076 168.463425 294.000000
39.889076 169.421570 294.000000
39.889076 169.900635 294.000000
39.617722 169.696472 292.000000
39.617722 170.172272 292.000000
39.617722 171.123901 292.000000
39.617722 171.599716 292.000000
39.482048 171.960403 291.000000
39.346371 171.842026 290.000000
40.230621 170.277618 293.000000
40.093315 170.172272 292.000000
40.093315 171.123901 292.000000
40.093315 171.599716 292.000000
39.956013 171.960403 291.000000
39.818703 171.842026 290.000000
39.818703 172.787125 290.000000
40.024662 174.155838 291.500000
40.062111 175.269669 291.772736
40.846779 169.421570 294.000000
40.846779 169.900635 294.000000
41.185066 171.709946 293.000000
41.044502 171.599716 292.000000
41.044502 172.551331 292.000000
40.903938 172.434586 291.000000
40.763374 172.787125 290.000000
40.763374 173.259674 290.000000
40.935085 174.938599 291.221588
40.948551 175.470840 291.317383
41.520092 171.599716 292.000000
41.520092 172.551331 292.000000
41.377903 172.434586 291.000000
41.235710 172.787125 290.000000
41.235710 173.259674 290.000000
41.235710 174.204773 290.000000
41.364037 175.220932 290.902496
41.355606 176.133072 290.843201
42.471279 172.551331 292.000000
42.325829 172.434586 291.000000
42.180378 172.787125 290.000000
42.180378 173.259674 290.000000
42.289467 176.550400 290.750000
42.289467 177.024170 290.750000
42.763023 177.024170 290.750000
42.763023 177.971725 290.750000
42.763023 178.445496 290.750000
43.710136 178.445496 290.750000
43.710136 179.393036 290.750000
43.710136 179.866806 290.750000
44.183693 179.866806 290.750000
44.183693 180.814362 290.750000
44.183693 181.288132 290.750000
45.130806 181.288132 290.750000
45.130806 182.235672 290.750000
45.130806 182.709457 290.750000
45.604362 182.709457 290.750000
45.604362 183.656998 290.750000
46.551476 183.656998 290.750000
46.551476 184.130768 290.750000
46.551476 185.078323 290.750000
46.551476 185.552094 290.750000
47.025032 185.552094 290.750000
47.025032 186.499634 290.750000
47.498589 186.499634 290.750000
47.498589 186.973419 290.750000
47.498589 187.920959 290.750000
77.289917 -25.327835 367.000000
77.289917 -24.729813 367.000000
77.289917 -24.131792 367.000000
77.289917 -23.533770 367.000000
77.289917 -22.935747 367.000000
77.289917 -22.337725 367.000000
77.289917 -21.739704 367.000000
77.289917 -21.141682 367.000000
77.289917 -20.543659 367.000000
77.289917 -19.945639 367.000000
77.289917 -19.347616 367.000000
77.289917 -18.749594 367.000000
77.289917 -18.151573 367.000000
77.289917 -17.553551 367.000000
77.289917 -16.955528 367.000000
77.289917 -16.357508 367.000000
77.289917 -15.759485 367.000000
77.289917 -15.161463 367.000000
77.289917 -14.563441 367.000000
77.289917 -13.965420 367.000000
77.289917 -13.367397 367.000000
77.289917 -12.769377 367.000000
77.289917 -12.171354 367.000000
77.289917 -11.573333 367.000000
77.289917 -10.975311 367.000000
77.289917 -10.377289 367.000000
77.289917 -9.779267 367.000000
77.289917 -9.181246 367.000000
77.289917 -8.583223 367.000000
77.289917 -7.985202 367.000000
77.289917 -7.387180 367.000000
77.289917 -6.789158 367.000000
77.289917 -6.191136 367.000000
77.289917 -5.593114 367.000000
77.289917 -4.995092 367.000000
77.289917 -4.397070 367.000000
77.289917 -3.799048 367.000000
77.289917 -3.201027 367.000000
77.289917 -2.603005 367.000000
77.289917 -2.004983 367.000000
77.289917 -1.406961 367.000000
77.289917 -0.808939 367.000000
77.289917 -0.210917 367.000000
77.289917 0.387105 367.000000
77.289917 0.985126 367.000000
77.289917 1.583148 367.000000
77.289917 2.181170 367.000000
77.289917 2.779192 367.000000
77.289917 3.377214 367.000000
77.289917 3.975236 367.000000
77.289917 4.573258 367.000000
77.289917 5.171279 367.000000
77.289917 5.769301 367.000000
77.289917 6.367323 367.000000
77.289917 6.965345 367.000000
77.289917 7.563366 367.000000
77.289917 8.161388 367.000000
77.289917 8.759410 367.000000
77.289917 9.357432 367.000000
77.289917 9.955454 367.000000
77.289917 10.553476 367.000000
77.289917 11.151498 367.000000
77.289917 11.749519 367.000000
77.289917 12.347542 367.000000
77.289917 12.945563 367.000000
77.289917 13.543586 367.000000
77.289917 14.141608 367.000000
77.289917 14.739630 367.000000
77.289917 15.337651 367.000000
77.289917 15.935674 367.000000
77.289917 16.533695 367.000000
77.289917 17.131718 367.000000
77.289917 17.729738 367.000000
77.289917 18.327761 367.000000
77.289917 18.925783 367.000000
77.887665 -25.327835 367.000000
77.887665 -24.729813 367.000000
77.887665 -24.131792 367.000000
77.887665 -23.533770 367.000000
77.887665 -22.935747 367.000000
77.887665 -22.337725 367.000000
77.887665 -21.739704 367.000000
77.887665 -21.141682 367.000000
77.887665 -20.543659 367.000000
77.887665 -19.945639 367.000000
77.887665 -19.347616 367.000000
77.887665 -18.749594 367.000000
77.887665 -18.151573 367.000000
77.887665 -17.553551 367.000000
77.887665 -16.955528 367.000000
77.887665 -16.357508 367.000000
77.887665 -15.759485 367.000000
77.887665 -15.161463 367.000000
77.887665 -14.563441 367.000000
77.887665 -13.965420 367.000000
77.887665 -13.367397 367.000000
77.887665 -12.769377 367.000000
77.887665 -12.171354 367.000000
77.887665 -11.573333 367.000000
77.887665 -10.975311 367.000000
77.887665 -10.377289 367.000000
77.887665 -9.779267 367.000000
77.887665 -9.181246 367.000000
77.887665 -8.583223 367.000000
77.887665 -7.985202 367.000000
77.887665 -7.387180 367.000000
77.887665 -6.789158 367.000000
77.887665 -6.191136 367.000000
77.887665 -5.593114 367.000000
77.887665 -4.995092 367.000000
77.887665 -4.397070 367.000000
77.887665 -3.799048 367.000000
77.887665 -3.201027 367.000000
77.887665 -2.603005 367.000000
77.887665 -2.004983 367.000000
77.887665 -1.406961 367.000000
77.887665 -0.808939 367.000000
77.887665 -0.210917 367.000000
77.887665 0.387105 367.000000
77.887665 0.985126 367.000000
77.887665 1.583148 367.000000
77.887665 2.181170 367.000000
77.887665 2.779192 367.000000
77.887665 3.377214 367.000000
77.887665 3.975236 367.000000
77.887665 4.573258 367.000000
77.887665 5.171279 367.000000
77.887665 5.769301 367.000000
77.887665 6.367323 367.000000
77.887665 6.965345 367.000000
77.887665 7.563366 367.000000
77.887665 8.161388 367.000000
77.887665 8.759410 367.000000
77.887665 9.357432 367.000000
77.887665 9.955454 367.000000
77.887665 10.553476 367.000000
77.887665 11.151498 367.000000
77.887665 11.749519 367.000000
77.887665 12.347542 367.000000
77.887665 12.945563 367.000000
77.887665 13.543586 367.000000
77.887665 14.141608 367.000000
77.887665 14.739630 367.000000
77.887665 15.337651 367.000000
77.887665 15.935674 367.000000
77.887665 16.533695 367.000000
77.887665 17.131718 367.000000
77.887665 17.729738 367.000000
77.887665 18.327761 367.000000
77.887665 18.925783 367.000000
78.842697 25.211388 371.500000
78.842697 25.816742 371.500000
78.842697 26.422096 371.500000
78.948814 28.276167 372.000000
78.948814 28.882336 372.000000
78.948814 29.488504 372.000000
77.852303 29.676695 366.833344
77.852303 30.274443 366.833344
77.700005 30.811802 366.115753
78.366287 31.677711 369.255219
78.366287 32.279408 369.255219
78.366287 32.881107 369.255219
78.366287 33.482803 369.255219
78.366287 34.084499 369.255219
78.366287 34.686195 369.255219
78.318649 35.266438 369.030731
78.318649 35.867771 369.030731
78.245026 36.434814 368.683807
78.174637 37.002270 368.352173
78.174637 37.602493 368.352173
78.097221 38.164890 367.987396
78.028046 38.730179 367.661438
78.028046 39.329281 367.661438
78.167450 39.999718 368.318298
78.214203 40.624168 368.538574
78.214203 41.224697 368.538574
78.214203 41.825222 368.538574
78.198990 42.417500 368.466888
78.198990 43.017914 368.466888
78.182251 43.608994 368.388062
78.163857 44.198875 368.301361
78.163857 44.799015 368.301361
78.148376 45.390167 368.228424
78.138710 45.984501 368.182861
78.138908 46.584572 368.183807
78.138908 47.184521 368.183807
78.151588 47.792229 368.243561
78.163948 48.399929 368.301788
78.163948 49.000069 368.301788
78.163948 49.600212 368.301788
78.163597 50.200130 368.300140
78.163597 50.800270 368.300140
78.158539 51.397079 368.276276
78.154488 51.994495 368.257233
78.154488 52.594566 368.257233
78.151718 53.192745 368.244141
78.150711 53.792103 368.239410
78.150711 54.392143 368.239410
78.417290 55.179771 369.495514
78.442940 55.800106 369.616394
78.442940 56.402393 369.616394
78.489876 57.038780 369.837524
78.489876 57.641430 369.837524
78.489876 58.244072 369.837524
78.252396 58.668674 368.718567
78.261284 59.276226 368.760406
78.261284 59.877110 368.760406
78.261284 60.478004 368.760406
78.485420 -25.327835 367.000000
78.485420 -24.729813 367.000000
78.485420 -24.131792 367.000000
78.485420 -23.533770 367.000000
78.485420 -22.935747 367.000000
78.485420 -22.337725 367.000000
78.485420 -21.739704 367.000000
78.485420 -21.141682 367.000000
78.485420 -20.543659 367.000000
78.485420 -19.945639 367.000000
78.485420 -19.347616 367.000000
78.485420 -18.749594 367.000000
78.485420 -18.151573 367.000000
78.485420 -17.553551 367.000000
78.485420 -16.955528 367.000000
78.485420 -16.357508 367.000000
78.485420 -15.759485 367.000000
78.485420 -15.161463 367.000000
78.485420 -14.563441 367.000000
78.485420 -13.965420 367.000000
78.485420 -13.367397 367.000000
78.485420 -12.769377 367.000000
78.485420 -12.171354 367.000000
78.485420 -11.573333 367.000000
78.485420 -10.975311 367.000000
78.485420 -10.377289 367.000000
78.485420 -9.779267 367.000000
78.485420 -9.181246 367.000000
78.485420 -8.583223 367.000000
78.485420 -7.985202 367.000000
78.485420 -7.387180 367.000000
78.485420 -6.789158 367.000000
78.485420 -6.191136 367.000000
78.485420 -5.593114 367.000000
78.485420 -4.995092 367.000000
78.485420 -4.397070 367.000000
78.485420 -3.799048 367.000000
78.485420 -3.201027 367.000000
78.485420 -2.603005 367.000000
78.485420 -2.004983 367.000000
78.485420 -1.406961 367.000000
78.485420 -0.808939 367.000000
78.485420 -0.210917 367.000000
78.485420 0.387105 367.000000
78.485420 0.985126 367.000000
78.485420 1.583148 367.000000
78.485420 2.181170 367.000000
78.485420 2.779192 367.000000
78.485420 3.377214 367.000000
78.485420 3.975236 367.000000
78.485420 4.573258 367.000000
78.485420 5.171279 367.000000
78.485420 5.769301 367.000000
78.485420 6.367323 367.000000
78.485420 6.965345 367.000000
78.485420 7.563366 367.000000
78.485420 8.161388 367.000000
78.485420 8.759410 367.000000
78.485420 9.357432 367.000000
78.485420 9.955454 367.000000
78.485420 10.553476 367.000000
78.485420 11.151498 367.000000
78.485420 11.749519 367.000000
78.485420 12.347542 367.000000
78.485420 12.945563 367.000000
78.485420 13.543586 367.000000
78.485420 14.141608 367.000000
78.485420 14.739630 367.000000
78.485420 15.337651 367.000000
78.485420 15.935674 367.000000
78.485420 16.533695 367.000000
78.485420 17.131718 367.000000
78.485420 17.729738 367.000000
78.485420 18.327761 367.000000
78.485420 18.925783 367.000000
79.447777 25.211388 371.500000
