-27.252874 64.572868 290.000000
-27.252874 65.045418 290.000000
-27.252874 65.517967 290.000000
-27.252874 65.990524 290.000000
-27.252874 66.463074 290.000000
-27.252874 66.935623 290.000000
-27.252874 67.408173 290.000000
-27.252874 67.880730 290.000000
-27.355040 68.609520 291.087158
-27.369106 69.119370 291.236847
-27.369106 69.593941 291.236847
-27.410458 70.174362 291.676849
-27.410458 70.649651 291.676849
-27.410458 71.124931 291.676849
-27.417368 71.618271 291.750397
-27.420462 72.101814 291.783325
-27.420462 72.577263 291.783325
-27.428320 73.073662 291.866943
-27.456205 73.624023 292.163666
-27.456205 74.100105 292.163666
-27.500935 74.697678 292.639648
-27.500935 75.174530 292.639648
-27.500935 75.651382 292.639648
-27.470728 76.044617 292.318207
-27.459682 76.490181 292.200684
-27.459682 76.966316 292.200684
-27.456930 77.434692 292.171387
-27.483795 77.987007 292.457245
-27.483795 78.463562 292.457245
-27.483795 78.940117 292.457245
-27.472467 79.383949 292.336731
-27.472467 79.860306 292.336731
-27.374580 80.050415 291.295105
-27.371666 80.516510 291.264099
-27.371666 80.991119 291.264099
-27.368050 81.454964 291.225586
-27.252874 81.584717 290.000000
-27.252874 82.057266 290.000000
-27.252874 82.529816 290.000000
-27.252874 83.002365 290.000000
-27.252874 83.474922 290.000000
-27.252874 83.947472 290.000000
-27.346848 84.711128 291.000000
-27.346848 85.185310 291.000000
-27.346848 85.659492 291.000000
-27.440825 86.429665 292.000000
-27.440825 86.905472 292.000000
-27.440825 87.381287 292.000000
-27.440825 87.857094 292.000000
-27.440825 88.332909 292.000000
-27.440825 88.808716 292.000000
-27.440825 89.284523 292.000000
-27.534800 90.067734 293.000000
-27.534800 90.545174 293.000000
-27.534800 91.022614 293.000000
-27.534800 91.500053 293.000000
-27.534800 91.977493 293.000000
-27.628777 92.770477 294.000000
-27.628777 93.249550 294.000000
-27.628777 93.728615 294.000000
-27.628777 94.207687 294.000000
-27.628777 94.686752 294.000000
-27.628777 95.165825 294.000000
-27.628777 95.644890 294.000000
-27.722750 96.450912 295.000000
-27.722750 96.931618 295.000000
-27.722750 97.412315 295.000000
-27.722750 97.893013 295.000000
-27.722750 98.373711 295.000000
-27.722750 98.854408 295.000000
-27.722750 99.335106 295.000000
-27.816727 100.154160 296.000000
-27.816727 100.636490 296.000000
-27.816727 101.118820 296.000000
-27.910700 101.944397 297.000000
-27.910700 102.428352 297.000000
-27.910700 102.912308 297.000000
-27.910700 103.396271 297.000000
-27.910700 103.880226 297.000000
-27.910700 104.364182 297.000000
-28.098652 105.554192 299.000000
-28.098652 106.041412 299.000000
-28.098652 106.528625 299.000000
-28.098652 107.015846 299.000000
-28.098652 107.503059 299.000000
-28.098652 107.990280 299.000000
-28.098652 108.477493 299.000000
-28.098652 108.964714 299.000000
-28.098652 109.451927 299.000000
-28.192629 110.306839 300.000000
-28.192629 110.795685 300.000000
-28.192629 111.284531 300.000000
-28.286602 112.145943 301.000000
-28.286602 112.636414 301.000000
-28.286602 113.126892 301.000000
-28.380581 113.994835 302.000000
-28.380581 114.486938 302.000000
-28.474554 115.359772 303.000000
-28.474554 115.853508 303.000000
-28.474554 116.347244 303.000000
-28.474554 116.840981 303.000000
-28.474554 117.334709 303.000000
-28.474554 117.828445 303.000000
-28.474554 118.322182 303.000000
-28.474554 118.815918 303.000000
-28.474554 119.309654 303.000000
-28.474554 119.803383 303.000000
-28.474554 120.297119 303.000000
-28.380581 120.392204 302.000000
-28.380581 120.884308 302.000000
-28.380581 121.376411 302.000000
-28.380581 121.868523 302.000000
-28.380581 122.360626 302.000000
-28.309694 122.545898 301.245728
-28.292698 122.962898 301.064850
-28.292698 123.453476 301.064850
-28.289873 123.931694 301.034790
-28.292349 124.433105 301.061127
-28.292349 124.923683 301.061127
-28.292349 125.414261 301.061127
-28.277826 125.840218 300.906616
-28.277826 126.330536 300.906616
-28.276573 126.815224 300.893250
-28.212502 127.017075 300.211487
-28.212502 127.506264 300.211487
-27.981045 19.575251 303.000000
-27.981045 20.068985 303.000000
-27.981045 20.562721 303.000000
-27.981045 21.056456 303.000000
-27.981045 21.550190 303.000000
-27.981045 22.043924 303.000000
-27.981045 22.537659 303.000000
-27.981045 23.031393 303.000000
-27.888700 23.447487 302.000000
-27.888700 23.939592 302.000000
-27.888700 24.431698 302.000000
-27.888700 24.923803 302.000000
-27.888700 25.415909 302.000000
-27.796352 25.822226 301.000000
-27.796352 26.312700 301.000000
-27.796352 26.803177 301.000000
-27.704006 27.202976 300.000000
-27.704006 27.691824 300.000000
-27.704006 28.180670 300.000000
-27.704006 28.669516 300.000000
-27.704006 29.158361 300.000000
-27.704006 29.647207 300.000000
-27.611658 30.035599 299.000000
-27.611658 30.522816 299.000000
-27.611658 31.010033 299.000000
-27.611658 31.497250 299.000000
-27.611658 31.984467 299.000000
-27.519314 32.363083 298.000000
-27.519314 32.848671 298.000000
-27.519314 33.334259 298.000000
-27.426964 33.706352 297.000000
-27.426964 34.190311 297.000000
-27.426964 34.674271 297.000000
-27.334620 35.039848 296.000000
-27.334620 35.522179 296.000000
-27.334620 36.004505 296.000000
-27.242271 36.363567 295.000000
-27.242271 36.844265 295.000000
-27.242271 37.324963 295.000000
-27.242271 37.805664 295.000000
-27.242271 38.286362 295.000000
-27.242271 38.767059 295.000000
-27.149925 39.114716 294.000000
-27.057577 39.459114 293.000000
-26.965233 39.800251 292.000000
-26.965233 40.276062 292.000000
-26.965233 40.751873 292.000000
-26.965233 41.227680 292.000000
-26.965233 41.703491 292.000000
-26.872885 42.034855 291.000000
-26.872885 42.509033 291.000000
-26.872885 42.983215 291.000000
-26.872885 43.457397 291.000000
-26.872885 43.931576 291.000000
-26.872885 44.405758 291.000000
-26.872885 44.879940 291.000000
-26.780539 45.198261 290.000000
-26.780539 45.670815 290.000000
-26.780539 46.143364 290.000000
-26.780539 46.615917 290.000000
-26.780539 47.088467 290.000000
-26.780539 47.561020 290.000000
-26.780539 48.033569 290.000000
-26.780539 48.506123 290.000000
-26.780539 48.978672 290.000000
-26.872885 49.621746 291.000000
-26.872885 50.095928 291.000000
-26.872885 50.570110 291.000000
-26.872885 51.044289 291.000000
-26.872885 51.518471 291.000000
-26.872885 51.992653 291.000000
-26.780539 52.286533 290.000000
-26.780539 52.759083 290.000000
-26.780539 53.231636 290.000000
-26.780539 53.704185 290.000000
-26.780539 54.176739 290.000000
-26.780539 54.649288 290.000000
-26.780539 55.121841 290.000000
-26.780539 55.594391 290.000000
-26.780539 56.066944 290.000000
-26.780539 56.539494 290.000000
-26.780539 57.012047 290.000000
-26.780539 57.484596 290.000000
-26.780539 57.957150 290.000000
-26.780539 58.429699 290.000000
-26.780539 58.902252 290.000000
-26.780539 59.374802 290.000000
-26.780539 59.847355 290.000000
-26.780539 60.319904 290.000000
-26.780539 60.792458 290.000000
-26.780539 61.265007 290.000000
-26.780539 61.737560 290.000000
-26.780539 62.210110 290.000000
-26.780539 62.682663 290.000000
-26.780539 63.155212 290.000000
-26.780539 63.627766 290.000000
-26.780539 64.100319 290.000000
-26.780539 64.572868 290.000000
-26.780539 65.045418 290.000000
-26.780539 65.517967 290.000000
-26.780539 65.990524 290.000000
-26.780539 66.463074 290.000000
-26.780539 66.935623 290.000000
-26.780539 67.408173 290.000000
-26.854620 68.068504 290.802216
-26.880936 68.609520 291.087158
-26.894758 69.119370 291.236847
-26.894758 69.593941 291.236847
-26.916506 70.125175 291.472382
-26.916506 70.600121 291.472382
-26.916506 71.075073 291.472382
-26.922052 71.564758 291.532410
-26.924435 72.046181 291.558197
-26.924435 72.521271 291.558197
-26.940439 73.039757 291.731506
-26.979996 73.623070 292.159882
-26.979996 74.099144 292.159882
-27.024303 74.697678 292.639648
-27.024303 75.174530 292.639648
-27.024303 75.651382 292.639648
-26.994616 76.044617 292.318207
-26.983765 76.490181 292.200684
-26.983765 76.966316 292.200684
-26.981058 77.434692 292.171387
-27.007456 77.987007 292.457245
-27.007456 78.463562 292.457245
-27.007456 78.940117 292.457245
-26.974833 79.320740 292.103973
-26.974833 79.796722 292.103973
-26.907379 80.071968 291.373535
-26.905800 80.542030 291.356415
-26.905800 81.016785 291.356415
-26.903347 81.484123 291.329865
-26.994366 82.236115 292.315460
-26.994366 82.712440 292.315460
-26.994366 83.188766 292.315460
-26.982553 83.628479 292.187561
-26.982553 84.104599 292.187561
-26.780539 83.947472 290.000000
-26.780539 84.420021 290.000000
-26.872885 85.185310 291.000000
-26.872885 85.659492 291.000000
-26.872885 86.133667 291.000000
-26.872885 86.607849 291.000000
-26.872885 87.082031 291.000000
-26.965233 87.857094 292.000000
-26.965233 88.332909 292.000000
-26.965233 88.808716 292.000000
-26.965233 89.284523 292.000000
-27.057577 90.067734 293.000000
-27.057577 90.545174 293.000000
-27.057577 91.022614 293.000000
-27.057577 91.500053 293.000000
-27.057577 91.977493 293.000000
-27.149925 92.770477 294.000000
-27.149925 93.249550 294.000000
-27.149925 93.728615 294.000000
-27.149925 94.207687 294.000000
-27.149925 94.686752 294.000000
-27.149925 95.165825 294.000000
-27.149925 95.644890 294.000000
-27.242271 96.450912 295.000000
-27.242271 96.931618 295.000000
-27.242271 97.412315 295.000000
-27.242271 97.893013 295.000000
-27.242271 98.373711 295.000000
-27.242271 98.854408 295.000000
-27.242271 99.335106 295.000000
-27.334620 100.154160 296.000000
-27.334620 100.636490 296.000000
-27.334620 101.118820 296.000000
-27.426964 101.944397 297.000000
-27.426964 102.428352 297.000000
-27.426964 102.912308 297.000000
-27.426964 103.396271 297.000000
-27.426964 103.880226 297.000000
-27.426964 104.364182 297.000000
-27.426964 104.848145 297.000000
-27.426964 105.332100 297.000000
-27.426964 105.816055 297.000000
-27.426964 106.300018 297.000000
-27.426964 106.783974 297.000000
-27.426964 107.267929 297.000000
-27.519314 108.114693 298.000000
-27.519314 108.600281 298.000000
-27.519314 109.085869 298.000000
-27.519314 109.571449 298.000000
-27.519314 110.057037 298.000000
-27.611658 110.913574 299.000000
-27.704006 111.773376 300.000000
-27.704006 112.262222 300.000000
-27.704006 112.751068 300.000000
-27.704006 113.239914 300.000000
-27.704006 113.728760 300.000000
-27.796352 114.598320 301.000000
-27.888700 115.471153 302.000000
-27.888700 115.963257 302.000000
-27.888700 116.455360 302.000000
-27.888700 116.947464 302.000000
-27.888700 117.439575 302.000000
-27.888700 117.931679 302.000000
-27.888700 118.423782 302.000000
-27.888700 118.915886 302.000000
-27.888700 119.407990 302.000000
-27.888700 119.900101 302.000000
-27.888700 120.392204 302.000000
-27.888700 120.884308 302.000000
-27.888700 121.376411 302.000000
-27.888700 121.868523 302.000000
-27.888700 122.360626 302.000000
-27.888700 122.852730 302.000000
-27.761337 122.781540 300.620819
-27.761337 123.271408 300.620819
-27.762766 123.767639 300.636292
-27.762766 124.257515 300.636292
-27.762766 124.747391 300.636292
-27.760971 125.229195 300.616882
-27.748152 125.660973 300.478027
-27.748152 126.150597 300.478027
-27.747818 126.638702 300.474426
-27.723536 127.017075 300.211487
-27.723536 127.506264 300.211487
-27.682480 127.805916 299.766907
-27.677511 128.271362 299.713104
-27.677511 128.759735 299.713104
-27.487537 19.575251 303.000000
-27.487537 20.068985 303.000000
-27.487537 20.562721 303.000000
-27.487537 21.056456 303.000000
-27.487537 21.550190 303.000000
-27.487537 22.043924 303.000000
-27.487537 22.537659 303.000000
-27.487537 23.031393 303.000000
-27.396820 23.447487 302.000000
-27.396820 23.939592 302.000000
-27.396820 24.431698 302.000000
-27.396820 24.923803 302.000000
-27.396820 25.415909 302.000000
-27.396820 25.908014 302.000000
-27.396820 26.400118 302.000000
-27.306101 26.803177 301.000000
-27.215384 27.202976 300.000000
-27.215384 27.691824 300.000000
-27.215384 28.180670 300.000000
-27.215384 28.669516 300.000000
-27.215384 29.158361 300.000000
-27.124664 29.548382 299.000000
-27.124664 30.035599 299.000000
-27.124664 30.522816 299.000000
-27.124664 31.010033 299.000000
-27.033947 31.391909 298.000000
-27.033947 31.877495 298.000000
-27.033947 32.363083 298.000000
-26.943228 32.738438 297.000000
-26.943228 33.222397 297.000000
-26.943228 33.706352 297.000000
-26.943228 34.190311 297.000000
-26.943228 34.674271 297.000000
-26.852512 35.039848 296.000000
-26.852512 35.522179 296.000000
-26.852512 36.004505 296.000000
-26.852512 36.486835 296.000000
-26.761791 36.844265 295.000000
-26.761791 37.324963 295.000000
-26.761791 37.805664 295.000000
-26.761791 38.286362 295.000000
-26.761791 38.767059 295.000000
-26.671076 39.114716 294.000000
-26.580359 39.459114 293.000000
-26.580359 39.936554 293.000000
-26.580359 40.413994 293.000000
-26.489639 40.751873 292.000000
-26.489639 41.227680 292.000000
-26.489639 41.703491 292.000000
-26.489639 42.179302 292.000000
-26.398922 42.509033 291.000000
-26.398922 42.983215 291.000000
-26.398922 43.457397 291.000000
-26.398922 43.931576 291.000000
-26.398922 44.405758 291.000000
-26.398922 44.879940 291.000000
-26.308203 45.198261 290.000000
-26.308203 45.670815 290.000000
-26.308203 46.143364 290.000000
-26.308203 46.615917 290.000000
-26.308203 47.088467 290.000000
-26.308203 47.561020 290.000000
-26.308203 48.033569 290.000000
-26.308203 48.506123 290.000000
-26.308203 48.978672 290.000000
-26.398922 49.621746 291.000000
-26.398922 50.095928 291.000000
-26.398922 50.570110 291.000000
-26.398922 51.044289 291.000000
-26.398922 51.518471 291.000000
-26.398922 51.992653 291.000000
-26.308203 52.286533 290.000000
-26.308203 52.759083 290.000000
-26.308203 53.231636 290.000000
-26.308203 53.704185 290.000000
-26.308203 54.176739 290.000000
-26.308203 54.649288 290.000000
-26.308203 55.121841 290.000000
-26.308203 55.594391 290.000000
-26.308203 56.066944 290.000000
-26.308203 56.539494 290.000000
-26.308203 57.012047 290.000000
-26.308203 57.484596 290.000000
-26.308203 57.957150 290.000000
-26.308203 58.429699 290.000000
-26.308203 58.902252 290.000000
-26.308203 59.374802 290.000000
-26.308203 59.847355 290.000000
-26.308203 60.319904 290.000000
-26.308203 60.792458 290.000000
-26.308203 61.265007 290.000000
-26.308203 61.737560 290.000000
-26.308203 62.210110 290.000000
-26.308203 62.682663 290.000000
-26.308203 63.155212 290.000000
-26.308203 63.627766 290.000000
-26.308203 64.100319 290.000000
-26.308203 64.572868 290.000000
-26.308203 65.045418 290.000000
-26.308203 65.517967 290.000000
-26.308203 65.990524 290.000000
-26.308203 66.463074 290.000000
-26.308203 66.935623 290.000000
-26.308203 67.408173 290.000000
-26.380978 68.068504 290.802216
-26.406828 68.609520 291.087158
-26.420406 69.119370 291.236847
-26.420406 69.593941 291.236847
-26.441774 70.125175 291.472382
-26.441774 70.600121 291.472382
-26.441774 71.075073 291.472382
-26.447220 71.564758 291.532410
-26.449560 72.046181 291.558197
-26.449560 72.521271 291.558197
-26.465282 73.039757 291.731506
-26.504145 73.623070 292.159882
-26.504145 74.099144 292.159882
-26.541124 74.679276 292.567535
-26.541124 75.156006 292.567535
-26.541124 75.632736 292.567535
-26.518507 76.044617 292.318207
-26.507845 76.490181 292.200684
-26.507845 76.966316 292.200684
-26.505188 77.434692 292.171387
-26.517099 77.945793 292.302704
-26.517099 78.422096 292.302704
-26.517099 78.898399 292.302704
-26.499071 79.320740 292.103973
-26.499071 79.796722 292.103973
-26.432808 80.071968 291.373535
-26.431255 80.542030 291.356415
-26.431255 81.016785 291.356415
-26.428846 81.484123 291.329865
-26.518257 82.236115 292.315460
-26.518257 82.712440 292.315460
-26.518257 83.188766 292.315460
-26.506655 83.628479 292.187561
-26.506655 84.104599 292.187561
-26.308203 83.947472 290.000000
-26.308203 84.420021 290.000000
-26.398922 85.185310 291.000000
-26.398922 85.659492 291.000000
-26.398922 86.133667 291.000000
-26.398922 86.607849 291.000000
-26.398922 87.082031 291.000000
-26.489639 87.857094 292.000000
-26.489639 88.332909 292.000000
-26.489639 88.808716 292.000000
-26.489639 89.284523 292.000000
-26.489639 89.760338 292.000000
-26.489639 90.236145 292.000000
-26.489639 90.711960 292.000000
-26.489639 91.187767 292.000000
-26.489639 91.663574 292.000000
-26.489639 92.139389 292.000000
-26.489639 92.615196 292.000000
-26.489639 93.091011 292.000000
-26.580359 93.887245 293.000000
-26.580359 94.364685 293.000000
-26.580359 94.842125 293.000000
-26.580359 95.319565 293.000000
-26.671076 96.123962 294.000000
-26.671076 96.603035 294.000000
-26.671076 97.082100 294.000000
-26.671076 97.561172 294.000000
-26.671076 98.040237 294.000000
-26.671076 98.519310 294.000000
-26.671076 98.998375 294.000000
-26.671076 99.477448 294.000000
-26.761791 100.296509 295.000000
-26.852512 101.118820 296.000000
-26.852512 101.601143 296.000000
-26.852512 102.083473 296.000000
-26.852512 102.565804 296.000000
-26.852512 103.048134 296.000000
-26.852512 103.530457 296.000000
-26.852512 104.012787 296.000000
-26.761791 104.142097 295.000000
-26.761791 104.622795 295.000000
-26.852512 105.459770 296.000000
-26.852512 105.942101 296.000000
-26.852512 106.424431 296.000000
-26.852512 106.906754 296.000000
-26.943228 107.751884 297.000000
-26.943228 108.235847 297.000000
-26.943228 108.719803 297.000000
-26.943228 109.203758 297.000000
-26.943228 109.687721 297.000000
-26.943228 110.171677 297.000000
-27.033947 111.028214 298.000000
-27.033947 111.513802 298.000000
-27.033947 111.999390 298.000000
-27.124664 112.862442 299.000000
-27.124664 113.349663 299.000000
-27.215384 114.217606 300.000000
-27.215384 114.706451 300.000000
-27.215384 115.195297 300.000000
-27.215384 115.684143 300.000000
-27.215384 116.172989 300.000000
-27.306101 117.050697 301.000000
-27.306101 117.541176 301.000000
-27.306101 118.031647 301.000000
-27.306101 118.522125 301.000000
-27.306101 119.012604 301.000000
-27.306101 119.503075 301.000000
-27.396820 120.392204 302.000000
-27.396820 120.884308 302.000000
-27.396820 121.376411 302.000000
-27.396820 121.868523 302.000000
-27.396820 122.360626 302.000000
-27.396820 122.852730 302.000000
-27.396820 123.344833 302.000000
-27.396820 123.836937 302.000000
-27.227640 123.561317 300.135132
-27.235027 124.084023 300.216553
-27.235027 124.573227 300.216553
-27.235027 125.062431 300.216553
-27.224924 125.505035 300.105164
-27.224924 125.994064 300.105164
-27.224924 126.483078 300.105164
-27.203865 126.873886 299.873047
-27.203865 127.362526 299.873047
-27.194235 127.805916 299.766907
-27.189356 128.271362 299.713104
-27.189356 128.759735 299.713104
-27.163977 129.127472 299.433350
-27.153044 129.563232 299.312836
-27.153044 130.050949 299.312836
-26.994028 20.562721 303.000000
-26.994028 21.056456 303.000000
-26.994028 21.550190 303.000000
-26.994028 22.043924 303.000000
-26.994028 22.537659 303.000000
-26.994028 23.031393 303.000000
-26.904940 23.447487 302.000000
-26.904940 23.939592 302.000000
-26.904940 24.431698 302.000000
-26.904940 24.923803 302.000000
-26.904940 25.415909 302.000000
-26.904940 25.908014 302.000000
-26.904940 26.400118 302.000000
-26.815849 26.803177 301.000000
-26.726761 27.202976 300.000000
-26.726761 27.691824 300.000000
-26.726761 28.180670 300.000000
-26.726761 28.669516 300.000000
-26.726761 29.158361 300.000000
-26.637671 29.548382 299.000000
-26.637671 30.035599 299.000000
-26.637671 30.522816 299.000000
-26.637671 31.010033 299.000000
-26.548582 31.391909 298.000000
-26.548582 31.877495 298.000000
-26.548582 32.363083 298.000000
-26.459492 32.738438 297.000000
-26.459492 33.222397 297.000000
-26.459492 33.706352 297.000000
-26.459492 34.190311 297.000000
-26.459492 34.674271 297.000000
-26.370405 35.039848 296.000000
-26.370405 35.522179 296.000000
-26.370405 36.004505 296.000000
-26.370405 36.486835 296.000000
-26.281315 36.844265 295.000000
-26.281315 37.324963 295.000000
-26.281315 37.805664 295.000000
-26.281315 38.286362 295.000000
-26.281315 38.767059 295.000000
-26.192226 39.114716 294.000000
-26.103136 39.459114 293.000000
-26.103136 39.936554 293.000000
-26.103136 40.413994 293.000000
-26.014048 40.751873 292.000000
-26.014048 41.227680 292.000000
-26.014048 41.703491 292.000000
-26.014048 42.179302 292.000000
-26.014048 42.655113 292.000000
-26.014048 43.130924 292.000000
-25.924957 43.457397 291.000000
-25.924957 43.931576 291.000000
-25.924957 44.405758 291.000000
-25.924957 44.879940 291.000000
-25.924957 45.354118 291.000000
-25.924957 45.828300 291.000000
-25.835869 46.143364 290.000000
-25.835869 46.615917 290.000000
-25.835869 47.088467 290.000000
-25.835869 47.561020 290.000000
-25.835869 48.033569 290.000000
-25.835869 48.506123 290.000000
-25.924957 49.147568 291.000000
-25.924957 49.621746 291.000000
-25.924957 50.095928 291.000000
-25.924957 50.570110 291.000000
-25.924957 51.044289 291.000000
-25.924957 51.518471 291.000000
-25.924957 51.992653 291.000000
-25.835869 52.286533 290.000000
-25.835869 52.759083 290.000000
-25.835869 53.231636 290.000000
-25.835869 53.704185 290.000000
-25.835869 54.176739 290.000000
-25.835869 54.649288 290.000000
-25.835869 55.121841 290.000000
-25.835869 55.594391 290.000000
-25.835869 56.066944 290.000000
-25.835869 56.539494 290.000000
-25.835869 57.012047 290.000000
-25.835869 57.484596 290.000000
-25.835869 57.957150 290.000000
-25.835869 58.429699 290.000000
-25.835869 58.902252 290.000000
-25.835869 59.374802 290.000000
-25.835869 59.847355 290.000000
-25.835869 60.319904 290.000000
-25.835869 60.792458 290.000000
-25.835869 61.265007 290.000000
-25.835869 61.737560 290.000000
-25.835869 62.210110 290.000000
-25.835869 62.682663 290.000000
-25.835869 63.155212 290.000000
-25.835869 63.627766 290.000000
-25.835869 64.100319 290.000000
-25.835869 64.572868 290.000000
-25.835869 65.045418 290.000000
-25.835869 65.517967 290.000000
-25.835869 65.990524 290.000000
-25.835869 66.463074 290.000000
-25.876364 67.040543 290.454559
-25.876364 67.513840 290.454559
-25.907337 68.068504 290.802216
-25.909504 68.548096 290.826538
-25.921869 69.054932 290.965332
-25.921869 69.529053 290.965332
-25.941113 70.055153 291.181335
-25.941113 70.529625 291.181335
-25.941113 71.004105 291.181335
-25.946699 71.493973 291.244049
-25.947819 71.971657 291.256622
-25.947819 72.446259 291.256622
-25.962809 72.962975 291.424866
-26.001413 73.547043 291.858185
-26.001413 74.022629 291.858185
-26.038092 74.603294 292.269897
-26.038092 75.079544 292.269897
-26.038092 75.555794 292.269897
-26.023603 75.989746 292.107269
-26.024048 76.467033 292.112274
-26.024048 76.943031 292.112274
-26.024048 77.419022 292.112274
-26.040213 77.943398 292.293701
-26.040213 78.419685 292.293701
-26.040213 78.895973 292.293701
-26.019762 79.309921 292.064148
-26.019762 79.785843 292.064148
-25.958235 80.071968 291.373535
-25.956711 80.542030 291.356415
-25.956711 81.016785 291.356415
-25.998655 81.623238 291.827240
-26.042150 82.236115 292.315460
-26.042150 82.712440 292.315460
-26.042150 83.188766 292.315460
-26.030756 83.628479 292.187561
-26.030756 84.104599 292.187561
-26.018225 84.540001 292.046906
-25.940460 84.761780 291.174011
-25.940460 85.236252 291.174011
-25.835869 85.365128 290.000000
-25.924957 86.133667 291.000000
-25.924957 86.607849 291.000000
-25.924957 87.082031 291.000000
-25.924957 87.556213 291.000000
-25.924957 88.030396 291.000000
-25.924957 88.504578 291.000000
-25.924957 88.978752 291.000000
-25.924957 89.452934 291.000000
-25.924957 89.927116 291.000000
-26.014048 90.711960 292.000000
-26.014048 91.187767 292.000000
-26.014048 91.663574 292.000000
-26.014048 92.139389 292.000000
-26.014048 92.615196 292.000000
-26.014048 93.091011 292.000000
-26.014048 93.566818 292.000000
-26.014048 94.042625 292.000000
-26.014048 94.518440 292.000000
-26.014048 94.994247 292.000000
-26.103136 95.797005 293.000000
-26.103136 96.274445 293.000000
-26.103136 96.751884 293.000000
-26.103136 97.229324 293.000000
-26.103136 97.706764 293.000000
-26.103136 98.184204 293.000000
-26.103136 98.661644 293.000000
-26.103136 99.139084 293.000000
-26.103136 99.616524 293.000000
-26.103136 100.093964 293.000000
-26.103136 100.571404 293.000000
-26.103136 101.048843 293.000000
-26.192226 101.872795 294.000000
-26.192226 102.351860 294.000000
-26.192226 102.830933 294.000000
-26.192226 103.309998 294.000000
-26.192226 103.789070 294.000000
-26.192226 104.268143 294.000000
-26.192226 104.747208 294.000000
-26.281315 105.584190 295.000000
-26.281315 106.064888 295.000000
-26.281315 106.545593 295.000000
-26.281315 107.026283 295.000000
-26.281315 107.506981 295.000000
-26.370405 108.353745 296.000000
-26.370405 108.836067 296.000000
-26.370405 109.318398 296.000000
-26.459492 110.171677 297.000000
-26.459492 110.655632 297.000000
-26.459492 111.139595 297.000000
-26.459492 111.623550 297.000000
-26.459492 112.107506 297.000000
-26.459492 112.591469 297.000000
-26.726761 114.217606 300.000000
-26.726761 114.706451 300.000000
-26.726761 115.195297 300.000000
-26.726761 115.684143 300.000000
-26.726761 116.172989 300.000000
-26.815849 117.050697 301.000000
-26.815849 117.541176 301.000000
-26.815849 118.031647 301.000000
-26.815849 118.522125 301.000000
-26.815849 119.012604 301.000000
-26.815849 119.503075 301.000000
-26.904940 120.392204 302.000000
-26.904940 120.884308 302.000000
-26.904940 121.376411 302.000000
-26.904940 121.868523 302.000000
-26.904940 122.360626 302.000000
-26.904940 122.852730 302.000000
-26.904940 123.344833 302.000000
-26.904940 123.836937 302.000000
-26.738798 123.561317 300.135132
-26.746052 124.084023 300.216553
-26.746052 124.573227 300.216553
-26.746052 125.062431 300.216553
-26.736130 125.505035 300.105164
-26.736130 125.994064 300.105164
-26.736130 126.483078 300.105164
-26.715450 126.873886 299.873047
-26.715450 127.362526 299.873047
-26.705996 127.805916 299.766907
-26.701200 128.271362 299.713104
-26.701200 128.759735 299.713104
-26.676279 129.127472 299.433350
-26.665543 129.563232 299.312836
-26.665543 130.050949 299.312836
-26.625200 130.341187 298.860016
-26.625200 130.828186 298.860016
-26.625200 131.315170 298.860016
-26.500519 21.056456 303.000000
-26.500519 21.550190 303.000000
-26.500519 22.043924 303.000000
-26.500519 22.537659 303.000000
-26.500519 23.031393 303.000000
-26.413059 23.447487 302.000000
-26.413059 23.939592 302.000000
-26.413059 24.431698 302.000000
-26.413059 24.923803 302.000000
-26.413059 25.415909 302.000000
-26.413059 25.908014 302.000000
-26.413059 26.400118 302.000000
-26.413059 26.892221 302.000000
-26.325598 27.293652 301.000000
-26.325598 27.784128 301.000000
-26.238138 28.180670 300.000000
-26.238138 28.669516 300.000000
-26.238138 29.158361 300.000000
-26.238138 29.647207 300.000000
-26.150677 30.035599 299.000000
-26.150677 30.522816 299.000000
-26.150677 31.010033 299.000000
-26.063217 31.391909 298.000000
-26.063217 31.877495 298.000000
-26.063217 32.363083 298.000000
-25.975756 32.738438 297.000000
-25.975756 33.222397 297.000000
-25.975756 33.706352 297.000000
-25.975756 34.190311 297.000000
-25.975756 34.674271 297.000000
-25.888296 35.039848 296.000000
-25.888296 35.522179 296.000000
-25.888296 36.004505 296.000000
-25.888296 36.486835 296.000000
-25.800837 36.844265 295.000000
-25.800837 37.324963 295.000000
-25.800837 37.805664 295.000000
-25.800837 38.286362 295.000000
-25.800837 38.767059 295.000000
-25.713375 39.114716 294.000000
-25.625916 39.459114 293.000000
-25.625916 39.936554 293.000000
-25.625916 40.413994 293.000000
-25.538454 40.751873 292.000000
-25.538454 41.227680 292.000000
-25.538454 41.703491 292.000000
-25.538454 42.179302 292.000000
-25.538454 42.655113 292.000000
-25.538454 43.130924 292.000000
-25.538454 43.606735 292.000000
-25.450994 43.931576 291.000000
-25.450994 44.405758 291.000000
-25.450994 44.879940 291.000000
-25.450994 45.354118 291.000000
-25.450994 45.828300 291.000000
-25.450994 46.302483 291.000000
-25.450994 46.776661 291.000000
-25.450994 47.250843 291.000000
-25.363533 47.561020 290.000000
-25.450994 48.199203 291.000000
-25.450994 48.673386 291.000000
-25.450994 49.147568 291.000000
-25.450994 49.621746 291.000000
-25.450994 50.095928 291.000000
-25.450994 50.570110 291.000000
-25.450994 51.044289 291.000000
-25.450994 51.518471 291.000000
-25.450994 51.992653 291.000000
-25.450994 52.466831 291.000000
-25.450994 52.941013 291.000000
-25.363533 53.231636 290.000000
-25.363533 53.704185 290.000000
-25.363533 54.176739 290.000000
-25.363533 54.649288 290.000000
-25.363533 55.121841 290.000000
-25.363533 55.594391 290.000000
-25.363533 56.066944 290.000000
-25.363533 56.539494 290.000000
-25.363533 57.012047 290.000000
-25.363533 57.484596 290.000000
-25.363533 57.957150 290.000000
-25.363533 58.429699 290.000000
-25.363533 58.902252 290.000000
-25.363533 59.374802 290.000000
-25.363533 59.847355 290.000000
-25.363533 60.319904 290.000000
-25.363533 60.792458 290.000000
-25.363533 61.265007 290.000000
-25.363533 61.737560 290.000000
-25.363533 62.210110 290.000000
-25.363533 62.682663 290.000000
-25.363533 63.155212 290.000000
-25.363533 63.627766 290.000000
-25.363533 64.100319 290.000000
-25.363533 64.572868 290.000000
-25.363533 65.045418 290.000000
-25.363533 65.517967 290.000000
-25.363533 65.990524 290.000000
-25.390152 66.532829 290.304352
-25.403290 67.040543 290.454559
-25.403290 67.513840 290.454559
-25.412260 68.011139 290.557129
-25.414919 68.491760 290.587524
-25.421011 68.981804 290.657196
-25.421011 69.455421 290.657196
-25.440441 69.982491 290.879333
-25.440441 70.456474 290.879333
-25.440441 70.930458 290.879333
-25.447908 71.425400 290.964722
-25.447908 71.899529 290.964722
-25.447908 72.373650 290.964722
-25.462170 72.888596 291.127777
-25.500551 73.473572 291.566620
-25.500551 73.948677 291.566620
-25.516407 74.470062 291.747925
-25.516407 74.945457 291.747925
-25.516407 75.420860 291.747925
-25.515558 75.893738 291.738220
-25.514128 76.364838 291.721863
-25.514128 76.840195 291.721863
-25.514128 77.315552 291.721863
-25.550438 77.901611 292.137024
-25.550438 78.377647 292.137024
-25.550438 78.853683 292.137024
-25.528118 79.260422 291.881836
-25.528118 79.736038 291.881836
-25.480331 80.061501 291.335449
-25.473846 80.515732 291.261292
-25.473846 80.990341 291.261292
-25.523344 81.623238 291.827240
-25.551298 82.188683 292.146851
-25.551298 82.664734 292.146851
-25.551298 83.140778 292.146851
-25.542557 83.588226 292.046906
-25.542557 84.064110 292.046906
-25.542557 84.540001 292.046906
-25.466213 84.761780 291.174011
-25.466213 85.236252 291.174011
-25.444452 85.637474 290.925201
-25.441774 86.102470 290.894592
-25.363533 86.310226 290.000000
-25.363533 86.782776 290.000000
-25.450994 87.556213 291.000000
-25.450994 88.030396 291.000000
-25.450994 88.504578 291.000000
-25.450994 88.978752 291.000000
-25.450994 89.452934 291.000000
-25.450994 89.927116 291.000000
-25.450994 90.401299 291.000000
-25.450994 90.875481 291.000000
-25.450994 91.349663 291.000000
-25.538454 92.139389 292.000000
-25.538454 92.615196 292.000000
-25.538454 93.091011 292.000000
-25.538454 93.566818 292.000000
-25.538454 94.042625 292.000000
-25.538454 94.518440 292.000000
-25.538454 94.994247 292.000000
-25.538454 95.470062 292.000000
-25.538454 95.945869 292.000000
-25.538454 96.421684 292.000000
-25.538454 96.897491 292.000000
-25.538454 97.373299 292.000000
-25.538454 97.849113 292.000000
-25.538454 98.324921 292.000000
-25.538454 98.800735 292.000000
-25.538454 99.276543 292.000000
-25.538454 99.752350 292.000000
-25.538454 100.228165 292.000000
-25.538454 100.703972 292.000000
-25.713375 101.872795 294.000000
-25.713375 102.351860 294.000000
-25.713375 102.830933 294.000000
-25.713375 103.309998 294.000000
-25.713375 103.789070 294.000000
-25.713375 104.268143 294.000000
-25.713375 104.747208 294.000000
-25.800837 105.584190 295.000000
-25.800837 106.064888 295.000000
-25.800837 106.545593 295.000000
-25.800837 107.026283 295.000000
-25.800837 107.506981 295.000000
-25.888296 108.353745 296.000000
-25.888296 108.836067 296.000000
-25.888296 109.318398 296.000000
-25.975756 110.171677 297.000000
-25.975756 110.655632 297.000000
-25.975756 111.139595 297.000000
-25.975756 111.623550 297.000000
-25.975756 112.107506 297.000000
-25.975756 112.591469 297.000000
-26.063217 113.456154 298.000000
-26.150677 114.324097 299.000000
-26.150677 114.811310 299.000000
-26.150677 115.298531 299.000000
-26.238138 116.172989 300.000000
-26.238138 116.661835 300.000000
-26.238138 117.150681 300.000000
-26.238138 117.639526 300.000000
-26.325598 118.522125 301.000000
-26.325598 119.012604 301.000000
-26.325598 119.503075 301.000000
-26.325598 119.993553 301.000000
-26.325598 120.484024 301.000000
-26.325598 120.974503 301.000000
-26.413059 121.868523 302.000000
-26.413059 122.360626 302.000000
-26.413059 122.852730 302.000000
-26.413059 123.344833 302.000000
-26.413059 123.836937 302.000000
-26.238138 123.505684 300.000000
-26.225555 123.935066 299.856140
-26.225555 124.423683 299.856140
-26.225555 124.912285 299.856140
-26.227776 125.411522 299.881531
-26.227776 125.900177 299.881531
-26.227776 126.388817 299.881531
-26.206488 126.774498 299.638123
-26.206488 127.262749 299.638123
-26.194122 127.690727 299.496735
-26.190838 128.162674 299.459167
-26.190838 128.650635 299.459167
-26.188578 129.127472 299.433350
-26.178038 129.563232 299.312836
-26.178038 130.050949 299.312836
-26.138433 130.341187 298.860016
-26.138433 130.828186 298.860016
-26.138433 131.315170 298.860016
-26.007010 21.056456 303.000000
-26.007010 21.550190 303.000000
-26.007010 22.043924 303.000000
-26.007010 22.537659 303.000000
-26.007010 23.031393 303.000000
-26.007010 23.525129 303.000000
-26.007010 24.018864 303.000000
-25.921179 24.431698 302.000000
-25.921179 24.923803 302.000000
-25.921179 25.415909 302.000000
-25.921179 25.908014 302.000000
-25.921179 26.400118 302.000000
-25.921179 26.892221 302.000000
-25.835346 27.293652 301.000000
-25.835346 27.784128 301.000000
-25.835346 28.274603 301.000000
-25.749516 28.669516 300.000000
-25.749516 29.158361 300.000000
-25.749516 29.647207 300.000000
-25.663683 30.035599 299.000000
-25.663683 30.522816 299.000000
-25.663683 31.010033 299.000000
-25.663683 31.497250 299.000000
-25.663683 31.984467 299.000000
-25.577852 32.363083 298.000000
-25.577852 32.848671 298.000000
-25.577852 33.334259 298.000000
-25.492020 33.706352 297.000000
-25.492020 34.190311 297.000000
-25.492020 34.674271 297.000000
-25.492020 35.158226 297.000000
-25.406189 35.522179 296.000000
-25.406189 36.004505 296.000000
-25.406189 36.486835 296.000000
-25.320358 36.844265 295.000000
-25.320358 37.324963 295.000000
-25.320358 37.805664 295.000000
-25.320358 38.286362 295.000000
-25.320358 38.767059 295.000000
-25.234526 39.114716 294.000000
-25.234526 39.593788 294.000000
-25.148693 39.936554 293.000000
-25.148693 40.413994 293.000000
-25.148693 40.891434 293.000000
-25.062862 41.227680 292.000000
-25.062862 41.703491 292.000000
-25.062862 42.179302 292.000000
-25.062862 42.655113 292.000000
-25.062862 43.130924 292.000000
-25.062862 43.606735 292.000000
-24.977030 43.931576 291.000000
-24.977030 44.405758 291.000000
-24.977030 44.879940 291.000000
-24.977030 45.354118 291.000000
-24.977030 45.828300 291.000000
-24.977030 46.302483 291.000000
-24.977030 46.776661 291.000000
-24.977030 47.250843 291.000000
-24.891199 47.561020 290.000000
-24.977030 48.199203 291.000000
-24.977030 48.673386 291.000000
-24.977030 49.147568 291.000000
-24.977030 49.621746 291.000000
-24.977030 50.095928 291.000000
-24.977030 50.570110 291.000000
-24.977030 51.044289 291.000000
-24.977030 51.518471 291.000000
-24.977030 51.992653 291.000000
-24.977030 52.466831 291.000000
-24.977030 52.941013 291.000000
-24.891199 53.231636 290.000000
-24.891199 53.704185 290.000000
-24.891199 54.176739 290.000000
-24.891199 54.649288 290.000000
-24.891199 55.121841 290.000000
-24.891199 55.594391 290.000000
-24.891199 56.066944 290.000000
-24.891199 56.539494 290.000000
-24.891199 57.012047 290.000000
-24.891199 57.484596 290.000000
-24.891199 57.957150 290.000000
-24.891199 58.429699 290.000000
-24.891199 58.902252 290.000000
-24.891199 59.374802 290.000000
-24.891199 59.847355 290.000000
-24.891199 60.319904 290.000000
-24.891199 60.792458 290.000000
-24.891199 61.265007 290.000000
-24.891199 61.737560 290.000000
-24.891199 62.210110 290.000000
-24.891199 62.682663 290.000000
-24.891199 63.155212 290.000000
-24.891199 63.627766 290.000000
-24.891199 64.100319 290.000000
-24.891199 64.572868 290.000000
-24.891199 65.045418 290.000000
-24.891199 65.517967 290.000000
-24.891199 65.990524 290.000000
-24.917322 66.532829 290.304352
-24.930214 67.040543 290.454559
-24.930214 67.513840 290.454559
-24.939016 68.011139 290.557129
-24.941626 68.491760 290.587524
-24.947607 68.981804 290.657196
-24.947607 69.455421 290.657196
-24.966673 69.982491 290.879333
-24.966673 70.456474 290.879333
-24.966673 70.930458 290.879333
-24.974001 71.425400 290.964722
-24.974001 71.899529 290.964722
-24.974001 72.373650 290.964722
-24.987997 72.888596 291.127777
-25.025663 73.473572 291.566620
-25.025663 73.948677 291.566620
-25.041225 74.470062 291.747925
-25.041225 74.945457 291.747925
-25.041225 75.420860 291.747925
-25.040392 75.893738 291.738220
-25.038990 76.364838 291.721863
-25.038990 76.840195 291.721863
-25.038990 77.315552 291.721863
-25.074623 77.901611 292.137024
-25.074623 78.377647 292.137024
-25.074623 78.853683 292.137024
-25.052719 79.260422 291.881836
-25.052719 79.736038 291.881836
-25.005823 80.061501 291.335449
-24.999456 80.515732 291.261292
-24.999456 80.990341 291.261292
-25.048033 81.623238 291.827240
-25.075466 82.188683 292.146851
-25.075466 82.664734 292.146851
-25.075466 83.140778 292.146851
-25.066887 83.588226 292.046906
-25.066887 84.064110 292.046906
-25.066887 84.540001 292.046906
-24.991966 84.761780 291.174011
-24.991966 85.236252 291.174011
-24.970610 85.637474 290.925201
-24.967983 86.102470 290.894592
-24.891199 86.310226 290.000000
-24.891199 86.782776 290.000000
-24.977030 87.556213 291.000000
-24.977030 88.030396 291.000000
-24.977030 88.504578 291.000000
-24.977030 88.978752 291.000000
-24.977030 89.452934 291.000000
-24.977030 89.927116 291.000000
-24.977030 90.401299 291.000000
-24.977030 90.875481 291.000000
-24.977030 91.349663 291.000000
-25.062862 92.139389 292.000000
-25.062862 92.615196 292.000000
-25.062862 93.091011 292.000000
-25.062862 93.566818 292.000000
-25.062862 94.042625 292.000000
-25.062862 94.518440 292.000000
-25.062862 94.994247 292.000000
-25.062862 95.470062 292.000000
-25.062862 95.945869 292.000000
-25.062862 96.421684 292.000000
-25.062862 96.897491 292.000000
-25.062862 97.373299 292.000000
-25.062862 97.849113 292.000000
-25.062862 98.324921 292.000000
-25.062862 98.800735 292.000000
-25.062862 99.276543 292.000000
-25.062862 99.752350 292.000000
-25.062862 100.228165 292.000000
-25.062862 100.703972 292.000000
-25.062862 101.179787 292.000000
-25.062862 101.655594 292.000000
-25.062862 102.131401 292.000000
-25.148693 102.958603 293.000000
-25.148693 103.436043 293.000000
-25.148693 103.913483 293.000000
-25.234526 104.747208 294.000000
-25.234526 105.226280 294.000000
-25.234526 105.705345 294.000000
-25.234526 106.184418 294.000000
-25.320358 107.026283 295.000000
-25.320358 107.506981 295.000000
-25.320358 107.987679 295.000000
-25.320358 108.468376 295.000000
-25.320358 108.949081 295.000000
-25.320358 109.429779 295.000000
-25.406189 110.283058 296.000000
-25.406189 110.765381 296.000000
-25.406189 111.247711 296.000000
-25.492020 112.107506 297.000000
-25.492020 112.591469 297.000000
-25.492020 113.075424 297.000000
-25.492020 113.559380 297.000000
-25.492020 114.043343 297.000000
-25.577852 114.912910 298.000000
-25.577852 115.398499 298.000000
-25.663683 116.272964 299.000000
-25.663683 116.760178 299.000000
-25.749516 117.639526 300.000000
-25.749516 118.128372 300.000000
-25.749516 118.617218 300.000000
-25.749516 119.106064 300.000000
-25.749516 119.594910 300.000000
-25.749516 120.083763 300.000000
-25.749516 120.572609 300.000000
-25.749516 121.061455 300.000000
-25.749516 121.550301 300.000000
-25.749516 122.039146 300.000000
-25.749516 122.527992 300.000000
-25.749516 123.016838 300.000000
-25.749516 123.505684 300.000000
-25.749516 123.994530 300.000000
-25.749516 124.483376 300.000000
-25.749516 124.972221 300.000000
-25.749516 125.461067 300.000000
-25.749516 125.949913 300.000000
-25.682907 126.111694 299.223969
-25.661718 126.494827 298.977112
-25.661718 126.982002 298.977112
-25.650301 127.412468 298.844086
-25.642429 127.860184 298.752380
-25.642429 128.346985 298.752380
-25.636999 128.806534 298.689117
-25.641981 129.318375 298.747162
-25.641981 129.805161 298.747162
-25.664886 130.408356 299.014008
-25.666447 130.903549 299.032196
-25.666447 131.390823 299.032196
-25.666447 131.878098 299.032196
-25.658142 132.322525 298.935425
-25.513502 22.043924 303.000000
-25.513502 22.537659 303.000000
-25.513502 23.031393 303.000000
-25.513502 23.525129 303.000000
-25.513502 24.018864 303.000000
-25.429298 24.431698 302.000000
-25.429298 24.923803 302.000000
-25.429298 25.415909 302.000000
-25.429298 25.908014 302.000000
-25.429298 26.400118 302.000000
-25.429298 26.892221 302.000000
-25.345095 27.293652 301.000000
-25.345095 27.784128 301.000000
-25.345095 28.274603 301.000000
-25.260893 28.669516 300.000000
-25.260893 29.158361 300.000000
-25.260893 29.647207 300.000000
-25.176689 30.035599 299.000000
-25.176689 30.522816 299.000000
-25.176689 31.010033 299.000000
-25.176689 31.497250 299.000000
-25.176689 31.984467 299.000000
-25.092485 32.363083 298.000000
-25.092485 32.848671 298.000000
-25.092485 33.334259 298.000000
-25.008284 33.706352 297.000000
-25.008284 34.190311 297.000000
-25.008284 34.674271 297.000000
-25.008284 35.158226 297.000000
-24.924082 35.522179 296.000000
-24.924082 36.004505 296.000000
-24.924082 36.486835 296.000000
-24.839878 36.844265 295.000000
-24.839878 37.324963 295.000000
-24.839878 37.805664 295.000000
-24.839878 38.286362 295.000000
-24.839878 38.767059 295.000000
-24.755676 39.114716 294.000000
-24.755676 39.593788 294.000000
-24.755676 40.072857 294.000000
-24.755676 40.551926 294.000000
-24.671473 40.891434 293.000000
-24.671473 41.368874 293.000000
-24.671473 41.846313 293.000000
-24.587269 42.179302 292.000000
-24.587269 42.655113 292.000000
-24.587269 43.130924 292.000000
-24.587269 43.606735 292.000000
-24.587269 44.082542 292.000000
-24.587269 44.558353 292.000000
-24.587269 45.034164 292.000000
-24.587269 45.509975 292.000000
-24.587269 45.985786 292.000000
-24.503067 46.302483 291.000000
-24.503067 46.776661 291.000000
-24.503067 47.250843 291.000000
-24.503067 47.725025 291.000000
-24.503067 48.199203 291.000000
-24.503067 48.673386 291.000000
-24.503067 49.147568 291.000000
-24.503067 49.621746 291.000000
-24.503067 50.095928 291.000000
-24.503067 50.570110 291.000000
-24.503067 51.044289 291.000000
-24.503067 51.518471 291.000000
-24.503067 51.992653 291.000000
-24.503067 52.466831 291.000000
-24.503067 52.941013 291.000000
-24.503067 53.415195 291.000000
-24.503067 53.889374 291.000000
-24.503067 54.363556 291.000000
-24.503067 54.837738 291.000000
-24.503067 55.311916 291.000000
-24.503067 55.786098 291.000000
-24.503067 56.260281 291.000000
-24.503067 56.734459 291.000000
-24.503067 57.208641 291.000000
-24.503067 57.682819 291.000000
-24.418863 57.957150 290.000000
-24.418863 58.429699 290.000000
-24.418863 58.902252 290.000000
-24.418863 59.374802 290.000000
-24.418863 59.847355 290.000000
-24.418863 60.319904 290.000000
-24.418863 60.792458 290.000000
-24.418863 61.265007 290.000000
-24.418863 61.737560 290.000000
-24.418863 62.210110 290.000000
-24.418863 62.682663 290.000000
-24.418863 63.155212 290.000000
-24.418863 63.627766 290.000000
-24.418863 64.100319 290.000000
-24.418863 64.572868 290.000000
-24.418863 65.045418 290.000000
-24.439915 65.574455 290.250000
-24.439915 66.047409 290.250000
-24.444490 66.532829 290.304352
-24.447268 67.013489 290.337341
-24.447268 67.486588 290.337341
-24.455475 67.982506 290.434814
-24.457588 68.461678 290.459900
-24.462481 68.948769 290.518005
-24.462481 69.422165 290.518005
-24.483130 69.954552 290.763214
-24.483130 70.428345 290.763214
-24.483130 70.902145 290.763214
-24.489670 71.395012 290.840912
-24.489670 71.868935 290.840912
-24.489670 72.342857 290.840912
-24.503860 72.858971 291.009430
-24.518717 73.377632 291.185883
-24.518717 73.852119 291.185883
-24.530258 74.361580 291.322937
-24.530258 74.836288 291.322937
-24.530258 75.310997 291.322937
-24.518095 75.748123 291.178497
-24.521769 76.234016 291.222107
-24.521769 76.708557 291.222107
-24.521769 77.183098 291.222107
-24.552036 77.753494 291.581573
-24.552036 78.228630 291.581573
-24.552036 78.703758 291.581573
-24.532093 79.114571 291.344727
-24.532093 79.589310 291.344727
-24.515545 80.010048 291.148193
-24.511408 80.470886 291.099060
-24.511408 80.945221 291.099060
-24.535353 81.499100 291.383423
-24.569683 82.088608 291.791138
-24.569683 82.564079 291.791138
-24.569683 83.039551 291.791138
-24.560753 83.484665 291.685089
-24.560753 83.959969 291.685089
-24.560753 84.435265 291.685089
-24.496767 84.689354 290.925201
-24.496767 85.163414 290.925201
-24.496767 85.637474 290.925201
-24.494190 86.102470 290.894592
-24.484854 86.543480 290.783722
-24.484854 87.017311 290.783722
-24.484825 87.491028 290.783356
-24.418863 87.727882 290.000000
-24.418863 88.200432 290.000000
-24.418863 88.672981 290.000000
-24.503067 89.452934 291.000000
-24.503067 89.927116 291.000000
-24.503067 90.401299 291.000000
-24.503067 90.875481 291.000000
-24.503067 91.349663 291.000000
-24.503067 91.823837 291.000000
-24.503067 92.298019 291.000000
-24.503067 92.772202 291.000000
-24.503067 93.246384 291.000000
-24.503067 93.720566 291.000000
-24.503067 94.194748 291.000000
-24.503067 94.668922 291.000000
-24.503067 95.143105 291.000000
-24.503067 95.617287 291.000000
-24.503067 96.091469 291.000000
-24.503067 96.565651 291.000000
-24.503067 97.039833 291.000000
-24.503067 97.514008 291.000000
-24.503067 97.988190 291.000000
-24.503067 98.462372 291.000000
-24.503067 98.936554 291.000000
-24.587269 99.752350 292.000000
-24.587269 100.228165 292.000000
-24.587269 100.703972 292.000000
-24.587269 101.179787 292.000000
-24.587269 101.655594 292.000000
-24.587269 102.131401 292.000000
-24.587269 102.607216 292.000000
-24.587269 103.083023 292.000000
-24.587269 103.558838 292.000000
-24.587269 104.034645 292.000000
-24.671473 104.868362 293.000000
-24.671473 105.345802 293.000000
-24.671473 105.823242 293.000000
-24.755676 106.663483 294.000000
-24.755676 107.142563 294.000000
-24.755676 107.621628 294.000000
-24.755676 108.100700 294.000000
-24.755676 108.579773 294.000000
-24.755676 109.058838 294.000000
-24.839878 109.910477 295.000000
-24.839878 110.391174 295.000000
-24.839878 110.871872 295.000000
-24.839878 111.352570 295.000000
-24.839878 111.833267 295.000000
-24.924082 112.694695 296.000000
-24.924082 113.177025 296.000000
-24.924082 113.659355 296.000000
-25.008284 114.527298 297.000000
-25.008284 115.011253 297.000000
-25.092485 115.884087 298.000000
-25.092485 116.369675 298.000000
-25.260893 117.639526 300.000000
-25.260893 118.128372 300.000000
-25.260893 118.617218 300.000000
-25.260893 119.106064 300.000000
-25.260893 119.594910 300.000000
-25.260893 120.083763 300.000000
-25.260893 120.572609 300.000000
-25.260893 121.061455 300.000000
-25.260893 121.550301 300.000000
-25.260893 122.039146 300.000000
-25.260893 122.527992 300.000000
-25.260893 123.016838 300.000000
-25.260893 123.505684 300.000000
-25.260893 123.994530 300.000000
-25.260893 124.483376 300.000000
-25.260893 124.972221 300.000000
-25.260893 125.461067 300.000000
-25.260893 125.949913 300.000000
-25.260893 126.438759 300.000000
-25.260893 126.927605 300.000000
-25.260893 127.416451 300.000000
-25.156601 127.377220 298.761414
-25.152615 127.843796 298.714081
-25.152615 128.330551 298.714081
-25.146841 128.787720 298.645508
-25.150665 129.294037 298.690948
