-32.239250 62.515835 326.104706
-32.239250 63.047222 326.104706
-33.341190 65.751724 337.250977
-33.341190 66.301270 337.250977
-33.341190 66.850815 337.250977
-29.530943 59.697815 298.709778
-29.577497 60.279442 299.180695
-29.577497 60.766953 299.180695
-29.628937 61.360992 299.701019
-29.685587 61.967609 300.274048
-29.685587 62.456909 300.274048
-29.747854 63.078224 300.903870
-29.747854 63.568542 300.903870
-29.747854 64.058868 300.903870
-29.724571 64.498665 300.668365
-29.775259 65.099419 301.181091
-33.307987 73.372238 336.915161
-33.307987 73.921234 336.915161
-33.307987 74.470230 336.915161
-31.979031 72.026031 323.472534
-31.979031 72.553131 323.472534
-33.325485 76.157219 337.092133
-34.102165 78.494217 344.948364
-34.102165 79.056305 344.948364
-34.102165 79.618393 344.948364
-34.080418 80.129356 344.728394
-34.080418 80.691078 344.728394
-34.072750 81.234528 344.650818
-34.005993 81.635872 343.975555
-34.005993 82.196381 343.975555
-33.879253 82.448448 342.693573
-33.772072 82.744263 341.609406
-33.772072 83.300911 341.609406
-33.512447 83.212898 338.983276
-32.618587 81.531044 329.941772
-32.618587 82.068680 329.941772
-32.305092 81.812393 326.770721
-32.341156 82.436790 327.135529
-32.341156 82.969856 327.135529
-32.341156 83.502914 327.135529
-32.210533 83.696564 325.814240
-32.210533 84.227470 325.814240
-31.658037 83.304550 320.225647
-31.301121 82.881287 316.615387
-31.301121 83.397202 316.615387
-30.961845 83.003593 313.183594
-31.755068 85.653496 321.207153
-31.755068 86.176895 321.207153
-31.755068 86.700302 321.207153
-31.670259 86.990746 320.349274
-31.670259 87.512749 320.349274
-31.597570 87.832703 319.614044
-31.550795 88.222717 319.140900
-31.550795 88.742752 319.140900
-31.361044 88.725952 317.221527
-30.540085 86.906693 308.917419
-30.540085 87.410065 308.917419
-30.394770 87.495140 307.447540
-30.337259 87.829613 306.865784
-30.282314 88.169678 306.310028
-30.282314 88.668800 306.310028
-30.210541 88.956589 305.584015
-30.175793 89.351639 305.232544
-30.175793 89.849014 305.232544
-30.087612 90.082367 304.340576
-30.003662 90.325562 303.491425
-30.003662 90.820099 303.491425
-29.856220 90.865898 302.000000
-29.856220 91.358002 302.000000
-29.856220 91.850113 302.000000
-29.856220 92.342216 302.000000
-29.856220 92.834320 302.000000
-29.856220 93.326424 302.000000
-29.856220 93.818527 302.000000
-29.856220 94.310638 302.000000
-29.856220 94.802742 302.000000
-29.856220 95.294846 302.000000
-29.757357 95.469772 301.000000
-29.757357 95.960251 301.000000
-29.757357 96.450722 301.000000
-29.757357 96.941200 301.000000
-29.757357 97.431679 301.000000
-29.856220 98.247475 302.000000
-29.856220 98.739578 302.000000
-29.856220 99.231689 302.000000
-29.856220 99.723793 302.000000
-29.856220 100.215897 302.000000
-29.856220 100.708000 302.000000
-29.856220 101.200111 302.000000
-29.955080 102.028938 303.000000
-29.955080 102.522675 303.000000
-29.955080 103.016411 303.000000
-29.955080 103.510139 303.000000
-29.955080 104.003876 303.000000
-29.955080 104.497612 303.000000
-29.955080 104.991348 303.000000
-30.053940 105.833221 304.000000
-30.053940 106.328583 304.000000
-30.053940 106.823944 304.000000
-30.053940 107.319313 304.000000
-30.053940 107.814674 304.000000
-30.053940 108.310036 304.000000
-30.053940 108.805405 304.000000
-30.053940 109.300766 304.000000
-30.053940 109.796127 304.000000
-30.152803 110.654297 305.000000
-30.152803 111.151291 305.000000
-30.152803 111.648285 305.000000
-30.152803 112.145279 305.000000
-30.152803 112.642273 305.000000
-30.251663 113.510216 306.000000
-30.251663 114.008842 306.000000
-30.251663 114.507462 306.000000
-30.251663 115.006088 306.000000
-30.251663 115.504707 306.000000
-30.251663 116.003334 306.000000
-30.251663 116.501953 306.000000
-30.251663 117.000580 306.000000
-30.251663 117.499199 306.000000
-30.251663 117.997826 306.000000
-30.251663 118.496445 306.000000
-30.268864 125.049606 306.173981
-30.268864 125.548515 306.173981
-30.268864 126.047417 306.173981
-30.268864 126.546318 306.173981
-30.268864 127.045235 306.173981
-30.268864 127.544136 306.173981
-29.266542 28.274059 300.994202
-29.364340 28.860643 302.000000
-29.364340 29.352749 302.000000
-29.364340 29.844852 302.000000
-29.364340 30.336958 302.000000
-29.364340 30.829063 302.000000
-29.267105 31.217459 301.000000
-29.267105 31.707933 301.000000
-29.267105 32.198410 301.000000
-29.169874 32.580284 300.000000
-29.169874 33.069130 300.000000
-29.169874 33.557980 300.000000
-29.072639 33.933334 299.000000
-29.072639 34.420547 299.000000
-29.072639 34.907764 299.000000
-29.072639 35.394981 299.000000
-28.975409 35.762192 298.000000
-28.975409 36.247780 298.000000
-28.878174 36.610100 297.000000
-28.878174 37.094059 297.000000
-28.878174 37.578014 297.000000
-28.878174 38.061974 297.000000
-28.780941 38.416149 296.000000
-28.780941 38.898476 296.000000
-28.780941 39.380806 296.000000
-28.586475 39.593788 294.000000
-28.586475 40.072857 294.000000
-28.586475 40.551926 294.000000
-28.489241 40.891434 293.000000
-28.489241 41.368874 293.000000
-28.489241 41.846313 293.000000
-28.392010 42.179302 292.000000
-28.392010 42.655113 292.000000
-28.392010 43.130924 292.000000
-28.392010 43.606735 292.000000
-28.392010 44.082542 292.000000
-28.392010 44.558353 292.000000
-28.489241 45.188393 293.000000
-28.489241 45.665833 293.000000
-28.489241 46.143272 293.000000
-28.489241 46.620712 293.000000
-28.489241 47.098152 293.000000
-28.489241 47.575592 293.000000
-28.586475 48.217033 294.000000
-28.586475 48.696102 294.000000
-28.586475 49.175171 294.000000
-28.586475 49.654240 294.000000
-28.586475 50.133312 294.000000
-28.586475 50.612381 294.000000
-28.586475 51.091450 294.000000
-28.489241 51.395111 293.000000
-28.489241 51.872551 293.000000
-28.528133 52.421455 293.399994
-28.532024 52.906757 293.440002
-28.536303 53.392921 293.484009
-28.536303 53.871151 293.484009
-28.541012 54.358341 293.532410
-28.546183 54.846592 293.585632
-28.546183 55.324986 293.585632
-28.546183 55.803379 293.585632
-28.542156 56.273830 293.544189
-28.542156 56.752155 293.544189
-28.537725 57.221600 293.498627
-28.532852 57.689995 293.448486
-28.532852 58.168167 293.448486
-28.531311 58.643173 293.432678
-28.535521 59.130043 293.475952
-28.535521 59.608257 293.475952
-28.536255 60.088020 293.483521
-28.536682 60.567146 293.487885
-28.536682 61.045383 293.487885
-28.536720 61.523701 293.488281
-28.536720 62.001938 293.488281
-28.536720 62.480171 293.488281
-28.536291 62.957458 293.483856
-28.535301 63.433491 293.473694
-28.535301 63.911701 293.473694
-28.534616 64.388367 293.466644
-28.534449 64.866196 293.464935
-31.452177 72.026031 323.472534
-31.452177 72.553131 323.472534
-32.776447 76.157219 337.092133
-32.776447 76.706497 337.092133
-32.776447 77.255791 337.092133
-32.746552 77.734108 336.784668
-32.770267 78.339592 337.028564
-32.770267 78.888771 337.028564
-32.770267 79.437958 337.028564
-32.730911 79.891075 336.623779
-32.730911 80.439598 336.623779
-32.641117 80.765938 335.700287
-32.574574 81.147194 335.015930
-32.574574 81.693092 335.015930
-32.471470 81.978706 333.955566
-32.081200 81.531044 329.941772
-32.081200 82.068680 329.941772
-31.537050 81.205177 324.345428
-31.581831 81.849747 324.805969
-31.581831 82.379021 324.805969
-31.581831 82.908287 324.805969
-31.429443 83.034958 323.238739
-31.429443 83.561668 323.238739
-30.907543 82.692062 317.871216
-30.614710 82.421654 314.859558
-30.614710 82.934715 314.859558
-30.451750 83.003593 313.183594
-31.231905 85.653496 321.207153
-31.231905 86.176895 321.207153
-31.231905 86.700302 321.207153
-31.148493 86.990746 320.349274
-31.148493 87.512749 320.349274
-31.077003 87.832703 319.614044
-31.030998 88.222717 319.140900
-31.030998 88.742752 319.140900
-30.844374 88.725952 317.221527
-29.714615 85.974098 305.602448
-29.714615 86.472076 305.602448
-29.599737 86.633820 304.420990
-29.551649 86.988312 303.926392
-29.508589 87.356087 303.483551
-29.508589 87.850609 303.483551
-29.451490 88.174187 302.896332
-29.422691 88.581047 302.600128
-29.422691 89.074135 302.600128
-29.373327 89.416939 302.092438
-29.169874 89.286446 300.000000
-29.169874 89.775291 300.000000
-29.169874 90.264137 300.000000
-29.267105 91.055496 301.000000
-29.267105 91.545967 301.000000
-29.267105 92.036446 301.000000
-29.267105 92.526917 301.000000
-29.267105 93.017395 301.000000
-29.267105 93.507874 301.000000
-29.169874 93.686058 300.000000
-29.169874 94.174904 300.000000
-29.169874 94.663750 300.000000
-29.169874 95.152596 300.000000
-29.169874 95.641441 300.000000
-29.169874 96.130287 300.000000
-29.169874 96.619133 300.000000
-29.169874 97.107979 300.000000
-29.169874 97.596825 300.000000
-29.267105 98.412628 301.000000
-29.267105 98.903107 301.000000
-29.267105 99.393578 301.000000
-29.364340 100.215897 302.000000
-29.364340 100.708000 302.000000
-29.364340 101.200111 302.000000
-29.364340 101.692215 302.000000
-29.364340 102.184319 302.000000
-29.364340 102.676422 302.000000
-29.364340 103.168526 302.000000
-29.364340 103.660637 302.000000
-29.364340 104.152740 302.000000
-29.461571 104.991348 303.000000
-29.461571 105.485077 303.000000
-29.461571 105.978813 303.000000
-29.461571 106.472549 303.000000
-29.461571 106.966286 303.000000
-29.461571 107.460022 303.000000
-29.461571 107.953751 303.000000
-29.461571 108.447487 303.000000
-29.461571 108.941223 303.000000
-29.461571 109.434959 303.000000
-29.558804 110.291496 304.000000
-29.558804 110.786858 304.000000
-29.558804 111.282227 304.000000
-29.656036 112.145279 305.000000
-29.656036 112.642273 305.000000
-29.656036 113.139267 305.000000
-29.656036 113.636261 305.000000
-29.656036 114.133255 305.000000
-29.656036 114.630249 305.000000
-29.656036 115.127243 305.000000
-29.656036 115.624237 305.000000
-29.753269 116.501953 306.000000
-29.753269 117.000580 306.000000
-29.753269 117.499199 306.000000
-29.753269 117.997826 306.000000
-29.753269 118.496445 306.000000
-29.770185 126.047417 306.173981
-29.770185 126.546318 306.173981
-29.770185 127.045235 306.173981
-29.770185 127.544136 306.173981
-29.319950 126.106560 301.543488
-29.319950 126.597916 301.543488
-29.319950 127.089279 301.543488
-28.872459 26.892221 302.000000
-28.872459 27.384327 302.000000
-28.872459 27.876432 302.000000
-28.872459 28.368538 302.000000
-28.872459 28.860643 302.000000
-28.872459 29.352749 302.000000
-28.872459 29.844852 302.000000
-28.872459 30.336958 302.000000
-28.872459 30.829063 302.000000
-28.776854 31.217459 301.000000
-28.681252 31.602592 300.000000
-28.681252 32.091438 300.000000
-28.681252 32.580284 300.000000
-28.585646 32.958900 299.000000
-28.585646 33.446117 299.000000
-28.585646 33.933334 299.000000
-28.490044 34.305431 298.000000
-28.490044 34.791019 298.000000
-28.490044 35.276608 298.000000
-28.394438 35.642185 297.000000
-28.394438 36.126141 297.000000
-28.394438 36.610100 297.000000
-28.394438 37.094059 297.000000
-28.394438 37.578014 297.000000
-28.298834 37.933819 296.000000
-28.298834 38.416149 296.000000
-28.298834 38.898476 296.000000
-28.203228 39.247761 295.000000
-28.107626 39.593788 294.000000
-28.107626 40.072857 294.000000
-28.107626 40.551926 294.000000
-28.012020 40.891434 293.000000
-27.916418 41.227680 292.000000
-27.916418 41.703491 292.000000
-27.916418 42.179302 292.000000
-27.916418 42.655113 292.000000
-27.916418 43.130924 292.000000
-27.916418 43.606735 292.000000
-27.916418 44.082542 292.000000
-27.916418 44.558353 292.000000
-27.916418 45.034164 292.000000
-27.916418 45.509975 292.000000
-27.916418 45.985786 292.000000
-28.012020 46.620712 293.000000
-28.012020 47.098152 293.000000
-28.012020 47.575592 293.000000
-28.012020 48.053032 293.000000
-28.012020 48.530472 293.000000
-28.012020 49.007912 293.000000
-28.012020 49.485352 293.000000
-28.012020 49.962791 293.000000
-28.012020 50.440231 293.000000
-28.012020 50.917671 293.000000
-28.012020 51.395111 293.000000
-28.012020 51.872551 293.000000
-28.012020 52.349991 293.000000
-28.012020 52.827431 293.000000
-28.012020 53.304871 293.000000
-28.011066 53.780472 292.989990
-28.011066 54.257893 292.989990
-28.011066 54.735321 292.989990
-28.010971 55.212555 292.989014
-28.010864 55.689766 292.987915
-28.010748 56.166958 292.986694
-28.010748 56.644375 292.986694
-28.010620 57.121532 292.985352
-28.010481 57.598660 292.983887
-28.010481 58.076077 292.983887
-28.010328 58.553173 292.982300
-28.010159 59.030224 292.980530
-28.010159 59.507629 292.980530
-28.009972 59.984638 292.978577
-28.010500 60.463177 292.984070
-28.010500 60.940594 292.984070
-28.010500 61.418007 292.984070
-28.010443 61.895294 292.983490
-28.010443 62.372707 292.983490
-28.010387 62.849995 292.982910
-28.010340 63.327301 292.982422
-28.010340 63.804718 292.982422
-28.010300 64.282036 292.981995
-28.010267 64.759369 292.981659
-30.925323 72.026031 323.472534
-30.925323 72.553131 323.472534
-31.207188 73.746300 326.420776
-31.225212 74.321106 326.609314
-31.225212 74.853310 326.609314
-31.295786 75.555901 327.347504
-31.369234 76.267883 328.115784
-31.369234 76.802544 328.115784
-31.369234 77.337204 328.115784
-29.428093 73.053123 307.811829
-29.428093 73.554695 307.811829
-31.400505 79.019875 328.442841
-31.528919 79.880417 329.786041
-31.528919 80.417801 329.786041
-31.528919 80.955177 329.786041
-31.329634 80.977463 327.701538
-31.329634 81.511452 327.701538
-31.008774 81.205177 324.345428
-31.052805 81.849747 324.805969
-31.052805 82.379021 324.805969
-31.052805 82.908287 324.805969
-30.902969 83.034958 323.238739
-30.902969 83.561668 323.238739
-30.091490 81.880310 314.750824
-29.809521 81.621140 311.801483
-29.809521 82.129211 311.801483
-29.693090 82.314522 310.583649
-29.693090 82.820618 310.583649
-29.693090 83.326706 310.583649
-29.686474 83.814117 310.514435
-30.098047 85.489105 314.819397
-30.098047 86.002106 314.819397
-30.098047 86.515099 314.819397
-29.909403 86.482628 312.846222
-29.909403 86.992409 312.846222
-29.360125 85.895241 307.100891
-29.216869 85.974098 305.602448
-29.216869 86.472076 305.602448
-29.103916 86.633820 304.420990
-29.056629 86.988312 303.926392
-28.870064 86.921852 301.974976
-28.870064 87.413918 301.974976
-28.826382 87.772964 301.518036
-28.803219 88.193359 301.275757
-28.803219 88.684288 301.275757
-28.761242 89.045250 300.836700
-28.585646 88.988823 299.000000
-28.585646 89.476044 299.000000
-28.585646 89.963257 299.000000
-28.681252 90.752983 300.000000
-28.681252 91.241829 300.000000
-28.681252 91.730675 300.000000
-28.681252 92.219521 300.000000
-28.681252 92.708366 300.000000
-28.681252 93.197212 300.000000
-28.585646 93.373779 299.000000
-28.585646 93.860992 299.000000
-28.585646 94.348206 299.000000
-28.585646 94.835426 299.000000
-28.585646 95.322639 299.000000
-28.681252 96.130287 300.000000
-28.681252 96.619133 300.000000
-28.681252 97.107979 300.000000
-28.681252 97.596825 300.000000
-28.681252 98.085670 300.000000
-28.681252 98.574516 300.000000
-28.681252 99.063370 300.000000
-28.776854 99.884056 301.000000
-28.776854 100.374527 301.000000
-28.776854 100.865005 301.000000
-28.872459 101.692215 302.000000
-28.872459 102.184319 302.000000
-28.872459 102.676422 302.000000
-28.872459 103.168526 302.000000
-28.872459 103.660637 302.000000
-28.872459 104.152740 302.000000
-28.872459 104.644844 302.000000
-28.872459 105.136948 302.000000
-28.872459 105.629051 302.000000
-28.872459 106.121162 302.000000
-28.872459 106.613266 302.000000
-28.872459 107.105362 302.000000
-28.872459 107.597466 302.000000
-28.872459 108.089577 302.000000
-28.872459 108.581680 302.000000
-28.968063 109.434959 303.000000
-28.968063 109.928696 303.000000
-28.968063 110.422424 303.000000
-28.968063 110.916161 303.000000
-29.159271 112.145279 305.000000
-29.159271 112.642273 305.000000
-29.159271 113.139267 305.000000
-29.159271 113.636261 305.000000
-29.159271 114.133255 305.000000
-29.159271 114.630249 305.000000
-29.159271 115.127243 305.000000
-29.159271 115.624237 305.000000
-29.254873 116.501953 306.000000
-29.254873 117.000580 306.000000
-29.254873 117.499199 306.000000
-29.254873 117.997826 306.000000
-29.254873 118.496445 306.000000
-29.063665 118.217323 304.000000
-29.063665 118.712685 304.000000
-29.271507 126.047417 306.173981
-29.271507 126.546318 306.173981
-29.271507 127.045235 306.173981
-29.271507 127.544136 306.173981
-28.828815 126.106560 301.543488
-28.828815 126.597916 301.543488
-28.828815 127.089279 301.543488
-28.697647 127.000168 300.171509
-28.697647 127.489296 300.171509
-28.568527 22.612040 304.000000
-28.568527 23.107403 304.000000
-28.568527 23.602768 304.000000
-28.474554 24.018864 303.000000
-28.474554 24.512598 303.000000
-28.474554 25.006332 303.000000
-28.380581 26.892221 302.000000
-28.380581 27.384327 302.000000
-28.380581 27.876432 302.000000
-28.380581 28.368538 302.000000
-28.380581 28.860643 302.000000
-28.380581 29.352749 302.000000
-28.380581 29.844852 302.000000
-28.380581 30.336958 302.000000
-28.380581 30.829063 302.000000
-28.286602 31.217459 301.000000
-28.192629 31.602592 300.000000
-28.192629 32.091438 300.000000
-28.192629 32.580284 300.000000
-28.098652 32.958900 299.000000
-28.098652 33.446117 299.000000
-28.098652 33.933334 299.000000
-28.004679 34.305431 298.000000
-28.004679 34.791019 298.000000
-28.004679 35.276608 298.000000
-27.910700 35.642185 297.000000
-27.910700 36.126141 297.000000
-27.910700 36.610100 297.000000
-27.910700 37.094059 297.000000
-27.910700 37.578014 297.000000
-27.816727 37.933819 296.000000
-27.722750 38.286362 295.000000
-27.722750 38.767059 295.000000
-27.722750 39.247761 295.000000
-27.628777 39.593788 294.000000
-27.534800 39.936554 293.000000
-27.534800 40.413994 293.000000
-27.440825 40.751873 292.000000
-27.440825 41.227680 292.000000
-27.440825 41.703491 292.000000
-27.440825 42.179302 292.000000
-27.440825 42.655113 292.000000
-27.440825 43.130924 292.000000
-27.440825 43.606735 292.000000
-27.440825 44.082542 292.000000
-27.440825 44.558353 292.000000
-27.440825 45.034164 292.000000
-27.440825 45.509975 292.000000
-27.440825 45.985786 292.000000
-27.440825 46.461594 292.000000
-27.440825 46.937405 292.000000
-27.440825 47.413216 292.000000
-27.440825 47.889027 292.000000
-27.440825 48.364838 292.000000
-27.440825 48.840649 292.000000
-27.440825 49.316456 292.000000
-27.440825 49.792267 292.000000
-27.440825 50.268078 292.000000
-27.440825 50.743889 292.000000
-27.440825 51.219700 292.000000
-27.440825 51.695507 292.000000
-27.440825 52.171318 292.000000
-27.440825 52.647129 292.000000
-27.440825 53.122940 292.000000
-27.440825 53.598755 292.000000
-27.440825 54.074562 292.000000
-27.440825 54.550373 292.000000
-27.440825 55.026184 292.000000
-27.440825 55.501995 292.000000
-27.440825 55.977806 292.000000
-27.440825 56.453613 292.000000
-27.440825 56.929424 292.000000
-27.440825 57.405235 292.000000
-27.440825 57.881046 292.000000
-27.440825 58.356857 292.000000
-27.440825 58.832668 292.000000
-27.440825 59.308475 292.000000
-27.440825 59.784286 292.000000
-27.440825 60.260098 292.000000
-27.440825 60.735909 292.000000
-27.440825 61.211720 292.000000
-27.440825 61.687527 292.000000
-27.440825 62.163338 292.000000
-27.440825 62.639149 292.000000
-27.440825 63.114960 292.000000
-27.440825 63.590771 292.000000
-27.440825 64.066582 292.000000
-27.440825 64.542389 292.000000
-27.440825 65.018204 292.000000
-27.440825 65.494011 292.000000
-30.019901 72.170120 319.444183
-30.051691 72.767624 319.782440
-30.051691 73.288704 319.782440
-30.123295 73.985649 320.544403
-30.123295 74.507980 320.544403
-30.123295 75.030296 320.544403
-28.256586 70.870705 300.680573
-28.328924 71.543350 301.450348
-28.328924 72.034554 301.450348
-28.408504 72.729492 302.297150
-28.496042 73.447716 303.228668
-28.496042 73.941826 303.228668
-30.353117 79.286880 322.989929
-30.353117 79.813194 322.989929
-30.353117 80.339500 322.989929
-30.138403 80.293770 320.705139
-30.142811 80.828178 320.752045
-30.142811 81.350838 320.752045
-30.142811 81.873505 320.752045
-30.013075 82.041534 319.371521
-30.013075 82.561943 319.371521
-29.183178 80.785034 310.540527
-28.997416 80.773598 308.563812
-28.997416 81.276398 308.563812
-28.910742 81.534760 307.641510
-28.966084 82.193100 308.230408
-28.966084 82.695358 308.230408
-28.994053 83.277946 308.528015
-28.994053 83.780685 308.528015
-28.994053 84.283424 308.528015
-29.082542 85.044945 309.469666
-29.082542 85.549217 309.469666
-29.082542 86.053497 309.469666
-28.741505 85.542747 305.840637
-28.584461 85.570992 304.169556
-28.584461 86.066635 304.169556
-28.484953 86.260925 303.110657
-28.449738 86.647583 302.735931
-28.378225 86.921852 301.974976
-28.378225 87.413918 301.974976
-28.335287 87.772964 301.518036
-28.312517 88.193359 301.275757
-28.312517 88.684288 301.275757
-28.271257 89.045250 300.836700
-28.098652 88.988823 299.000000
-28.098652 89.476044 299.000000
-28.098652 89.963257 299.000000
-28.192629 90.752983 300.000000
-28.192629 91.241829 300.000000
-28.192629 91.730675 300.000000
-28.192629 92.219521 300.000000
-28.192629 92.708366 300.000000
-28.192629 93.197212 300.000000
-28.098652 93.373779 299.000000
-28.098652 93.860992 299.000000
-28.098652 94.348206 299.000000
-28.098652 94.835426 299.000000
-28.098652 95.322639 299.000000
-28.192629 96.130287 300.000000
-28.192629 96.619133 300.000000
-28.192629 97.107979 300.000000
-28.192629 97.596825 300.000000
-28.192629 98.085670 300.000000
-28.192629 98.574516 300.000000
-28.192629 99.063370 300.000000
-28.286602 99.884056 301.000000
-28.286602 100.374527 301.000000
-28.286602 100.865005 301.000000
-28.380581 101.692215 302.000000
-28.380581 102.184319 302.000000
-28.380581 102.676422 302.000000
-28.380581 103.168526 302.000000
-28.380581 103.660637 302.000000
-28.380581 104.152740 302.000000
-28.380581 104.644844 302.000000
-28.380581 105.136948 302.000000
-28.380581 105.629051 302.000000
-28.380581 106.121162 302.000000
-28.380581 106.613266 302.000000
-28.380581 107.105362 302.000000
-28.380581 107.597466 302.000000
-28.380581 108.089577 302.000000
-28.380581 108.581680 302.000000
-28.474554 109.434959 303.000000
-28.474554 109.928696 303.000000
-28.474554 110.422424 303.000000
-28.474554 110.916161 303.000000
-28.474554 111.409897 303.000000
-28.474554 111.903633 303.000000
-28.568527 112.768318 304.000000
-28.568527 113.263680 304.000000
-28.568527 113.759041 304.000000
-28.662504 114.630249 305.000000
-28.662504 115.127243 305.000000
-28.662504 115.624237 305.000000
-28.662504 116.121231 305.000000
-28.662504 116.618225 305.000000
-28.662504 117.115219 305.000000
-28.662504 117.612206 305.000000
-28.662504 118.109200 305.000000
-28.568527 118.217323 304.000000
-28.568527 118.712685 304.000000
-28.482727 125.270416 303.086975
-28.482727 125.764290 303.086975
-28.482727 126.258163 303.086975
-28.337679 126.106560 301.543488
-28.337679 126.597916 301.543488
-28.337679 127.089279 301.543488
-28.208744 127.000168 300.171509
-28.208744 127.489296 300.171509
-28.157179 127.744461 299.622772
-28.157179 128.232697 299.622772
-28.157179 128.720917 299.622772
-28.073391 19.144491 304.000000
-28.073391 19.639854 304.000000
-28.073391 20.135220 304.000000
-28.073391 20.630583 304.000000
-28.073391 21.125948 304.000000
-28.073391 21.621311 304.000000
-28.073391 22.116676 304.000000
-28.073391 22.612040 304.000000
-28.073391 23.107403 304.000000
-28.073391 23.602768 304.000000
-27.981045 24.018864 303.000000
-27.981045 24.512598 303.000000
-27.981045 25.006332 303.000000
-27.981045 25.500067 303.000000
-27.888700 25.908014 302.000000
-27.888700 26.400118 302.000000
-27.888700 26.892221 302.000000
-27.888700 27.384327 302.000000
-27.888700 27.876432 302.000000
-27.888700 28.368538 302.000000
-27.888700 28.860643 302.000000
-27.888700 29.352749 302.000000
-27.888700 29.844852 302.000000
-27.796352 30.236506 301.000000
-27.796352 30.726982 301.000000
-27.796352 31.217459 301.000000
-27.704006 31.602592 300.000000
-27.704006 32.091438 300.000000
-27.704006 32.580284 300.000000
-27.611658 32.958900 299.000000
-27.611658 33.446117 299.000000
-27.519314 33.819843 298.000000
-27.426964 34.190311 297.000000
-27.426964 34.674271 297.000000
-27.426964 35.158226 297.000000
-27.426964 35.642185 297.000000
-27.426964 36.126141 297.000000
-27.426964 36.610100 297.000000
-27.334620 36.969162 296.000000
-27.334620 37.451492 296.000000
-27.334620 37.933819 296.000000
-27.242271 38.286362 295.000000
-27.242271 38.767059 295.000000
-27.242271 39.247761 295.000000
-27.149925 39.593788 294.000000
-27.057577 39.936554 293.000000
-27.057577 40.413994 293.000000
-26.965233 40.751873 292.000000
-26.965233 41.227680 292.000000
-26.965233 41.703491 292.000000
-26.965233 42.179302 292.000000
-26.965233 42.655113 292.000000
-26.965233 43.130924 292.000000
-26.965233 43.606735 292.000000
-26.965233 44.082542 292.000000
-26.965233 44.558353 292.000000
-26.965233 45.034164 292.000000
-26.965233 45.509975 292.000000
-26.965233 45.985786 292.000000
-26.965233 46.461594 292.000000
-26.965233 46.937405 292.000000
-26.965233 47.413216 292.000000
-26.965233 47.889027 292.000000
-26.965233 48.364838 292.000000
-26.965233 48.840649 292.000000
-26.965233 49.316456 292.000000
-26.965233 49.792267 292.000000
-26.965233 50.268078 292.000000
-26.965233 50.743889 292.000000
-26.965233 51.219700 292.000000
-26.965233 51.695507 292.000000
-26.965233 52.171318 292.000000
-26.965233 52.647129 292.000000
-26.965233 53.122940 292.000000
-26.965233 53.598755 292.000000
-26.965233 54.074562 292.000000
-26.965233 54.550373 292.000000
-26.965233 55.026184 292.000000
-26.965233 55.501995 292.000000
-26.965233 55.977806 292.000000
-26.965233 56.453613 292.000000
-26.965233 56.929424 292.000000
-26.965233 57.405235 292.000000
-26.965233 57.881046 292.000000
-26.965233 58.356857 292.000000
-26.965233 58.832668 292.000000
-26.965233 59.308475 292.000000
-26.965233 59.784286 292.000000
-26.965233 60.260098 292.000000
-26.965233 60.735909 292.000000
-26.965233 61.211720 292.000000
-26.965233 61.687527 292.000000
-26.965233 62.163338 292.000000
-26.965233 62.639149 292.000000
-26.965233 63.114960 292.000000
-26.965233 63.590771 292.000000
-26.965233 64.066582 292.000000
-26.965233 64.542389 292.000000
-26.965233 65.018204 292.000000
-26.965233 65.494011 292.000000
-29.135021 71.278152 315.496124
-29.170767 71.880333 315.883209
-29.170767 72.395065 315.883209
-29.325050 73.295410 317.553894
-29.325050 73.812859 317.553894
-29.325050 74.330307 317.553894
-27.626938 70.513580 299.165436
-27.693108 71.171127 299.881989
-27.693108 71.659782 299.881989
-27.765892 72.338058 300.670166
-27.845961 73.038010 301.537201
-27.845961 73.529366 301.537201
-27.934031 74.254829 302.490906
-29.192858 78.116180 316.122406
-29.192858 78.631294 316.122406
-29.192858 79.146408 316.122406
-29.207897 79.702576 316.285278
-29.207897 80.217957 316.285278
-29.207897 80.733337 316.285278
-29.084190 80.904602 314.945679
-29.084190 81.417801 314.945679
-28.677389 80.785034 310.540527
-26.965233 76.437645 292.000000
-26.965233 76.913460 292.000000
-28.277992 81.156837 306.215546
-28.338732 81.831215 306.873322
-28.338732 82.331261 306.873322
-28.367231 82.914604 307.181915
-28.367231 83.415154 307.181915
-28.367231 83.915703 307.181915
-27.535009 81.939697 298.169983
-28.243368 84.546013 305.840637
-28.243368 85.044380 305.840637
-28.243368 85.542747 305.840637
-27.907192 85.016975 302.200256
-27.907192 85.509407 302.200256
-27.907192 86.001831 302.200256
-27.873959 86.391266 301.840393
-27.873959 86.883110 301.840393
-27.804693 87.157837 301.090332
-27.765802 87.525864 300.669189
-27.719126 87.867836 300.163727
-27.719126 88.356949 300.163727
-27.519314 88.205612 298.000000
-27.519314 88.691200 298.000000
-27.519314 89.176788 298.000000
-27.519314 89.662376 298.000000
-27.519314 90.147964 298.000000
-27.519314 90.633553 298.000000
-27.519314 91.119141 298.000000
-27.519314 91.604729 298.000000
-27.519314 92.090309 298.000000
-27.519314 92.575897 298.000000
-27.519314 93.061485 298.000000
-27.519314 93.547073 298.000000
-27.426964 93.717117 297.000000
-27.519314 94.518250 298.000000
-27.519314 95.003838 298.000000
-27.519314 95.489426 298.000000
-27.611658 96.297073 299.000000
-27.611658 96.784294 299.000000
-27.611658 97.271507 299.000000
-27.611658 97.758728 299.000000
-27.611658 98.245941 299.000000
-27.611658 98.733162 299.000000
-27.704006 99.552216 300.000000
-27.704006 100.041061 300.000000
-27.704006 100.529907 300.000000
-27.704006 101.018753 300.000000
-27.704006 101.507599 300.000000
-27.704006 101.996445 300.000000
-27.704006 102.485291 300.000000
-27.704006 102.974136 300.000000
-27.704006 103.462982 300.000000
-27.704006 103.951828 300.000000
-27.704006 104.440674 300.000000
-27.704006 104.929520 300.000000
-27.704006 105.418365 300.000000
-27.704006 105.907211 300.000000
-27.704006 106.396057 300.000000
-27.704006 106.884911 300.000000
-27.796352 107.731659 301.000000
-27.796352 108.222137 301.000000
-27.796352 108.712608 301.000000
-27.888700 109.565887 302.000000
-27.888700 110.057991 302.000000
-27.888700 110.550102 302.000000
-27.888700 111.042206 302.000000
-27.888700 111.534309 302.000000
-27.888700 112.026413 302.000000
-27.981045 112.891098 303.000000
-27.981045 113.384834 303.000000
-27.981045 113.878571 303.000000
-27.981045 114.372307 303.000000
-27.981045 114.866035 303.000000
-28.073391 115.740501 304.000000
-28.165739 116.618225 305.000000
-28.165739 117.115219 305.000000
-28.165739 117.612206 305.000000
-28.165739 118.109200 305.000000
-28.073391 118.217323 304.000000
-28.073391 118.712685 304.000000
-27.981045 118.815918 303.000000
-27.751516 125.676224 300.514496
-27.751516 126.165909 300.514496
-27.751516 126.655594 300.514496
-27.719843 127.000168 300.171509
-27.719843 127.489296 300.171509
-27.676136 127.776619 299.698212
-27.669170 128.232697 299.622772
-27.669170 128.720917 299.622772
-27.578253 19.144491 304.000000
-27.578253 19.639854 304.000000
-27.578253 20.135220 304.000000
-27.578253 20.630583 304.000000
-27.578253 21.125948 304.000000
-27.578253 21.621311 304.000000
-27.578253 22.116676 304.000000
-27.578253 22.612040 304.000000
-27.578253 23.107403 304.000000
-27.578253 23.602768 304.000000
-27.487537 24.018864 303.000000
-27.487537 24.512598 303.000000
-27.487537 25.006332 303.000000
-27.487537 25.500067 303.000000
-27.396820 25.908014 302.000000
-27.396820 26.400118 302.000000
-27.396820 26.892221 302.000000
-27.396820 27.384327 302.000000
-27.396820 27.876432 302.000000
-27.396820 28.368538 302.000000
-27.396820 28.860643 302.000000
-27.396820 29.352749 302.000000
-27.306101 29.746031 301.000000
-27.215384 30.136055 300.000000
-27.215384 30.624901 300.000000
-27.215384 31.113747 300.000000
-27.215384 31.602592 300.000000
-27.215384 32.091438 300.000000
-27.124664 32.471684 299.000000
-27.033947 32.848671 298.000000
-27.033947 33.334259 298.000000
-26.943228 33.706352 297.000000
-26.943228 34.190311 297.000000
-26.943228 34.674271 297.000000
-26.943228 35.158226 297.000000
-26.943228 35.642185 297.000000
-26.943228 36.126141 297.000000
-26.852512 36.486835 296.000000
-26.852512 36.969162 296.000000
-26.852512 37.451492 296.000000
-26.761791 37.805664 295.000000
-26.761791 38.286362 295.000000
-26.761791 38.767059 295.000000
-26.671076 39.114716 294.000000
-26.580359 39.459114 293.000000
-26.489639 39.800251 292.000000
-26.489639 40.276062 292.000000
-26.489639 40.751873 292.000000
-26.489639 41.227680 292.000000
-26.489639 41.703491 292.000000
-26.489639 42.179302 292.000000
-26.489639 42.655113 292.000000
-26.489639 43.130924 292.000000
-26.489639 43.606735 292.000000
-26.489639 44.082542 292.000000
-26.489639 44.558353 292.000000
-26.489639 45.034164 292.000000
-26.489639 45.509975 292.000000
-26.489639 45.985786 292.000000
-26.489639 46.461594 292.000000
-26.489639 46.937405 292.000000
-26.489639 47.413216 292.000000
-26.489639 47.889027 292.000000
-26.489639 48.364838 292.000000
-26.489639 48.840649 292.000000
-26.489639 49.316456 292.000000
-26.489639 49.792267 292.000000
-26.489639 50.268078 292.000000
-26.489639 50.743889 292.000000
-26.489639 51.219700 292.000000
-26.489639 51.695507 292.000000
-26.489639 52.171318 292.000000
-26.489639 52.647129 292.000000
-26.489639 53.122940 292.000000
-26.489639 53.598755 292.000000
-26.489639 54.074562 292.000000
-26.489639 54.550373 292.000000
-26.489639 55.026184 292.000000
-26.489639 55.501995 292.000000
-26.489639 55.977806 292.000000
-26.489639 56.453613 292.000000
-26.489639 56.929424 292.000000
-26.489639 57.405235 292.000000
-26.489639 57.881046 292.000000
-26.489639 58.356857 292.000000
-26.489639 58.832668 292.000000
-26.489639 59.308475 292.000000
-26.489639 59.784286 292.000000
-26.489639 60.260098 292.000000
-26.489639 60.735909 292.000000
-26.489639 61.211720 292.000000
-26.489639 61.687527 292.000000
-26.489639 62.163338 292.000000
-26.489639 62.639149 292.000000
-26.489639 63.114960 292.000000
-26.489639 63.590771 292.000000
-26.489639 64.066582 292.000000
-26.489639 64.542389 292.000000
-26.489639 65.018204 292.000000
-26.489639 65.494011 292.000000
-28.368988 70.650154 312.716400
-28.431698 71.317017 313.407654
-28.431698 71.827705 313.407654
-28.577629 72.709694 315.016266
-28.577629 73.223007 315.016266
-28.577629 73.736320 315.016266
-26.896622 69.882095 296.486237
-26.896622 70.365211 296.486237
-26.896622 70.848335 296.486237
-26.896622 71.331451 296.486237
-26.923754 71.887009 296.785309
-26.923754 72.370621 296.785309
-26.923754 72.854225 296.785309
-26.489639 72.155357 292.000000
-26.489639 72.631165 292.000000
-26.489639 73.106979 292.000000
-28.513557 79.204819 314.310028
-28.513557 79.716988 314.310028
-28.513557 80.229149 314.310028
-28.386173 80.380592 312.905823
-28.386173 80.890472 312.905823
-26.489639 75.961838 292.000000
-26.489639 76.437645 292.000000
-26.489639 76.913460 292.000000
-27.779243 81.156837 306.215546
-27.838915 81.831215 306.873322
-27.838915 82.331261 306.873322
-27.866913 82.914604 307.181915
-27.866913 83.415154 307.181915
-27.866913 83.915703 307.181915
-27.049366 81.939697 298.169983
-27.745234 84.546013 305.840637
-27.745234 85.044380 305.840637
-27.745234 85.542747 305.840637
-27.015049 83.776726 297.791687
-27.015049 84.261978 297.791687
-27.110407 85.046364 298.842834
-27.110407 85.533325 298.842834
-27.110407 86.020279 298.842834
-27.089830 86.441589 298.616028
-26.852512 86.166641 296.000000
-26.943228 86.941704 297.000000
-26.943228 87.425659 297.000000
-26.943228 87.909622 297.000000
-26.943228 88.393578 297.000000
-26.943228 88.877533 297.000000
-26.943228 89.361496 297.000000
-26.943228 89.845451 297.000000
-26.943228 90.329407 297.000000
-26.943228 90.813370 297.000000
-26.943228 91.297325 297.000000
-26.943228 91.781281 297.000000
-26.943228 92.265244 297.000000
-26.943228 92.749199 297.000000
-26.943228 93.233154 297.000000
-26.943228 93.717117 297.000000
-26.943228 94.201073 297.000000
-26.943228 94.685028 297.000000
-26.943228 95.168983 297.000000
-26.943228 95.652946 297.000000
-26.943228 96.136902 297.000000
-27.033947 96.946182 298.000000
-27.033947 97.431770 298.000000
-27.033947 97.917358 298.000000
-27.033947 98.402946 298.000000
-27.033947 98.888535 298.000000
-27.033947 99.374123 298.000000
-27.033947 99.859711 298.000000
-27.124664 100.682030 299.000000
-27.124664 101.169243 299.000000
-27.124664 101.656464 299.000000
-27.124664 102.143677 299.000000
-27.124664 102.630890 299.000000
-27.124664 103.118111 299.000000
-27.124664 103.605324 299.000000
-27.124664 104.092545 299.000000
-27.124664 104.579758 299.000000
-27.033947 104.715584 298.000000
-27.124664 105.554192 299.000000
-27.124664 106.041412 299.000000
-27.124664 106.528625 299.000000
-27.215384 107.373756 300.000000
-27.215384 107.862602 300.000000
-27.215384 108.351448 300.000000
-27.215384 108.840294 300.000000
-27.215384 109.329140 300.000000
-27.306101 110.184036 301.000000
-27.306101 110.674515 301.000000
-27.306101 111.164993 301.000000
-27.396820 112.026413 302.000000
-27.396820 112.518524 302.000000
-27.396820 113.010628 302.000000
-27.396820 113.502731 302.000000
-27.396820 113.994835 302.000000
-27.396820 114.486938 302.000000
-27.487537 115.359772 303.000000
-27.487537 115.853508 303.000000
-27.487537 116.347244 303.000000
-27.487537 116.840981 303.000000
-27.487537 117.334709 303.000000
-27.487537 117.828445 303.000000
-27.487537 118.322182 303.000000
-27.487537 118.815918 303.000000
-27.487537 119.309654 303.000000
-27.487537 119.803383 303.000000
-27.196592 126.351456 299.792877
-27.196592 126.839973 299.792877
-27.196592 127.328476 299.792877
-27.188004 127.776619 299.698212
-27.181162 128.232697 299.622772
-27.181162 128.720917 299.622772
-27.138788 129.007736 299.155701
-27.138788 129.495209 299.155701
-27.138788 129.982681 299.155701
-27.172207 18.213478 305.000000
-27.172207 18.710472 305.000000
-27.172207 19.207466 305.000000
-27.083115 19.639854 304.000000
-27.083115 20.135220 304.000000
-27.083115 20.630583 304.000000
-27.083115 21.125948 304.000000
-27.083115 21.621311 304.000000
-27.083115 22.116676 304.000000
-26.994028 22.537659 303.000000
-26.994028 23.031393 303.000000
-26.994028 23.525129 303.000000
-26.994028 24.018864 303.000000
-26.994028 24.512598 303.000000
-26.994028 25.006332 303.000000
-26.994028 25.500067 303.000000
-26.904940 25.908014 302.000000
-26.904940 26.400118 302.000000
-26.904940 26.892221 302.000000
-26.904940 27.384327 302.000000
-26.904940 27.876432 302.000000
-26.904940 28.368538 302.000000
-26.904940 28.860643 302.000000
-26.904940 29.352749 302.000000
-26.815849 29.746031 301.000000
-26.726761 30.136055 300.000000
-26.726761 30.624901 300.000000
-26.726761 31.113747 300.000000
-26.726761 31.602592 300.000000
-26.726761 32.091438 300.000000
-26.637671 32.471684 299.000000
-26.548582 32.848671 298.000000
-26.548582 33.334259 298.000000
-26.459492 33.706352 297.000000
-26.459492 34.190311 297.000000
-26.459492 34.674271 297.000000
-26.459492 35.158226 297.000000
-26.370405 35.522179 296.000000
-26.370405 36.004505 296.000000
-26.370405 36.486835 296.000000
-26.281315 36.844265 295.000000
-26.281315 37.324963 295.000000
-26.281315 37.805664 295.000000
-26.192226 38.156578 294.000000
-26.192226 38.635647 294.000000
-26.192226 39.114716 294.000000
-26.014048 39.324440 292.000000
-26.014048 39.800251 292.000000
-26.014048 40.276062 292.000000
-26.014048 40.751873 292.000000
-26.014048 41.227680 292.000000
-26.014048 41.703491 292.000000
-26.014048 42.179302 292.000000
-25.924957 42.509033 291.000000
-25.924957 42.983215 291.000000
-25.924957 43.457397 291.000000
-25.924957 43.931576 291.000000
-25.924957 44.405758 291.000000
-25.924957 44.879940 291.000000
-25.924957 45.354118 291.000000
-25.924957 45.828300 291.000000
-25.924957 46.302483 291.000000
-25.924957 46.776661 291.000000
-25.924957 47.250843 291.000000
-25.924957 47.725025 291.000000
-25.924957 48.199203 291.000000
-25.924957 48.673386 291.000000
-25.924957 49.147568 291.000000
-25.924957 49.621746 291.000000
-25.924957 50.095928 291.000000
-26.014048 50.743889 292.000000
-26.014048 51.219700 292.000000
-26.014048 51.695507 292.000000
-26.014048 52.171318 292.000000
-26.014048 52.647129 292.000000
-26.014048 53.122940 292.000000
-26.014048 53.598755 292.000000
-26.014048 54.074562 292.000000
-26.014048 54.550373 292.000000
-25.924957 54.837738 291.000000
-25.924957 55.311916 291.000000
-25.924957 55.786098 291.000000
-25.924957 56.260281 291.000000
-25.924957 56.734459 291.000000
-25.976927 57.323322 291.583344
-25.976927 57.798450 291.583344
-25.976927 58.273586 291.583344
-25.976927 58.748714 291.583344
-25.976927 59.223846 291.583344
-25.976927 59.698982 291.583344
-25.976927 60.174110 291.583344
-25.976927 60.649239 291.583344
-25.976927 61.124374 291.583344
-25.981874 61.611237 291.638885
-25.981874 62.086460 291.638885
-25.986565 62.572975 291.691528
-26.014048 63.114960 292.000000
-26.014048 63.590771 292.000000
-26.014048 64.066582 292.000000
-26.014048 64.542389 292.000000
-26.014048 65.018204 292.000000
-26.014048 65.494011 292.000000
-26.014048 65.969818 292.000000
-27.574379 70.431061 309.514252
-27.574379 70.935410 309.514252
-27.693712 71.748932 310.853760
-27.693712 72.255470 310.853760
-27.693712 72.761993 310.853760
-26.014048 68.824684 292.000000
-26.014048 69.300491 292.000000
-26.014048 69.776306 292.000000
-26.014048 70.252113 292.000000
-26.014048 70.727921 292.000000
-26.014048 71.203735 292.000000
-26.014048 71.679543 292.000000
-26.014048 72.155357 292.000000
-26.014048 72.631165 292.000000
-26.014048 73.106979 292.000000
-26.014048 73.582787 292.000000
-26.014048 74.058594 292.000000
-26.014048 74.534409 292.000000
-26.014048 75.010216 292.000000
-26.014048 75.486031 292.000000
-26.014048 75.961838 292.000000
-26.014048 76.437645 292.000000
-26.014048 76.913460 292.000000
-26.014048 77.389267 292.000000
-26.014048 77.865082 292.000000
-26.014048 78.340889 292.000000
-26.938007 81.616089 302.371185
-26.938007 82.108795 302.371185
-26.938007 82.601509 302.371185
-26.145737 80.650345 293.478180
-26.593422 82.517708 298.503326
-26.593422 83.004112 298.503326
-26.593422 83.490524 298.503326
-26.179340 82.669334 293.855377
-26.179340 83.148170 293.855377
-26.623669 85.046364 298.842834
-26.623669 85.533325 298.842834
-26.623669 86.020279 298.842834
-26.603464 86.441589 298.616028
-26.281315 85.875542 295.000000
-26.281315 86.356239 295.000000
-26.281315 86.836937 295.000000
-26.281315 87.317642 295.000000
-26.281315 87.798340 295.000000
-26.281315 88.279037 295.000000
-26.370405 89.060608 296.000000
-26.370405 89.542938 296.000000
-26.370405 90.025269 296.000000
-26.370405 90.507599 296.000000
-26.370405 90.989922 296.000000
-26.370405 91.472252 296.000000
-26.370405 91.954582 296.000000
-26.370405 92.436913 296.000000
-26.370405 92.919235 296.000000
-26.370405 93.401566 296.000000
-26.459492 94.201073 297.000000
-26.459492 94.685028 297.000000
-26.459492 95.168983 297.000000
-26.459492 95.652946 297.000000
-26.459492 96.136902 297.000000
-26.459492 96.620857 297.000000
-26.459492 97.104820 297.000000
-26.459492 97.588776 297.000000
-26.459492 98.072731 297.000000
-26.459492 98.556694 297.000000
-26.459492 99.040649 297.000000
-26.459492 99.524605 297.000000
-26.637671 100.682030 299.000000
-26.637671 101.169243 299.000000
-26.637671 101.656464 299.000000
-26.637671 102.143677 299.000000
-26.548582 102.287643 298.000000
-26.548582 102.773232 298.000000
-26.548582 103.258820 298.000000
-26.548582 103.744408 298.000000
-26.548582 104.229996 298.000000
-26.548582 104.715584 298.000000
-26.548582 105.201164 298.000000
-26.548582 105.686752 298.000000
-26.548582 106.172340 298.000000
-26.726761 107.373756 300.000000
-26.726761 107.862602 300.000000
-26.726761 108.351448 300.000000
-26.726761 108.840294 300.000000
-26.726761 109.329140 300.000000
-26.815849 110.184036 301.000000
-26.815849 110.674515 301.000000
-26.815849 111.164993 301.000000
-26.904940 112.026413 302.000000
-26.904940 112.518524 302.000000
-26.904940 113.010628 302.000000
-26.904940 113.502731 302.000000
-26.904940 113.994835 302.000000
-26.904940 114.486938 302.000000
-26.994028 115.359772 303.000000
-26.994028 115.853508 303.000000
-26.994028 116.347244 303.000000
-26.994028 116.840981 303.000000
-26.994028 117.334709 303.000000
-26.994028 117.828445 303.000000
-26.994028 118.322182 303.000000
-26.994028 118.815918 303.000000
-26.994028 119.309654 303.000000
-26.994028 119.803383 303.000000
-26.708307 126.351456 299.792877
-26.708307 126.839973 299.792877
-26.708307 127.328476 299.792877
-26.699875 127.776619 299.698212
-26.651543 128.032791 299.155701
-26.651543 128.520264 299.155701
-26.651543 129.007736 299.155701
-26.651543 129.495209 299.155701
-26.651543 129.982681 299.155701
-26.651543 130.470154 299.155701
-26.651543 130.957626 299.155701
-26.651543 131.445099 299.155701
-26.675440 17.716486 305.000000
-26.675440 18.213478 305.000000
-26.675440 18.710472 305.000000
-26.675440 19.207466 305.000000
-26.587980 19.639854 304.000000
-26.587980 20.135220 304.000000
-26.587980 20.630583 304.000000
-26.587980 21.125948 304.000000
-26.587980 21.621311 304.000000
-26.500519 22.043924 303.000000
-26.500519 22.537659 303.000000
-26.500519 23.031393 303.000000
-26.500519 23.525129 303.000000
-26.500519 24.018864 303.000000
-26.500519 24.512598 303.000000
-26.500519 25.006332 303.000000
-26.413059 25.415909 302.000000
-26.413059 25.908014 302.000000
-26.413059 26.400118 302.000000
-26.413059 26.892221 302.000000
-26.413059 27.384327 302.000000
-26.413059 27.876432 302.000000
-26.413059 28.368538 302.000000
-26.325598 28.765079 301.000000
-26.325598 29.255554 301.000000
-26.238138 29.647207 300.000000
-26.238138 30.136055 300.000000
-26.238138 30.624901 300.000000
-26.238138 31.113747 300.000000
-26.150677 31.497250 299.000000
-26.150677 31.984467 299.000000
-26.150677 32.471684 299.000000
-26.063217 32.848671 298.000000
-26.063217 33.334259 298.000000
-25.975756 33.706352 297.000000
-25.975756 34.190311 297.000000
-25.975756 34.674271 297.000000
-25.975756 35.158226 297.000000
-25.888296 35.522179 296.000000
-25.888296 36.004505 296.000000
-25.888296 36.486835 296.000000
-25.800837 36.844265 295.000000
-25.800837 37.324963 295.000000
-25.800837 37.805664 295.000000
-25.713375 38.156578 294.000000
-25.713375 38.635647 294.000000
-25.713375 39.114716 294.000000
-25.538454 39.324440 292.000000
-25.538454 39.800251 292.000000
-25.538454 40.276062 292.000000
-25.538454 40.751873 292.000000
-25.538454 41.227680 292.000000
-25.538454 41.703491 292.000000
-25.538454 42.179302 292.000000
-25.450994 42.509033 291.000000
-25.450994 42.983215 291.000000
-25.450994 43.457397 291.000000
-25.450994 43.931576 291.000000
-25.450994 44.405758 291.000000
-25.450994 44.879940 291.000000
-25.450994 45.354118 291.000000
-25.450994 45.828300 291.000000
-25.450994 46.302483 291.000000
-25.450994 46.776661 291.000000
-25.450994 47.250843 291.000000
-25.450994 47.725025 291.000000
-25.450994 48.199203 291.000000
-25.450994 48.673386 291.000000
-25.450994 49.147568 291.000000
-25.450994 49.621746 291.000000
-25.450994 50.095928 291.000000
-25.450994 50.570110 291.000000
-25.450994 51.044289 291.000000
-25.450994 51.518471 291.000000
-25.450994 51.992653 291.000000
-25.450994 52.466831 291.000000
-25.450994 52.941013 291.000000
-25.450994 53.415195 291.000000
-25.450994 53.889374 291.000000
-25.450994 54.363556 291.000000
-25.450994 54.837738 291.000000
-25.450994 55.311916 291.000000
-25.450994 55.786098 291.000000
-25.450994 56.260281 291.000000
-25.450994 56.734459 291.000000
-25.450994 57.208641 291.000000
-25.450994 57.682819 291.000000
-25.469736 58.199825 291.214294
-25.475565 58.687790 291.280945
-25.475565 59.162426 291.280945
-25.481031 59.649860 291.343445
-25.486177 60.136745 291.402283
-25.486177 60.611584 291.402283
-25.491035 61.098061 291.457825
-25.491035 61.572987 291.457825
-25.491035 62.047913 291.457825
-25.491035 62.522839 291.457825
-25.538454 63.114960 292.000000
-25.538454 63.590771 292.000000
-25.538454 64.066582 292.000000
-25.538454 64.542389 292.000000
-25.538454 65.018204 292.000000
-25.538454 65.494011 292.000000
-25.538454 65.969818 292.000000
-25.538454 66.445633 292.000000
-25.538454 66.921440 292.000000
-27.187412 71.748932 310.853760
-27.187412 72.255470 310.853760
-27.187412 72.761993 310.853760
-25.450994 68.588982 291.000000
-25.450994 69.063164 291.000000
-25.450994 69.537338 291.000000
-25.450994 70.011520 291.000000
-25.450994 70.485703 291.000000
-25.450994 70.959885 291.000000
-25.450994 71.434067 291.000000
-25.450994 71.908249 291.000000
-25.450994 72.382423 291.000000
-25.450994 72.856606 291.000000
-25.450994 73.330788 291.000000
-25.450994 73.804970 291.000000
-25.450994 74.279152 291.000000
-25.538454 75.010216 292.000000
-25.538454 75.486031 292.000000
-25.538454 75.961838 292.000000
-25.538454 76.437645 292.000000
-25.538454 76.913460 292.000000
-25.538454 77.389267 292.000000
-25.538454 77.865082 292.000000
-25.538454 78.340889 292.000000
-26.135578 80.659538 298.827362
-26.135578 81.146477 298.827362
-26.135578 81.633408 298.827362
