-73.498940 47.085724 377.000000
-73.498940 47.700039 377.000000
-73.498940 48.314358 377.000000
-73.498940 48.928673 377.000000
-73.303986 49.411579 376.000000
-73.303986 50.024265 376.000000
-73.109024 50.502277 375.000000
-73.109024 51.113335 375.000000
-73.109024 51.724396 375.000000
-72.914070 52.195892 374.000000
-72.719109 52.664127 373.000000
-72.719109 53.271927 373.000000
-72.329193 53.590828 371.000000
-72.134239 54.049286 370.000000
-72.134239 54.652199 370.000000
-72.134239 55.255108 370.000000
-72.134239 55.858017 370.000000
-72.134239 56.460930 370.000000
-71.939285 56.909611 369.000000
-71.939285 57.510891 369.000000
-71.939285 58.112171 369.000000
-71.744324 58.554344 368.000000
-71.549370 58.993248 367.000000
-71.354408 59.428894 366.000000
-71.354408 60.025284 366.000000
-71.354408 60.621677 366.000000
-71.159454 61.050808 365.000000
-71.159454 61.645569 365.000000
-70.964493 62.069817 364.000000
-70.769539 62.490795 363.000000
-70.769539 63.082298 363.000000
-70.769539 63.673805 363.000000
-70.574577 64.088264 362.000000
-70.574577 64.678139 362.000000
-70.184662 64.907417 360.000000
-69.989708 65.312103 359.000000
-69.989708 65.897095 359.000000
-69.794754 66.296898 358.000000
-69.599792 66.693436 357.000000
-69.599792 67.275162 357.000000
-69.599792 67.856888 357.000000
-69.404831 68.246910 356.000000
-69.404831 68.827003 356.000000
-69.209877 69.212135 355.000000
-69.014923 69.594017 354.000000
-69.014923 70.170853 354.000000
-69.014923 70.747696 354.000000
-69.014923 71.324532 354.000000
-69.014923 71.901375 354.000000
-68.819962 72.273468 353.000000
-68.625000 72.642303 352.000000
-68.625000 73.215881 352.000000
-68.430046 73.579842 351.000000
-68.430046 74.151787 351.000000
-68.430046 74.723740 351.000000
-68.430046 75.295692 351.000000
-68.235092 75.651489 350.000000
-68.235092 76.221809 350.000000
-68.235092 76.792130 350.000000
-68.235092 77.362450 350.000000
-68.235092 77.932770 350.000000
-68.235092 78.503090 350.000000
-68.235092 79.073410 350.000000
-68.235092 79.643738 350.000000
-68.235092 80.214058 350.000000
-68.040131 80.553558 349.000000
-68.040131 81.122253 349.000000
-68.040131 81.690941 349.000000
-68.176605 82.424629 349.700012
-68.176605 82.994461 349.700012
-68.176605 83.564293 349.700012
-68.151260 84.102844 349.570007
-68.142876 84.662056 349.527008
-68.142876 85.231606 349.527008
-68.133659 85.789536 349.479706
-68.123512 86.346153 349.427673
-68.123512 86.915543 349.427673
-68.112358 87.470604 349.370453
-67.788094 87.620766 347.707214
-67.788094 88.187355 347.707214
-67.762886 88.720932 347.577911
-67.235664 88.592621 344.873627
-67.235664 89.154587 344.873627
-67.188782 89.653992 344.633148
-73.358917 38.117271 379.451843
-73.358917 38.735580 379.451843
-73.358917 39.353893 379.451843
-73.191963 39.881233 378.588257
-73.191963 40.498138 378.588257
-73.080170 41.052246 378.010010
-73.042084 41.646492 377.813019
-72.950760 42.209293 377.340637
-72.950760 42.824165 377.340637
-72.905510 43.412094 377.106567
-73.078239 44.130886 378.000000
-73.078239 44.746834 378.000000
-73.078239 45.362782 378.000000
-72.734985 45.762768 376.224548
-72.734985 46.375820 376.224548
-72.884903 47.085724 377.000000
-72.884903 47.700039 377.000000
-72.884903 48.314358 377.000000
-72.884903 48.928673 377.000000
-72.691574 49.411579 376.000000
-72.691574 50.024265 376.000000
-72.498245 50.502277 375.000000
-72.498245 51.113335 375.000000
-72.498245 51.724396 375.000000
-72.304924 52.195892 374.000000
-72.304924 52.805321 374.000000
-72.304924 53.414749 374.000000
-72.111588 53.879726 373.000000
-71.724930 54.195370 371.000000
-71.724930 54.799908 371.000000
-71.531609 55.255108 370.000000
-71.531609 55.858017 370.000000
-71.531609 56.460930 370.000000
-71.531609 57.063839 370.000000
-71.338280 57.510891 369.000000
-71.338280 58.112171 369.000000
-71.338280 58.713451 369.000000
-71.144943 59.153996 368.000000
-70.951622 59.591270 367.000000
-70.951622 60.189293 367.000000
-70.758293 60.621677 366.000000
-70.564964 61.050808 365.000000
-70.564964 61.645569 365.000000
-70.564964 62.240334 365.000000
-70.371628 62.662949 364.000000
-70.371628 63.256081 364.000000
-70.178307 63.673805 363.000000
-70.178307 64.265305 363.000000
-70.178307 64.856812 363.000000
-69.598312 64.907417 360.000000
-69.404991 65.312103 359.000000
-69.404991 65.897095 359.000000
-69.211662 66.296898 358.000000
-69.018333 66.693436 357.000000
-69.018333 67.275162 357.000000
-69.018333 67.856888 357.000000
-68.824997 68.246910 356.000000
-68.824997 68.827003 356.000000
-68.631676 69.212135 355.000000
-68.438347 69.594017 354.000000
-68.438347 70.170853 354.000000
-68.438347 70.747696 354.000000
-68.438347 71.324532 354.000000
-68.438347 71.901375 354.000000
-68.245018 72.273468 353.000000
-68.051689 72.642303 352.000000
-68.051689 73.215881 352.000000
-67.858360 73.579842 351.000000
-67.858360 74.151787 351.000000
-67.858360 74.723740 351.000000
-67.665031 75.081169 350.000000
-67.665031 75.651489 350.000000
-67.665031 76.221809 350.000000
-67.665031 76.792130 350.000000
-67.665031 77.362450 350.000000
-67.471703 77.710106 349.000000
-67.471703 78.278793 349.000000
-67.471703 78.847488 349.000000
-67.471703 79.416176 349.000000
-67.471703 79.984871 349.000000
-67.278374 80.322746 348.000000
-67.085045 80.657372 347.000000
-67.085045 81.222801 347.000000
-67.085045 81.788239 347.000000
-67.085045 82.353668 347.000000
-67.085045 82.919098 347.000000
-67.334549 83.795029 348.290558
-67.334549 84.362556 348.290558
-67.334549 84.930099 348.290558
-67.301498 85.455666 348.119598
-67.265144 85.976456 347.931580
-67.265144 86.543411 347.931580
-67.244492 87.083611 347.824738
-67.221771 87.620766 347.707214
-67.221771 88.187355 347.707214
-67.196777 88.720932 347.577911
-66.938744 88.944450 346.243256
-66.938744 89.508652 346.243256
-66.627464 89.653992 344.633148
-66.267952 89.728775 342.773560
-66.267952 90.287323 342.773560
-66.209595 90.765862 342.471680
-72.740891 38.117271 379.451843
-72.740891 38.735580 379.451843
-72.740891 39.353893 379.451843
-72.600510 39.895065 378.719543
-72.600510 40.512180 378.719543
-72.600510 41.129303 378.719543
-72.426727 41.646492 377.813019
-72.336174 42.209293 377.340637
-72.336174 42.824165 377.340637
-72.291298 43.412094 377.106567
-72.241676 43.996361 376.847687
-72.241676 44.610428 376.847687
-72.188980 45.191513 376.572845
-72.122215 45.762768 376.224548
-72.122215 46.375820 376.224548
-72.270874 47.085724 377.000000
-72.270874 47.700039 377.000000
-72.270874 48.314358 377.000000
-72.270874 48.928673 377.000000
-72.079170 49.411579 376.000000
-72.079170 50.024265 376.000000
-71.887466 50.502277 375.000000
-71.887466 51.113335 375.000000
-71.887466 51.724396 375.000000
-71.695770 52.195892 374.000000
-71.695770 52.805321 374.000000
-71.695770 53.414749 374.000000
-71.504074 53.879726 373.000000
-71.120667 54.195370 371.000000
-71.120667 54.799908 371.000000
-70.928970 55.255108 370.000000
-70.928970 55.858017 370.000000
-70.928970 56.460930 370.000000
-70.928970 57.063839 370.000000
-70.737274 57.510891 369.000000
-70.737274 58.112171 369.000000
-70.737274 58.713451 369.000000
-70.545570 59.153996 368.000000
-70.353874 59.591270 367.000000
-70.353874 60.189293 367.000000
-70.162170 60.621677 366.000000
-70.162170 61.218071 366.000000
-70.162170 61.814465 366.000000
-69.970467 62.240334 365.000000
-69.970467 62.835094 365.000000
-69.970467 63.429859 365.000000
-69.778770 63.849216 364.000000
-69.587074 64.265305 363.000000
-69.587074 64.856812 363.000000
-69.203667 65.087723 361.000000
-68.820274 65.312103 359.000000
-68.820274 65.897095 359.000000
-68.628571 66.296898 358.000000
-68.436867 66.693436 357.000000
-68.436867 67.275162 357.000000
-68.436867 67.856888 357.000000
-68.245171 68.246910 356.000000
-68.245171 68.827003 356.000000
-68.053474 69.212135 355.000000
-68.053474 69.790604 355.000000
-68.053474 70.369072 355.000000
-67.861771 70.747696 354.000000
-67.670067 71.123047 353.000000
-67.670067 71.698257 353.000000
-67.670067 72.273468 353.000000
-67.478371 72.642303 352.000000
-67.478371 73.215881 352.000000
-67.286674 73.579842 351.000000
-67.286674 74.151787 351.000000
-67.286674 74.723740 351.000000
-67.094971 75.081169 350.000000
-67.094971 75.651489 350.000000
-67.094971 76.221809 350.000000
-67.094971 76.792130 350.000000
-67.094971 77.362450 350.000000
-66.903267 77.710106 349.000000
-66.903267 78.278793 349.000000
-66.903267 78.847488 349.000000
-66.903267 79.416176 349.000000
-66.903267 79.984871 349.000000
-66.711578 80.322746 348.000000
-66.519875 80.657372 347.000000
-66.519875 81.222801 347.000000
-66.519875 81.788239 347.000000
-66.519875 82.353668 347.000000
-66.519875 82.919098 347.000000
-66.767273 83.795029 348.290558
-66.767273 84.362556 348.290558
-66.767273 84.930099 348.290558
-66.734497 85.455666 348.119598
-66.698456 85.976456 347.931580
-66.698456 86.543411 347.931580
-66.677979 87.083611 347.824738
-66.655449 87.620766 347.707214
-66.655449 88.187355 347.707214
-66.630661 88.720932 347.577911
-66.374809 88.944450 346.243256
-66.374809 89.508652 346.243256
-66.245461 89.897331 345.568542
-66.237198 90.449142 345.525421
-66.237198 91.012169 345.525421
-65.651794 90.765862 342.471680
-65.600395 91.252426 342.203583
-65.600395 91.810043 342.203583
-65.600395 92.367653 342.203583
-71.983673 39.277946 378.719543
-71.983673 39.895065 378.719543
-71.983673 40.512180 378.719543
-71.983673 41.129303 378.719543
-71.938782 41.720390 378.483398
-71.938782 42.337124 378.483398
-71.938782 42.953857 378.483398
-71.806366 43.490391 377.786713
-71.730698 44.059513 377.388611
-71.730698 44.674461 377.388611
-71.659142 45.244228 377.012115
-71.607086 45.825256 376.738281
-71.607086 46.439144 376.738281
-71.537819 47.007515 376.373810
-71.469711 47.575481 376.015533
-71.469711 48.188194 376.015533
-71.466759 48.798893 376.000000
-71.466759 49.411579 376.000000
-71.466759 50.024265 376.000000
-71.276688 50.502277 375.000000
-71.276688 51.113335 375.000000
-71.276688 51.724396 375.000000
-71.276688 52.335453 375.000000
-71.086624 52.805321 374.000000
-71.086624 53.414749 374.000000
-71.086624 54.024178 374.000000
-70.706474 54.341442 372.000000
-70.706474 54.947613 372.000000
-70.516403 55.404449 371.000000
-70.326340 55.858017 370.000000
-70.326340 56.460930 370.000000
-70.326340 57.063839 370.000000
-70.136261 57.510891 369.000000
-70.136261 58.112171 369.000000
-70.136261 58.713451 369.000000
-69.946190 59.153996 368.000000
-69.756126 59.591270 367.000000
-69.756126 60.189293 367.000000
-69.566055 60.621677 366.000000
-69.566055 61.218071 366.000000
-69.566055 61.814465 366.000000
-69.375977 62.240334 365.000000
-69.375977 62.835094 365.000000
-69.375977 63.429859 365.000000
-69.185905 63.849216 364.000000
-68.995842 64.265305 363.000000
-68.995842 64.856812 363.000000
-68.615692 65.087723 361.000000
-68.235558 65.312103 359.000000
-68.235558 65.897095 359.000000
-68.045479 66.296898 358.000000
-67.855408 66.693436 357.000000
-67.855408 67.275162 357.000000
-67.855408 67.856888 357.000000
-67.665337 68.246910 356.000000
-67.665337 68.827003 356.000000
-67.475273 69.212135 355.000000
-67.475273 69.790604 355.000000
-67.475273 70.369072 355.000000
-67.285194 70.747696 354.000000
-67.095123 71.123047 353.000000
-67.095123 71.698257 353.000000
-66.905052 72.068726 352.000000
-66.714989 72.435936 351.000000
-66.714989 73.007889 351.000000
-66.714989 73.579842 351.000000
-66.524910 73.940529 350.000000
-66.524910 74.510849 350.000000
-66.524910 75.081169 350.000000
-66.524910 75.651489 350.000000
-66.524910 76.221809 350.000000
-66.334839 76.572723 349.000000
-66.334839 77.141411 349.000000
-66.334839 77.710106 349.000000
-66.334839 78.278793 349.000000
-66.144775 78.621559 348.000000
-66.144775 79.188622 348.000000
-66.144775 79.755684 348.000000
-65.954697 80.091942 347.000000
-65.954697 80.657372 347.000000
-65.954697 81.222801 347.000000
-65.764626 81.552536 346.000000
-65.764626 82.116333 346.000000
-65.764626 82.680138 346.000000
-65.764626 83.243942 346.000000
-65.840652 83.904625 346.399994
-65.840652 84.469086 346.399994
-65.921005 85.137306 346.822723
-65.921005 85.702454 346.822723
-65.921005 86.267593 346.822723
-65.879623 86.778229 346.605011
-65.853104 87.307869 346.465515
-65.853104 87.872429 346.465515
-65.823944 88.397827 346.312073
-65.810860 88.944450 346.243256
-65.810860 89.508652 346.243256
-65.682617 89.897331 345.568542
-65.674423 90.449142 345.525421
-65.674423 91.012169 345.525421
-65.093994 90.765862 342.471680
-65.043037 91.252426 342.203583
-65.043037 91.810043 342.203583
-65.043037 92.367653 342.203583
-71.366837 39.277946 378.719543
-71.366837 39.895065 378.719543
-71.366837 40.512180 378.719543
-71.366837 41.129303 378.719543
-71.322334 41.720390 378.483398
-71.322334 42.337124 378.483398
-71.322334 42.953857 378.483398
-71.248009 43.525185 378.088989
-71.248009 44.141277 378.088989
-71.248009 44.757366 378.088989
-71.248009 45.373459 378.088989
-71.248009 45.989552 378.088989
-71.248009 46.605644 378.088989
-71.248009 47.221737 378.088989
-71.248009 47.837826 378.088989
-71.248009 48.453918 378.088989
-71.248009 49.070007 378.088989
-71.109436 49.589462 377.353638
-71.109436 50.204357 377.353638
-70.964005 50.715313 376.581848
-70.665909 51.113335 375.000000
-70.665909 51.724396 375.000000
-70.665909 52.335453 375.000000
-70.477470 52.805321 374.000000
-70.477470 53.414749 374.000000
-70.477470 54.024178 374.000000
-70.328621 54.518215 373.210114
-70.328621 55.126358 373.210114
-70.183533 55.619522 372.440186
-70.046509 56.116631 371.713013
-70.046509 56.722328 371.713013
-69.723701 57.063839 370.000000
-69.535255 57.510891 369.000000
-69.535255 58.112171 369.000000
-69.535255 58.713451 369.000000
-69.346817 59.153996 368.000000
-69.346817 59.753647 368.000000
-69.346817 60.353298 368.000000
-69.158379 60.787312 367.000000
-68.969933 61.218071 366.000000
-68.969933 61.814465 366.000000
-68.781487 62.240334 365.000000
-68.781487 62.835094 365.000000
-68.781487 63.429859 365.000000
-68.593048 63.849216 364.000000
-68.404610 64.265305 363.000000
-68.404610 64.856812 363.000000
-68.027718 65.087723 361.000000
-67.650833 65.312103 359.000000
-67.650833 65.897095 359.000000
-67.462395 66.296898 358.000000
-67.273949 66.693436 357.000000
-67.273949 67.275162 357.000000
-67.273949 67.856888 357.000000
-67.085503 68.246910 356.000000
-67.085503 68.827003 356.000000
-66.897064 69.212135 355.000000
-66.897064 69.790604 355.000000
-66.897064 70.369072 355.000000
-66.708626 70.747696 354.000000
-66.520180 71.123047 353.000000
-66.520180 71.698257 353.000000
-66.331734 72.068726 352.000000
-66.143295 72.435936 351.000000
-66.143295 73.007889 351.000000
-65.954849 73.370209 350.000000
-65.954849 73.940529 350.000000
-65.954849 74.510849 350.000000
-65.766411 74.866653 349.000000
-65.766411 75.435341 349.000000
-65.766411 76.004036 349.000000
-65.766411 76.572723 349.000000
-65.766411 77.141411 349.000000
-65.577972 77.487442 348.000000
-65.577972 78.054497 348.000000
-65.389526 78.395645 347.000000
-65.389526 78.961075 347.000000
-65.389526 79.526505 347.000000
-65.389526 80.091942 347.000000
-65.201080 80.424927 346.000000
-65.201080 80.988731 346.000000
-65.201080 81.552536 346.000000
-65.012642 81.879005 345.000000
-65.012642 82.441177 345.000000
-65.012642 83.003349 345.000000
-65.276459 83.904625 346.399994
-65.276459 84.469086 346.399994
-65.276459 85.033539 346.399994
-65.227470 85.533752 346.140015
-65.227470 86.097778 346.140015
-65.192413 86.615242 345.954010
-65.172699 87.152611 345.849396
-65.172699 87.716164 345.849396
-65.151024 88.250359 345.734344
-65.127174 88.781212 345.607788
-65.127174 89.344376 345.607788
-65.119781 89.897331 345.568542
-65.111656 90.449142 345.525421
-65.111656 91.012169 345.525421
-64.969131 91.374763 344.769135
-64.969131 91.936554 344.769135
-64.969131 92.498352 344.769135
-64.485680 92.367653 342.203583
-64.363785 92.749634 341.556763
-64.279663 93.184242 341.110352
-64.279663 93.740082 341.110352
-64.276611 94.291435 341.094147
-64.276611 94.847237 341.094147
-64.276611 95.403046 341.094147
-70.744759 39.275036 378.691498
-70.744759 39.892109 378.691498
-70.744759 40.509182 378.691498
-70.705879 41.103657 378.483398
-70.705879 41.720390 378.483398
-70.705879 42.337124 378.483398
-70.705879 42.953857 378.483398
-70.632202 43.525185 378.088989
-70.632202 44.141277 378.088989
-70.632202 44.757366 378.088989
-70.632202 45.373459 378.088989
-70.632202 45.989552 378.088989
-70.632202 46.605644 378.088989
-70.632202 47.221737 378.088989
-70.632202 47.837826 378.088989
-70.632202 48.453918 378.088989
-70.632202 49.070007 378.088989
-70.494827 49.589462 377.353638
-70.494827 50.204357 377.353638
-70.350647 50.715313 376.581848
-70.055130 51.113335 375.000000
-70.055130 51.724396 375.000000
-70.055130 52.335453 375.000000
-69.868324 52.805321 374.000000
-69.868324 53.414749 374.000000
-69.868324 54.024178 374.000000
-69.720757 54.518215 373.210114
-69.720757 55.126358 373.210114
-69.576927 55.619522 372.440186
-69.441078 56.116631 371.713013
-69.441078 56.722328 371.713013
-69.121071 57.063839 370.000000
-68.934250 57.510891 369.000000
-68.934250 58.112171 369.000000
-68.934250 58.713451 369.000000
-69.251022 59.587303 370.695648
-69.251022 60.191345 370.695648
-69.251022 60.795391 370.695648
-69.028145 61.201828 369.502625
-68.825500 61.622490 368.417877
-68.825500 62.222820 368.417877
-68.598793 62.616215 367.204315
-68.375725 63.009010 366.010223
-68.375725 63.605415 366.010223
-68.018555 63.866467 364.098358
-67.813377 64.265305 363.000000
-67.813377 64.856812 363.000000
-67.439743 65.087723 361.000000
-67.066116 65.312103 359.000000
-67.066116 65.897095 359.000000
-66.879303 66.296898 358.000000
-66.692490 66.693436 357.000000
-66.692490 67.275162 357.000000
-66.692490 67.856888 357.000000
-66.505676 68.246910 356.000000
-66.505676 68.827003 356.000000
-66.318863 69.212135 355.000000
-66.318863 69.790604 355.000000
-66.318863 70.369072 355.000000
-66.132050 70.747696 354.000000
-65.945236 71.123047 353.000000
-65.945236 71.698257 353.000000
-65.758415 72.068726 352.000000
-65.571609 72.435936 351.000000
-65.571609 73.007889 351.000000
-65.384796 73.370209 350.000000
-65.384796 73.940529 350.000000
-65.384796 74.510849 350.000000
-65.197975 74.866653 349.000000
-65.197975 75.435341 349.000000
-65.197975 76.004036 349.000000
-65.197975 76.572723 349.000000
-65.197975 77.141411 349.000000
-65.011169 77.487442 348.000000
-65.011169 78.054497 348.000000
-64.824356 78.395645 347.000000
-64.824356 78.961075 347.000000
-64.824356 79.526505 347.000000
-64.824356 80.091942 347.000000
-64.450722 80.192482 345.000000
-64.450722 80.754654 345.000000
-64.450722 81.316826 345.000000
-64.263916 81.641678 344.000000
-64.263916 82.202217 344.000000
-64.263916 82.762764 344.000000
-64.562813 83.710861 345.600006
-64.562813 84.274002 345.600006
-64.562813 84.837158 345.600006
-64.517975 85.341003 345.359985
-64.517975 85.903763 345.359985
-64.487335 86.425453 345.195984
-64.453636 86.942497 345.015594
-64.453636 87.504692 345.015594
-64.416573 88.016235 344.817169
-64.394470 88.547729 344.698883
-64.394470 89.109413 344.698883
-64.388840 89.663261 344.668762
-64.394539 90.232864 344.699219
-64.394539 90.794548 344.699219
-64.407600 91.374763 344.769135
-64.407600 91.936554 344.769135
-64.407600 92.498352 344.769135
-64.204926 92.767311 343.684235
-64.204926 93.327339 343.684235
-63.724087 93.184242 341.110352
-63.724087 93.740082 341.110352
-63.721058 94.291435 341.094147
-63.721058 94.847237 341.094147
-63.721058 95.403046 341.094147
-63.415142 95.498177 339.456604
-63.356991 95.963234 339.145325
-63.356991 96.515869 339.145325
-63.280708 96.951630 338.736969
-63.228085 97.422508 338.455292
-63.228085 97.974022 338.455292
-70.053131 39.849541 378.287384
-70.053131 40.465954 378.287384
-70.053131 41.082367 378.287384
-70.016396 41.676914 378.088989
-70.016396 42.293003 378.088989
-70.016396 42.909096 378.088989
-70.016396 43.525185 378.088989
-70.016396 44.141277 378.088989
-70.016396 44.757366 378.088989
-70.016396 45.373459 378.088989
-70.016396 45.989552 378.088989
-70.016396 46.605644 378.088989
-70.016396 47.221737 378.088989
-70.016396 47.837826 378.088989
-70.016396 48.453918 378.088989
-70.016396 49.070007 378.088989
-69.880219 49.589462 377.353638
-69.880219 50.204357 377.353638
-69.737289 50.715313 376.581848
-69.537521 51.181908 375.503082
-69.537521 51.793785 375.503082
-69.425011 52.320873 374.895538
-69.746361 53.176765 376.630798
-69.746361 53.790478 376.630798
-69.746361 54.404190 376.630798
-69.720901 54.997826 376.493347
-69.720901 55.611324 376.493347
-69.692902 56.202236 376.342163
-69.662102 56.790371 376.175842
-69.662102 57.403343 376.175842
-69.628227 57.988102 375.992889
-69.378410 58.390530 374.643890
-69.378410 59.001007 374.643890
-69.122688 59.391758 373.262970
-68.878777 59.788265 371.945862
-68.647255 60.191345 370.695648
-68.647255 60.795391 370.695648
-68.426331 61.201828 369.502625
-68.225449 61.622490 368.417877
-68.225449 62.222820 368.417877
-68.000710 62.616215 367.204315
-67.779587 63.009010 366.010223
-67.779587 63.605415 366.010223
-67.425537 63.866467 364.098358
-67.222137 64.265305 363.000000
-67.222137 64.856812 363.000000
-66.851768 65.087723 361.000000
-66.481400 65.312103 359.000000
-66.481400 65.897095 359.000000
-66.296211 66.296898 358.000000
-66.296211 66.880249 358.000000
-66.296211 67.463608 358.000000
-66.111031 67.856888 357.000000
-65.925842 68.246910 356.000000
-65.925842 68.827003 356.000000
-65.925842 69.407104 356.000000
-65.740662 69.790604 355.000000
-65.740662 70.369072 355.000000
-65.555473 70.747696 354.000000
-65.370285 71.123047 353.000000
-65.370285 71.698257 353.000000
-65.185097 72.068726 352.000000
-64.999924 72.435936 351.000000
-64.999924 73.007889 351.000000
-64.814735 73.370209 350.000000
-64.814735 73.940529 350.000000
-64.814735 74.510849 350.000000
-64.629547 74.866653 349.000000
-64.629547 75.435341 349.000000
-64.629547 76.004036 349.000000
-64.444366 76.353317 348.000000
-64.444366 76.920380 348.000000
-64.259178 77.264778 347.000000
-64.259178 77.830208 347.000000
-64.259178 78.395645 347.000000
-64.259178 78.961075 347.000000
-64.259178 79.526505 347.000000
-64.073990 79.861122 346.000000
-63.888805 80.192482 345.000000
-63.888805 80.754654 345.000000
-63.888805 81.316826 345.000000
-63.703625 81.641678 344.000000
-63.703625 82.202217 344.000000
-63.703625 82.762764 344.000000
-63.999924 83.710861 345.600006
-63.999924 84.274002 345.600006
-63.999924 84.837158 345.600006
-63.955471 85.341003 345.359985
-63.955471 85.903763 345.359985
-63.925102 86.425453 345.195984
-63.891697 86.942497 345.015594
-63.891697 87.504692 345.015594
-63.854954 88.016235 344.817169
-63.833046 88.547729 344.698883
-63.833046 89.109413 344.698883
-63.827469 89.663261 344.668762
-63.833111 90.232864 344.699219
-63.833111 90.794548 344.699219
-63.846058 91.374763 344.769135
-63.846058 91.936554 344.769135
-63.846058 92.498352 344.769135
-63.645149 92.767311 343.684235
-63.645149 93.327339 343.684235
-63.168503 93.184242 341.110352
-63.168503 93.740082 341.110352
-63.165504 94.291435 341.094147
-63.165504 94.847237 341.094147
-63.165504 95.403046 341.094147
-62.862255 95.498177 339.456604
-62.804611 95.963234 339.145325
-62.804611 96.515869 339.145325
-62.728989 96.951630 338.736969
-62.676826 97.422508 338.455292
-62.676826 97.974022 338.455292
-62.402943 98.095001 336.976318
-62.351269 98.562408 336.697266
-62.351269 99.111046 336.697266
-62.283604 99.551544 336.331879
-69.436996 39.849541 378.287384
-69.436996 40.465954 378.287384
-69.436996 41.082367 378.287384
-69.368004 41.657349 377.911499
-69.385231 42.283646 378.005341
-69.385231 42.899601 378.005341
-69.385231 43.515560 378.005341
-69.385231 44.131512 378.005341
-69.385231 44.747467 378.005341
-69.385231 45.363422 378.005341
-69.385231 45.979378 378.005341
-69.385231 46.595329 378.005341
-69.385231 47.211288 378.005341
-69.385231 47.827244 378.005341
-69.385231 48.443199 378.005341
-69.302483 49.000648 377.554565
-69.302483 49.615868 377.554565
-69.302483 50.231091 377.554565
-69.302483 50.846310 377.554565
-68.968765 51.213715 375.736450
-68.968765 51.825977 375.736450
-68.863663 52.358330 375.163910
-69.165092 53.201504 376.806030
-69.165092 53.815506 376.806030
-69.165092 54.429504 376.806030
-69.149193 55.030857 376.719421
-69.149193 55.644714 376.719421
-69.131706 56.244354 376.624176
-69.112473 56.842236 376.519379
-69.112473 57.455769 376.519379
-69.091309 58.051517 376.404083
-69.085297 58.659763 376.371338
-69.085297 59.273056 376.371338
-68.809059 59.646889 374.866394
-68.525238 60.009174 373.320160
-68.274803 60.395969 371.955841
-68.274803 61.002068 371.955841
-68.049767 61.405094 370.729828
-67.834015 61.812599 369.554443
-67.834015 62.414783 369.554443
-67.595322 62.795223 368.254059
-67.371605 63.185474 367.035278
-67.371605 63.783550 367.035278
-67.151085 64.170906 365.833923
-66.759552 64.389389 363.700867
-66.759552 64.982033 363.700867
-66.263794 65.087723 361.000000
-65.896683 65.312103 359.000000
-65.896683 65.897095 359.000000
-65.713127 66.296898 358.000000
-65.713127 66.880249 358.000000
-65.713127 67.463608 358.000000
-65.529564 67.856888 357.000000
-65.346008 68.246910 356.000000
-65.346008 68.827003 356.000000
-65.346008 69.407104 356.000000
-65.162460 69.790604 355.000000
-65.162460 70.369072 355.000000
-64.978897 70.747696 354.000000
-64.795341 71.123047 353.000000
-64.795341 71.698257 353.000000
-64.611786 72.068726 352.000000
-64.428230 72.435936 351.000000
-64.428230 73.007889 351.000000
-64.244675 73.370209 350.000000
-64.244675 73.940529 350.000000
-64.244675 74.510849 350.000000
-64.061119 74.866653 349.000000
-63.877563 75.219193 348.000000
-63.877563 75.786255 348.000000
-63.877563 76.353317 348.000000
-63.694008 76.699348 347.000000
-63.694008 77.264778 347.000000
-63.694008 77.830208 347.000000
-63.694008 78.395645 347.000000
-63.510448 78.733521 346.000000
-63.510448 79.297325 346.000000
-63.326889 79.630310 345.000000
-63.143341 79.960045 344.000000
-63.143341 80.520592 344.000000
-63.143341 81.081131 344.000000
-62.959782 81.404343 343.000000
-62.959782 81.963257 343.000000
-62.959782 82.522171 343.000000
-62.959782 83.081085 343.000000
-62.959782 83.639999 343.000000
-63.216759 84.542587 344.399994
-63.216759 85.103775 344.399994
-63.216759 85.664970 344.399994
-63.169037 86.161079 344.140015
-63.116543 86.649780 343.854004
-63.116543 87.210083 343.854004
-63.077145 87.715607 343.639404
-63.052174 88.240616 343.503357
-63.052174 88.800354 343.503357
-63.043056 89.347160 343.453674
-63.040352 89.902969 343.438965
-63.040352 90.462593 343.438965
-63.048409 91.033859 343.482849
-63.057270 91.606430 343.531128
-63.085381 92.207283 343.684235
-63.085381 92.767311 343.684235
-63.085381 93.327339 343.684235
-62.872650 93.570786 342.525330
-62.872650 94.128929 342.525330
-62.380592 93.946022 339.844635
-62.380592 94.499786 339.844635
-62.380592 95.053566 339.844635
-62.619953 95.974190 341.148651
-62.619953 96.530090 341.148651
-62.619953 97.085991 341.148651
-62.597534 97.606926 341.026489
-62.574017 98.125748 340.898407
-62.574017 98.681236 340.898407
-61.854095 98.095001 336.976318
-61.802872 98.562408 336.697266
-61.802872 99.111046 336.697266
-61.735809 99.551544 336.331879
-68.820862 39.849541 378.287384
-68.820862 40.465954 378.287384
-68.820862 41.082367 378.287384
-68.752487 41.657349 377.911499
-68.769554 42.283646 378.005341
-68.769554 42.899601 378.005341
-68.769554 43.515560 378.005341
-68.769554 44.131512 378.005341
-68.769554 44.747467 378.005341
-68.769554 45.363422 378.005341
-68.769554 45.979378 378.005341
-68.769554 46.595329 378.005341
-68.769554 47.211288 378.005341
-68.769554 47.827244 378.005341
-68.769554 48.443199 378.005341
-68.687553 49.000648 377.554565
-68.687553 49.615868 377.554565
-68.687553 50.231091 377.554565
-68.687553 50.846310 377.554565
-68.356781 51.213715 375.736450
-68.356781 51.825977 375.736450
-68.252617 52.358330 375.163910
-68.551369 53.201504 376.806030
-68.551369 53.815506 376.806030
-68.551369 54.429504 376.806030
-68.535614 55.030857 376.719421
-68.535614 55.644714 376.719421
-68.518280 56.244354 376.624176
-68.499222 56.842236 376.519379
-68.499222 57.455769 376.519379
-68.478241 58.051517 376.404083
-68.472282 58.659763 376.371338
-68.472282 59.273056 376.371338
-68.198494 59.646889 374.866394
-67.917191 60.009174 373.320160
-67.668983 60.395969 371.955841
-67.668983 61.002068 371.955841
-67.450813 61.409534 370.756622
-67.450813 62.013676 370.756622
-67.450813 62.617821 370.756622
-67.195694 62.982838 369.354309
-66.956940 63.358776 368.041962
-66.956940 63.958492 368.041962
-66.722069 64.331757 366.750916
-66.490692 64.704216 365.479126
-66.490692 65.299751 365.479126
-66.035103 65.443787 362.974884
-65.311966 65.312103 359.000000
-65.311966 65.897095 359.000000
-65.130035 66.296898 358.000000
-65.130035 66.880249 358.000000
-65.130035 67.463608 358.000000
-64.948105 67.856888 357.000000
-64.766174 68.246910 356.000000
-64.766174 68.827003 356.000000
-64.766174 69.407104 356.000000
-64.584251 69.790604 355.000000
-64.584251 70.369072 355.000000
-64.402321 70.747696 354.000000
-64.220398 71.123047 353.000000
-64.220398 71.698257 353.000000
-64.038467 72.068726 352.000000
-63.856544 72.435936 351.000000
-63.856544 73.007889 351.000000
-63.674614 73.370209 350.000000
-63.674614 73.940529 350.000000
-63.674614 74.510849 350.000000
-63.492683 74.866653 349.000000
-63.310760 75.219193 348.000000
-63.310760 75.786255 348.000000
-63.310760 76.353317 348.000000
-63.128834 76.699348 347.000000
-63.128834 77.264778 347.000000
-63.128834 77.830208 347.000000
-63.128834 78.395645 347.000000
-62.946903 78.733521 346.000000
-62.946903 79.297325 346.000000
-62.764977 79.630310 345.000000
-62.583054 79.960045 344.000000
-62.583054 80.520592 344.000000
-62.401123 80.845428 343.000000
-62.401123 81.404343 343.000000
-62.401123 81.963257 343.000000
-62.401123 82.522171 343.000000
-62.219193 82.838867 342.000000
-62.219193 83.396149 342.000000
-62.037266 83.707954 341.000000
-62.473896 84.856667 343.399994
-62.473896 85.416237 343.399994
-62.473896 85.975800 343.399994
-62.408401 86.444656 343.040009
-62.408401 87.003632 343.040009
-62.354546 87.487045 342.743988
-62.313507 87.987602 342.518402
-62.313507 88.545723 342.518402
-62.286552 89.065315 342.370239
-62.275093 89.606712 342.307251
-62.275093 90.164497 342.307251
-62.262489 90.703926 342.237976
-62.251572 91.245598 342.177979
-62.273006 91.834778 342.295776
-62.273006 92.392548 342.295776
-62.314766 93.012650 342.525330
-62.314766 93.570786 342.525330
-62.314766 94.128929 342.525330
-61.603550 93.606369 338.615967
-61.625023 94.190964 338.734009
-61.625023 94.742928 338.734009
-62.064312 95.974190 341.148651
-62.064312 96.530090 341.148651
-62.064312 97.085991 341.148651
-62.042088 97.606926 341.026489
-62.018784 98.125748 340.898407
-62.018784 98.681236 340.898407
-61.520756 98.439827 338.160889
-61.254482 98.562408 336.697266
-61.254482 99.111046 336.697266
-61.188011 99.551544 336.331879
-60.792149 99.451996 334.155975
-60.792149 99.996498 334.155975
-68.106476 41.638710 377.742432
-68.106476 42.254238 377.742432
-68.106476 42.869766 377.742432
-68.093803 43.477200 377.672119
-68.093803 44.092609 377.672119
-68.093803 44.708023 377.672119
-68.093803 45.323433 377.672119
-68.093803 45.938847 377.672119
-68.093803 46.554256 377.672119
-68.093803 47.169666 377.672119
-68.093803 47.785080 377.672119
-68.093803 48.400494 377.672119
-68.072609 49.000648 377.554565
-68.072609 49.615868 377.554565
-68.072609 50.231091 377.554565
-68.072609 50.846310 377.554565
-68.062737 51.454067 377.499817
-68.062737 52.069199 377.499817
-67.701286 52.404541 375.495056
-67.978836 53.233761 377.034485
-67.978836 53.848133 377.034485
-67.978836 54.462509 377.034485
-67.972221 55.071518 376.997772
-67.972221 55.685825 376.997772
-67.963165 56.292645 376.947571
-67.953217 56.898540 376.892365
-67.953217 57.512688 376.892365
-67.942261 58.117455 376.831604
-67.930214 58.721085 376.764801
-67.930214 59.335018 376.764801
-67.916962 59.937256 376.691284
-67.613731 60.280727 375.009491
-67.320747 60.627941 373.384491
-67.320747 61.236370 373.384491
-67.078110 61.621891 372.038727
-66.846947 62.013676 370.756622
-66.846947 62.617821 370.756622
-66.594116 62.982838 369.354309
-66.357498 63.358776 368.041962
-66.357498 63.958492 368.041962
-66.124725 64.331757 366.750916
-65.895424 64.704216 365.479126
-65.895424 65.299751 365.479126
-65.443909 65.443787 362.974884
-65.410652 66.001686 362.790405
-65.410652 66.592850 362.790405
-65.181267 66.948418 361.518188
-64.546944 66.880249 358.000000
-64.546944 67.463608 358.000000
-64.366646 67.856888 357.000000
-64.186348 68.246910 356.000000
-64.186348 68.827003 356.000000
-64.186348 69.407104 356.000000
-64.006050 69.790604 355.000000
-64.006050 70.369072 355.000000
-63.825748 70.747696 354.000000
-63.645451 71.123047 353.000000
-63.645451 71.698257 353.000000
-63.645451 72.273468 353.000000
-63.104553 72.229568 350.000000
-63.104553 72.799889 350.000000
-63.104553 73.370209 350.000000
-63.104553 73.940529 350.000000
-63.104553 74.510849 350.000000
-62.924255 74.866653 349.000000
-62.743961 75.219193 348.000000
-62.743961 75.786255 348.000000
-62.743961 76.353317 348.000000
-62.563660 76.699348 347.000000
-62.563660 77.264778 347.000000
-62.563660 77.830208 347.000000
-62.563660 78.395645 347.000000
-62.383358 78.733521 346.000000
-62.383358 79.297325 346.000000
-62.203060 79.630310 345.000000
-62.022766 79.960045 344.000000
-62.022766 80.520592 344.000000
-61.842464 80.845428 343.000000
-61.842464 81.404343 343.000000
-61.842464 81.963257 343.000000
-61.842464 82.522171 343.000000
-61.662163 82.838867 342.000000
-61.662163 83.396149 342.000000
-61.481865 83.707954 341.000000
-61.914581 84.856667 343.399994
-61.914581 85.416237 343.399994
-61.914581 85.975800 343.399994
-61.849678 86.444656 343.040009
-61.849678 87.003632 343.040009
-61.796307 87.487045 342.743988
-61.755630 87.987602 342.518402
-61.755630 88.545723 342.518402
-61.728916 89.065315 342.370239
-61.717560 89.606712 342.307251
-61.717560 90.164497 342.307251
-61.705070 90.703926 342.237976
-61.694256 91.245598 342.177979
-61.715492 91.834778 342.295776
-61.715492 92.392548 342.295776
-61.756878 93.012650 342.525330
-61.756878 93.570786 342.525330
-61.756878 94.128929 342.525330
-60.626823 92.954437 336.257629
-61.073311 94.190964 338.734009
-61.073311 94.742928 338.734009
-61.508667 95.974190 341.148651
-61.508667 96.530090 341.148651
-61.508667 97.085991 341.148651
-61.486641 97.606926 341.026489
-61.463547 98.125748 340.898407
-61.463547 98.681236 340.898407
-60.969982 98.439827 338.160889
-60.355572 97.993309 334.753174
-60.355572 98.538788 334.753174
-60.290432 98.977325 334.391907
-60.247894 99.451996 334.155975
-60.247894 99.996498 334.155975
-60.123142 100.332809 333.464050
-60.123142 100.876190 333.464050
-60.123142 101.419563 333.464050
-67.474358 42.243671 377.647949
-67.474358 42.859043 377.647949
-67.474358 43.474415 377.647949
-67.439003 44.066689 377.450104
-67.439003 44.681740 377.450104
-67.447884 45.302757 377.499817
-67.447884 45.917889 377.499817
-67.447884 46.533020 377.499817
-67.447884 47.148151 377.499817
-67.447884 47.763279 377.499817
-67.447884 48.378410 377.499817
-67.447884 48.993542 377.499817
-67.447884 49.608673 377.499817
-67.447884 50.223804 377.499817
-67.447884 50.838936 377.499817
-67.447884 51.454067 377.499817
-67.447884 52.069199 377.499817
-67.409584 52.654415 377.285461
-67.370316 53.238167 377.065674
-67.370316 53.852589 377.065674
-67.370316 54.467010 377.065674
-67.364136 55.076382 377.031067
-67.364136 55.690746 377.031067
-67.361847 56.303200 377.018250
-67.357071 56.913517 376.991547
-67.357071 57.527817 376.991547
-67.351822 58.137589 376.962158
-67.346046 58.746799 376.929810
-67.346046 59.361004 376.929810
-67.339691 59.969551 376.894257
-67.332703 60.577408 376.855133
-67.325012 61.184502 376.812103
-67.325012 61.798512 376.812103
-67.011765 62.122124 375.058868
-66.742455 62.481167 373.551575
-66.742455 63.089867 373.551575
-66.452927 63.422237 371.931122
-66.184532 63.769695 370.428925
-66.184532 64.373299 370.428925
-65.922264 64.719421 368.961029
-65.665512 65.066246 367.524048
-65.665512 65.665123 367.524048
-65.413681 66.009857 366.114532
-64.819763 66.001686 362.790405
-64.819763 66.592850 362.790405
-64.592445 66.948418 361.518188
-63.963856 66.880249 358.000000
-63.963856 67.463608 358.000000
-63.785183 67.856888 357.000000
-63.606514 68.246910 356.000000
-63.606514 68.827003 356.000000
-63.606514 69.407104 356.000000
-63.427849 69.790604 355.000000
-63.427849 70.369072 355.000000
-63.249176 70.747696 354.000000
-63.070503 71.123047 353.000000
-63.070503 71.698257 353.000000
-63.070503 72.273468 353.000000
-62.534496 72.229568 350.000000
-62.534496 72.799889 350.000000
-62.534496 73.370209 350.000000
-62.534496 73.940529 350.000000
-62.534496 74.510849 350.000000
-62.355824 74.866653 349.000000
-62.177158 75.219193 348.000000
-62.177158 75.786255 348.000000
-62.177158 76.353317 348.000000
-61.998486 76.699348 347.000000
-61.998486 77.264778 347.000000
-61.998486 77.830208 347.000000
-61.819817 78.169716 346.000000
-61.819817 78.733521 346.000000
-61.819817 79.297325 346.000000
-61.462479 79.399506 344.000000
-61.283806 79.727600 343.000000
-61.283806 80.286514 343.000000
-61.283806 80.845428 343.000000
-61.283806 81.404343 343.000000
-61.283806 81.963257 343.000000
-61.105133 82.281578 342.000000
-60.926464 82.596649 341.000000
-60.926464 83.152298 341.000000
-60.926464 83.707954 341.000000
-60.747799 84.016510 340.000000
-60.747799 84.570534 340.000000
-60.569126 84.874191 339.000000
-60.569126 85.426590 339.000000
-60.569126 85.978981 339.000000
-60.890732 86.990837 340.799988
-60.890732 87.546165 340.799988
-60.890732 88.101494 340.799988
-60.851421 88.599594 340.579987
-60.725567 88.970169 339.875580
-60.725567 89.523994 339.875580
-60.725567 90.077812 339.875580
-60.687611 90.574989 339.663147
-60.687611 91.128464 339.663147
-60.663719 91.645859 339.529449
-60.637451 92.159187 339.382416
-60.637451 92.712204 339.382416
-60.220863 92.624481 337.050812
-60.079147 92.954437 336.257629
-60.521599 94.190964 338.734009
-60.521599 94.742928 338.734009
-60.521599 95.294891 338.734009
-60.484684 95.788391 338.527405
-60.484684 96.340019 338.527405
-60.448013 96.832893 338.322144
-60.447052 97.382637 338.316772
-60.447052 97.933922 338.316772
-60.419197 98.439827 338.160889
-59.810341 97.993309 334.753174
-59.810341 98.538788 334.753174
-59.745796 98.977325 334.391907
-59.703640 99.451996 334.155975
-59.703640 99.996498 334.155975
-59.580017 100.332809 333.464050
-59.580017 100.876190 333.464050
-59.580017 101.419563 333.464050
-66.859261 42.243671 377.647949
-66.859261 42.859043 377.647949
-66.859261 43.474415 377.647949
-66.824242 44.066689 377.450104
-66.824242 44.681740 377.450104
-66.833038 45.302757 377.499817
-66.833038 45.917889 377.499817
-66.833038 46.533020 377.499817
-66.833038 47.148151 377.499817
-66.833038 47.763279 377.499817
-66.833038 48.378410 377.499817
-66.833038 48.993542 377.499817
-66.833038 49.608673 377.499817
-66.833038 50.223804 377.499817
-66.833038 50.838936 377.499817
-66.833038 51.454067 377.499817
-66.833038 52.069199 377.499817
-66.795090 52.654415 377.285461
-66.756172 53.238167 377.065674
-66.756172 53.852589 377.065674
-66.756172 54.467010 377.065674
-66.750046 55.076382 377.031067
-66.750046 55.690746 377.031067
-66.747780 56.303200 377.018250
-66.743057 56.913517 376.991547
-66.743057 57.527817 376.991547
-66.737854 58.137589 376.962158
-66.732124 58.746799 376.929810
-66.732124 59.361004 376.929810
-66.725822 59.969551 376.894257
-66.718903 60.577408 376.855133
-66.711281 61.184502 376.812103
-66.711281 61.798512 376.812103
-66.400894 62.122124 375.058868
-66.134033 62.481167 373.551575
-66.134033 63.089867 373.551575
-65.847153 63.422237 371.931122
-65.728325 63.912754 371.259949
-65.728325 64.517715 371.259949
-65.728325 65.122681 371.259949
-65.441940 65.441261 369.642334
-65.441940 66.043587 369.642334
-64.817375 66.009857 366.114532
-64.399689 66.177231 363.755310
-64.399689 66.769966 363.755310
-64.158607 67.110519 362.393555
-63.931282 67.461159 361.109528
-63.931282 68.049583 361.109528
-63.739788 68.432419 360.027893
-63.026680 68.246910 356.000000
-63.026680 68.827003 356.000000
-63.026680 69.407104 356.000000
-62.849644 69.790604 355.000000
-62.849644 70.369072 355.000000
-62.672600 70.747696 354.000000
-62.495560 71.123047 353.000000
-62.495560 71.698257 353.000000
-62.495560 72.273468 353.000000
-61.964436 72.229568 350.000000
-61.964436 72.799889 350.000000
-61.964436 73.370209 350.000000
-61.964436 73.940529 350.000000
-61.964436 74.510849 350.000000
-61.787392 74.866653 349.000000
-61.610355 75.219193 348.000000
-61.610355 75.786255 348.000000
-61.610355 76.353317 348.000000
-61.433311 76.699348 347.000000
-61.256271 77.042114 346.000000
-61.256271 77.605911 346.000000
-61.256271 78.169716 346.000000
-61.079227 78.505966 345.000000
-61.079227 79.068138 345.000000
-60.902191 79.399506 344.000000
-60.725147 79.727600 343.000000
-60.725147 80.286514 343.000000
-60.725147 80.845428 343.000000
-60.548103 81.167015 342.000000
-60.548103 81.724297 342.000000
-60.371063 82.040993 341.000000
-60.371063 82.596649 341.000000
-60.371063 83.152298 341.000000
-60.194027 83.462479 340.000000
-60.016983 83.769402 339.000000
-60.016983 84.321793 339.000000
-60.016983 84.874191 339.000000
-59.839939 85.174591 338.000000
-59.839939 85.725357 338.000000
-59.662895 86.020874 337.000000
-59.485859 86.313126 336.000000
-59.485859 86.860634 336.000000
-59.485859 87.408142 336.000000
-59.485859 87.955650 336.000000
-59.485859 88.503159 336.000000
-59.804535 89.527718 337.799988
-59.804535 90.078156 337.799988
-59.804535 90.628601 337.799988
-59.747883 91.092674 337.480011
-59.703266 91.574150 337.227997
-59.703266 92.123665 337.227997
-59.671894 92.624481 337.050812
-59.256855 92.525650 334.706512
-59.536655 93.510506 336.286926
-59.536655 94.058487 336.286926
-59.541733 94.614525 336.315613
-59.547321 95.171478 336.347168
-59.547321 95.719559 336.347168
-59.553471 96.277565 336.381897
-59.553471 96.825699 336.381897
-59.553471 97.373833 336.381897
-59.051064 97.095863 333.544098
-58.977055 97.516998 333.126068
-58.977055 98.059822 333.126068
-58.920395 98.507919 332.806030
-58.843563 98.921066 332.372070
-58.843563 99.462662 332.372070
-59.036892 100.332809 333.464050
-59.036892 100.876190 333.464050
-59.036892 101.419563 333.464050
-66.202774 44.062237 377.411957
-66.202774 44.677223 377.411957
-66.202774 45.292213 377.411957
-66.180588 45.891811 377.285461
-66.180588 46.506596 377.285461
-66.180588 47.121380 377.285461
-66.180588 47.736160 377.285461
-66.180588 48.350941 377.285461
-66.180588 48.965721 377.285461
-66.180588 49.580505 377.285461
-66.180588 50.195286 377.285461
-66.180588 50.810066 377.285461
-66.180588 51.424850 377.285461
-66.180588 52.039635 377.285461
-66.180588 52.654415 377.285461
-66.142036 53.238167 377.065674
-66.142036 53.852589 377.065674
-66.142036 54.467010 377.065674
-66.135963 55.076382 377.031067
-66.135963 55.690746 377.031067
-66.133713 56.303200 377.018250
-66.129036 56.913517 376.991547
-66.129036 57.527817 376.991547
-66.123878 58.137589 376.962158
-66.118202 58.746799 376.929810
-66.118202 59.361004 376.929810
-66.111961 59.969551 376.894257
-66.105103 60.577408 376.855133
-66.097549 61.184502 376.812103
-66.097549 61.798512 376.812103
-66.026344 62.345280 376.406158
-66.026344 62.958630 376.406158
-66.026344 63.571980 376.406158
-65.719223 63.886765 374.655273
-65.416237 64.199913 372.928009
-65.416237 64.807594 372.928009
-65.123634 65.122681 371.259949
-64.839890 65.441261 369.642334
-64.839890 66.043587 369.642334
-64.221069 66.009857 366.114532
-63.807228 66.177231 363.755310
-63.807228 66.769966 363.755310
-63.568359 67.110519 362.393555
-63.343128 67.461159 361.109528
-63.343128 68.049583 361.109528
-63.153393 68.432419 360.027893
-62.446850 68.246910 356.000000
-62.446850 68.827003 356.000000
-62.446850 69.407104 356.000000
-62.271442 69.790604 355.000000
-62.271442 70.369072 355.000000
-62.096027 70.747696 354.000000
-61.920612 71.123047 353.000000
-61.920612 71.698257 353.000000
-61.920612 72.273468 353.000000
-61.394375 72.229568 350.000000
-61.394375 72.799889 350.000000
-61.394375 73.370209 350.000000
-61.394375 73.940529 350.000000
-61.394375 74.510849 350.000000
-61.218964 74.866653 349.000000
-61.043552 75.219193 348.000000
-61.043552 75.786255 348.000000
-60.868141 76.133911 347.000000
-60.868141 76.699348 347.000000
-60.692726 77.042114 346.000000
-60.692726 77.605911 346.000000
-60.692726 78.169716 346.000000
-60.517311 78.505966 345.000000
-60.517311 79.068138 345.000000
-60.341904 79.399506 344.000000
-60.166489 79.727600 343.000000
-60.166489 80.286514 343.000000
-60.166489 80.845428 343.000000
-59.991074 81.167015 342.000000
-59.991074 81.724297 342.000000
-59.815662 82.040993 341.000000
-59.815662 82.596649 341.000000
-59.815662 83.152298 341.000000
-59.464840 83.217003 339.000000
-59.464840 83.769402 339.000000
-59.464840 84.321793 339.000000
-59.289425 84.623825 338.000000
-59.114010 84.922600 337.000000
-59.114010 85.471733 337.000000
-58.938602 85.765617 336.000000
-58.938602 86.313126 336.000000
-58.938602 86.860634 336.000000
-58.938602 87.408142 336.000000
-58.938602 87.955650 336.000000
-58.938602 88.503159 336.000000
-58.763187 88.785629 335.000000
-59.061394 89.784836 336.700012
-59.061394 90.333481 336.700012
-59.061394 90.882133 336.700012
-59.021046 91.368324 336.470001
-59.021046 91.916595 336.470001
-58.659668 91.898720 334.409851
-58.561573 92.289047 333.850616
-58.538715 92.796814 333.720306
-58.538715 93.340607 333.720306
-58.772388 94.259163 335.052429
-58.772388 94.805130 335.052429
-58.772388 95.351089 335.052429
-58.513107 95.473991 333.574310
-58.488098 95.976509 333.431732
-58.488098 96.519829 333.431732
-58.265278 96.693382 332.161469
-58.198925 97.123901 331.783203
-58.198925 97.664536 331.783203
-58.140755 98.107018 331.451599
-58.038124 98.472984 330.866516
-58.038124 99.012123 330.866516
-58.096790 99.651901 331.200989
-58.139175 100.264679 331.442596
-58.139175 100.804756 331.442596
-58.139175 101.344849 331.442596
-65.542473 45.260727 377.149597
-65.542473 45.875290 377.149597
-65.542473 46.489845 377.149597
-65.535530 47.099415 377.109619
-65.535530 47.713909 377.109619
-65.535530 48.328403 377.109619
-65.534782 48.942345 377.105347
-65.534782 49.556835 377.105347
-65.534782 50.171322 377.105347
-65.534782 50.785812 377.105347
-65.534782 51.400299 377.105347
-65.534782 52.014790 377.105347
-65.534782 52.629276 377.105347
-65.513870 53.226772 376.984985
-65.513870 53.841064 376.984985
-65.513870 54.455353 376.984985
-65.513870 55.069645 376.984985
-65.513870 55.683945 376.984985
-65.513870 56.298233 376.984985
-65.513870 56.912525 376.984985
-65.513870 57.526817 376.984985
-65.513657 58.140919 376.983734
-65.513657 58.755207 376.983734
-65.513657 59.369499 376.983734
-65.513626 59.983765 376.983612
-65.462082 60.550377 376.686981
-65.462082 61.164185 376.686981
-65.462082 61.777988 376.686981
-65.456894 62.386860 376.657166
-65.451202 62.995136 376.624390
-65.451202 63.608841 376.624390
-65.119667 63.897236 374.716675
-64.815773 64.206787 372.967926
-64.815773 64.814537 372.967926
-64.518951 65.122681 371.259949
-64.237831 65.441261 369.642334
-64.237831 66.043587 369.642334
-63.494492 65.874702 365.364929
-63.214767 66.177231 363.755310
-63.214767 66.769966 363.755310
-62.978119 67.110519 362.393555
-62.754974 67.461159 361.109528
-62.754974 68.049583 361.109528
-62.567001 68.432419 360.027893
-61.867016 68.246910 356.000000
-61.867016 68.827003 356.000000
-61.867016 69.407104 356.000000
-61.693237 69.790604 355.000000
-61.693237 70.369072 355.000000
-61.519451 70.747696 354.000000
