-70.991608 80.702934 397.333710
-70.977226 81.333900 397.253204
-70.969833 81.972679 397.211823
-70.940918 82.586273 397.050018
-70.940918 83.233269 397.050018
-63.083668 78.617172 353.073669
-63.083668 79.192497 353.073669
-63.083668 79.767830 353.073669
-59.196560 75.392548 331.317871
-59.196560 75.932426 331.317871
-56.204418 72.606949 314.571106
-55.217209 71.835220 309.045807
-55.217209 72.338806 309.045807
-55.224403 72.851875 309.086060
-55.269367 73.415253 309.337708
-55.269367 73.919319 309.337708
-55.969345 75.365944 313.255432
-55.969345 75.876389 313.255432
-55.969345 76.386833 313.255432
-56.582111 77.739174 316.685059
-56.582111 78.255211 316.685059
-56.582111 78.771248 316.685059
-55.842430 78.250778 312.545105
-55.687508 78.541557 311.678009
-55.687508 79.049438 311.678009
-55.309963 79.017944 309.564941
-55.180210 79.335823 308.838745
-55.180210 79.839073 308.838745
-55.110302 80.240524 308.447449
-55.046108 80.649086 308.088165
-55.046108 81.151115 308.088165
-55.030354 81.629776 308.000000
-54.673019 81.598335 306.000000
-54.673019 82.096962 306.000000
-54.673019 82.595581 306.000000
-54.494347 82.822655 305.000000
-54.494347 83.319649 305.000000
-54.494347 83.816643 305.000000
-54.137009 83.760757 303.000000
-54.137009 84.254486 303.000000
-54.137009 84.748222 303.000000
-53.958336 84.960640 302.000000
-53.958336 85.452744 302.000000
-53.958336 85.944847 302.000000
-53.779667 86.150734 301.000000
-53.779667 86.641212 301.000000
-53.600994 86.842209 300.000000
-53.600994 87.331055 300.000000
-53.600994 87.819901 300.000000
-53.600994 88.308746 300.000000
-53.422329 88.501610 299.000000
-53.243656 88.691200 298.000000
-53.243656 89.176788 298.000000
-53.243656 89.662376 298.000000
-53.243656 90.147964 298.000000
-53.243656 90.633553 298.000000
-53.064987 90.813370 297.000000
-53.064987 91.297325 297.000000
-53.064987 91.781281 297.000000
-53.064987 92.265244 297.000000
-53.064987 92.749199 297.000000
-53.064987 93.233154 297.000000
-53.064987 93.717117 297.000000
-53.064987 94.201073 297.000000
-53.064987 94.685028 297.000000
-53.064987 95.168983 297.000000
-53.064987 95.652946 297.000000
-53.064987 96.136902 297.000000
-52.886318 96.295532 296.000000
-52.886318 96.777863 296.000000
-52.886318 97.260193 296.000000
-52.886318 97.742523 296.000000
-52.886318 98.224846 296.000000
-52.886318 98.707176 296.000000
-52.886318 99.189507 296.000000
-53.064987 100.008568 297.000000
-53.064987 100.492523 297.000000
-53.064987 100.976479 297.000000
-53.064987 101.460434 297.000000
-53.064987 101.944397 297.000000
-53.064987 102.428352 297.000000
-53.064987 102.912308 297.000000
-53.243656 103.744408 298.000000
-53.243656 104.229996 298.000000
-53.243656 104.715584 298.000000
-53.243656 105.201164 298.000000
-53.243656 105.686752 298.000000
-53.243656 106.172340 298.000000
-53.243656 106.657928 298.000000
-53.243656 107.143517 298.000000
-53.243656 107.629105 298.000000
-70.266518 44.396473 396.893494
-70.266518 45.043209 396.893494
-70.287544 45.703609 397.012238
-70.287781 46.350697 397.013611
-70.287781 46.997627 397.013611
-70.287781 47.644554 397.013611
-70.280609 48.286556 396.973114
-70.280609 48.933418 396.973114
-70.280609 49.580280 396.973114
-70.280609 50.227146 396.973114
-70.280609 50.874008 396.973114
-70.280609 51.520870 396.973114
-70.280609 52.167732 396.973114
-70.280609 52.814598 396.973114
-70.280609 53.461456 396.973114
-70.280609 54.108326 396.973114
-70.280609 54.755188 396.973114
-70.232498 55.364117 396.701355
-70.248543 56.023335 396.791962
-70.248543 56.669899 396.791962
-70.248543 57.316467 396.791962
-70.244621 57.959797 396.769806
-70.244621 58.606327 396.769806
-70.241020 59.249828 396.749481
-70.237061 59.892948 396.727112
-70.237061 60.539410 396.727112
-70.232712 61.182076 396.702515
-70.227913 61.824280 396.675446
-70.222649 62.465973 396.645691
-70.222649 63.112297 396.645691
-70.216850 63.753368 396.612946
-70.218880 64.401505 396.624420
-70.218880 65.047798 396.624420
-70.230072 65.704567 396.687622
-70.230072 66.350960 396.687622
-70.230072 66.997360 396.687622
-70.228226 67.641975 396.677185
-70.226585 68.286758 396.667938
-70.226585 68.933128 396.667938
-70.225143 69.578064 396.659790
-70.292587 70.291855 397.040741
-70.292587 70.938835 397.040741
-70.297920 71.591232 397.070862
-70.304108 72.244614 397.105804
-70.304108 72.891693 397.105804
-70.304108 73.538773 397.105804
-70.284439 74.165092 396.994690
-70.284439 74.811989 396.994690
-70.274200 75.447906 396.936890
-70.278366 76.099220 396.960419
-70.278366 76.746063 396.960419
-70.303551 77.420639 397.102661
-70.310242 78.075142 397.140472
-70.310242 78.722275 397.140472
-70.317406 79.377495 397.180939
-70.317406 80.024704 397.180939
-70.317406 80.671906 397.180939
-70.306313 81.306274 397.118286
-70.294228 81.939285 397.050018
-70.294228 82.586273 397.050018
-70.294228 83.233269 397.050018
-62.508602 78.617172 353.073669
-62.508602 79.192497 353.073669
-62.508602 79.767830 353.073669
-58.656925 75.392548 331.317871
-58.656925 75.932426 331.317871
-55.829048 72.785538 315.344879
-54.713856 71.835220 309.045807
-54.713856 72.338806 309.045807
-54.720982 72.851875 309.086060
-54.765533 73.415253 309.337708
-54.765533 73.919319 309.337708
-55.459133 75.365944 313.255432
-55.459133 75.876389 313.255432
-55.459133 76.386833 313.255432
-56.199078 77.923256 317.434937
-56.199078 78.440514 317.434937
-56.199078 78.957771 317.434937
-56.026222 79.230583 316.458588
-55.179863 78.541557 311.678009
-55.179863 79.049438 311.678009
-54.805759 79.017944 309.564941
-54.677197 79.335823 308.838745
-54.677197 79.839073 308.838745
-54.607918 80.240524 308.447449
-54.544315 80.649086 308.088165
-54.544315 81.151115 308.088165
-54.528702 81.629776 308.000000
-54.174622 81.598335 306.000000
-54.174622 82.096962 306.000000
-54.174622 82.595581 306.000000
-53.997581 82.822655 305.000000
-53.997581 83.319649 305.000000
-53.997581 83.816643 305.000000
-53.820538 84.037193 304.000000
-53.820538 84.532562 304.000000
-53.643501 84.748222 303.000000
-53.466457 84.960640 302.000000
-53.466457 85.452744 302.000000
-53.466457 85.944847 302.000000
-53.289413 86.150734 301.000000
-53.289413 86.641212 301.000000
-53.112373 86.842209 300.000000
-53.112373 87.331055 300.000000
-52.935333 87.527176 299.000000
-52.935333 88.014389 299.000000
-52.935333 88.501610 299.000000
-52.758293 88.691200 298.000000
-52.758293 89.176788 298.000000
-52.758293 89.662376 298.000000
-52.581249 89.845451 297.000000
-52.581249 90.329407 297.000000
-52.581249 90.813370 297.000000
-52.581249 91.297325 297.000000
-52.581249 91.781281 297.000000
-52.581249 92.265244 297.000000
-52.581249 92.749199 297.000000
-52.581249 93.233154 297.000000
-52.581249 93.717117 297.000000
-52.581249 94.201073 297.000000
-52.581249 94.685028 297.000000
-52.404209 94.848549 296.000000
-52.404209 95.330879 296.000000
-52.404209 95.813210 296.000000
-52.404209 96.295532 296.000000
-52.404209 96.777863 296.000000
-52.404209 97.260193 296.000000
-52.404209 97.742523 296.000000
-52.404209 98.224846 296.000000
-52.404209 98.707176 296.000000
-52.404209 99.189507 296.000000
-52.404209 99.671837 296.000000
-52.404209 100.154160 296.000000
-52.404209 100.636490 296.000000
-52.581249 101.460434 297.000000
-52.581249 101.944397 297.000000
-52.581249 102.428352 297.000000
-52.581249 102.912308 297.000000
-52.581249 103.396271 297.000000
-52.581249 103.880226 297.000000
-52.581249 104.364182 297.000000
-52.581249 104.848145 297.000000
-52.581249 105.332100 297.000000
-52.758293 106.172340 298.000000
-52.758293 106.657928 298.000000
-52.758293 107.143517 298.000000
-52.758293 107.629105 298.000000
-52.758293 108.114693 298.000000
-52.758293 108.600281 298.000000
-69.620079 44.396473 396.893494
-69.620079 45.043209 396.893494
-69.640907 45.703609 397.012238
-69.641151 46.350697 397.013611
-69.641151 46.997627 397.013611
-69.641151 47.644554 397.013611
-69.634048 48.286556 396.973114
-69.634048 48.933418 396.973114
-69.634048 49.580280 396.973114
-69.634048 50.227146 396.973114
-69.634048 50.874008 396.973114
-69.634048 51.520870 396.973114
-69.634048 52.167732 396.973114
-69.634048 52.814598 396.973114
-69.634048 53.461456 396.973114
-69.634048 54.108326 396.973114
-69.634048 54.755188 396.973114
-69.586380 55.364117 396.701355
-69.602272 56.023335 396.791962
-69.602272 56.669899 396.791962
-69.602272 57.316467 396.791962
-69.598389 57.959797 396.769806
-69.598389 58.606327 396.769806
-69.594826 59.249828 396.749481
-69.590897 59.892948 396.727112
-69.590897 60.539410 396.727112
-69.586586 61.182076 396.702515
-69.581833 61.824280 396.675446
-69.576614 62.465973 396.645691
-69.576614 63.112297 396.645691
-69.570869 63.753368 396.612946
-69.572884 64.401505 396.624420
-69.572884 65.047798 396.624420
-69.583969 65.704567 396.687622
-69.583969 66.350960 396.687622
-69.583969 66.997360 396.687622
-69.582138 67.641975 396.677185
-69.580513 68.286758 396.667938
-69.580513 68.933128 396.667938
-69.579086 69.578064 396.659790
-69.645912 70.291855 397.040741
-69.645912 70.938835 397.040741
-69.651192 71.591232 397.070862
-69.657326 72.244614 397.105804
-69.657326 72.891693 397.105804
-69.657326 73.538773 397.105804
-69.637833 74.165092 396.994690
-69.637833 74.811989 396.994690
-69.627693 75.447906 396.936890
-69.631821 76.099220 396.960419
-69.631821 76.746063 396.960419
-69.656769 77.420639 397.102661
-69.663399 78.075142 397.140472
-69.663399 78.722275 397.140472
-69.670502 79.377495 397.180939
-69.670502 80.024704 397.180939
-69.670502 80.671906 397.180939
-69.659515 81.306274 397.118286
-69.647537 81.939285 397.050018
-69.647537 82.586273 397.050018
-69.647537 83.233269 397.050018
-61.890881 78.563026 352.830505
-61.890881 79.137955 352.830505
-61.890881 79.712891 352.830505
-59.080524 76.642090 336.809082
-59.080524 77.190918 336.809082
-55.470448 72.989510 316.228577
-54.210182 71.834801 309.044006
-54.210182 72.338387 309.044006
-54.223236 72.859512 309.118439
-54.954586 74.352715 313.287720
-54.954586 74.863213 313.287720
-55.565601 76.211761 316.771027
-55.565601 76.727936 316.771027
-55.565601 77.244102 316.771027
-55.999176 78.367043 319.242798
-55.999176 78.887253 319.242798
-55.999176 79.407455 319.242798
-55.986885 79.910103 319.172699
-55.053093 79.088715 313.849304
-55.053093 79.600136 313.849304
-54.669418 79.553230 311.662018
-54.524387 79.848694 310.835236
-54.524387 80.355186 310.835236
-54.451698 80.753899 310.420868
-54.385296 81.160629 310.042297
-54.385296 81.665840 310.042297
-54.301109 82.043854 309.562378
-53.676228 81.598335 306.000000
-53.676228 82.096962 306.000000
-53.676228 82.595581 306.000000
-53.500813 82.822655 305.000000
-53.500813 83.319649 305.000000
-53.500813 83.816643 305.000000
-53.325401 84.037193 304.000000
-53.325401 84.532562 304.000000
-53.149990 84.748222 303.000000
-52.974579 84.960640 302.000000
-52.974579 85.452744 302.000000
-52.974579 85.944847 302.000000
-52.623753 85.864517 300.000000
-52.623753 86.353363 300.000000
-52.623753 86.842209 300.000000
-52.623753 87.331055 300.000000
-52.448338 87.527176 299.000000
-52.448338 88.014389 299.000000
-52.448338 88.501610 299.000000
-52.272926 88.691200 298.000000
-52.272926 89.176788 298.000000
-52.272926 89.662376 298.000000
-52.097511 89.845451 297.000000
-52.097511 90.329407 297.000000
-52.097511 90.813370 297.000000
-52.097511 91.297325 297.000000
-52.097511 91.781281 297.000000
-52.097511 92.265244 297.000000
-52.097511 92.749199 297.000000
-52.097511 93.233154 297.000000
-52.097511 93.717117 297.000000
-51.922100 93.883896 296.000000
-51.922100 94.366226 296.000000
-51.922100 94.848549 296.000000
-51.922100 95.330879 296.000000
-51.922100 95.813210 296.000000
-51.922100 96.295532 296.000000
-51.922100 96.777863 296.000000
-51.922100 97.260193 296.000000
-51.922100 97.742523 296.000000
-51.922100 98.224846 296.000000
-51.922100 98.707176 296.000000
-51.922100 99.189507 296.000000
-51.922100 99.671837 296.000000
-51.922100 100.154160 296.000000
-51.922100 100.636490 296.000000
-51.922100 101.118820 296.000000
-51.922100 101.601143 296.000000
-51.922100 102.083473 296.000000
-52.097511 102.912308 297.000000
-52.097511 103.396271 297.000000
-52.097511 103.880226 297.000000
-52.097511 104.364182 297.000000
-52.097511 104.848145 297.000000
-52.097511 105.332100 297.000000
-52.097511 105.816055 297.000000
-52.272926 106.657928 298.000000
-52.272926 107.143517 298.000000
-52.272926 107.629105 298.000000
-52.272926 108.114693 298.000000
-52.272926 108.600281 298.000000
-68.957985 46.326153 396.803375
-68.957985 46.972740 396.803375
-68.957985 47.619324 396.803375
-68.940254 48.253498 396.701355
-68.940254 48.899921 396.701355
-68.940254 49.546341 396.701355
-68.940254 50.192760 396.701355
-68.940254 50.839180 396.701355
-68.940254 51.485600 396.701355
-68.940254 52.132019 396.701355
-68.940254 52.778439 396.701355
-68.940254 53.424862 396.701355
-68.940254 54.071278 396.701355
-68.940254 54.717701 396.701355
-68.940254 55.364117 396.701355
-68.918633 55.992981 396.576965
-68.918633 56.639191 396.576965
-68.918633 57.285412 396.576965
-68.914703 57.928322 396.554321
-68.914703 58.574501 396.554321
-68.913918 59.220009 396.549805
-68.911285 59.863895 396.534668
-68.911285 60.510044 396.534668
-68.908394 61.153622 396.518005
-68.905205 61.796883 396.499664
-68.901695 62.439796 396.479492
-68.901695 63.085857 396.479492
-68.897842 63.728348 396.457306
-68.893600 64.370399 396.432892
-68.893600 65.016388 396.432892
-68.905418 65.673637 396.500916
-68.905418 66.319725 396.500916
-68.905418 66.965828 396.500916
-68.904106 67.610619 396.493317
-68.903038 68.255653 396.487213
-68.903038 68.901718 396.487213
-68.901955 69.546700 396.480957
-68.901016 70.191803 396.475586
-68.901016 70.837860 396.475586
-68.900276 71.483147 396.471344
-68.972054 72.204323 396.884338
-68.972054 72.851044 396.884338
-68.972054 73.497757 396.884338
-68.949181 74.119896 396.752716
-68.949181 74.766396 396.752716
-68.933922 75.396210 396.664917
-68.936867 76.045822 396.681885
-68.936867 76.692207 396.681885
-68.963875 77.368896 396.837280
-68.969398 78.021782 396.869049
-68.969398 78.668472 396.869049
-68.975281 79.321930 396.902893
-68.975281 79.968674 396.902893
-68.975281 80.615433 396.902893
-68.848503 87.568413 396.173401
-68.848503 88.213974 396.173401
-68.848503 88.859535 396.173401
-64.805664 84.249283 372.909790
-58.531952 76.642090 336.809082
-58.531952 77.190918 336.809082
-54.955395 72.989510 316.228577
-54.399715 72.761559 313.031036
-54.399715 73.271637 313.031036
-54.427448 73.819336 313.190643
-54.444321 74.352715 313.287720
-54.444321 74.863213 313.287720
-55.049660 76.211761 316.771027
-56.201847 78.333839 323.401031
-56.201847 78.860825 323.401031
-56.201847 79.387802 323.401031
-55.479214 78.887253 319.242798
-55.479214 79.407455 319.242798
-55.467030 79.910103 319.172699
-54.541912 79.088715 313.849304
-54.541912 79.600136 313.849304
-54.161797 79.553230 311.662018
-54.018116 79.848694 310.835236
-54.018116 80.355186 310.835236
-53.946110 80.753899 310.420868
-54.568485 82.197227 314.002228
-54.568485 82.708893 314.002228
-54.568485 83.220558 314.002228
-54.405502 83.482124 313.064362
-54.405502 83.992256 313.064362
-54.127007 84.069832 311.461823
-53.004047 82.822655 305.000000
-53.004047 83.319649 305.000000
-53.004047 83.816643 305.000000
-52.830261 84.037193 304.000000
-52.830261 84.532562 304.000000
-52.656479 84.748222 303.000000
-52.482697 84.960640 302.000000
-52.482697 85.452744 302.000000
-52.482697 85.944847 302.000000
-52.135128 85.864517 300.000000
-52.135128 86.353363 300.000000
-52.135128 86.842209 300.000000
-52.135128 87.331055 300.000000
-51.961346 87.527176 299.000000
-51.961346 88.014389 299.000000
-51.961346 88.501610 299.000000
-51.787563 88.691200 298.000000
-51.787563 89.176788 298.000000
-51.787563 89.662376 298.000000
-51.613777 89.845451 297.000000
-51.613777 90.329407 297.000000
-51.613777 90.813370 297.000000
-51.613777 91.297325 297.000000
-51.613777 91.781281 297.000000
-51.613777 92.265244 297.000000
-51.613777 92.749199 297.000000
-51.613777 93.233154 297.000000
-51.613777 93.717117 297.000000
-51.439995 93.883896 296.000000
-51.439995 94.366226 296.000000
-51.439995 94.848549 296.000000
-51.266209 95.008820 295.000000
-51.266209 95.489517 295.000000
-51.266209 95.970215 295.000000
-51.266209 96.450912 295.000000
-51.266209 96.931618 295.000000
-51.266209 97.412315 295.000000
-51.266209 97.893013 295.000000
-51.266209 98.373711 295.000000
-51.266209 98.854408 295.000000
-51.266209 99.335106 295.000000
-51.266209 99.815811 295.000000
-51.266209 100.296509 295.000000
-51.266209 100.777206 295.000000
-51.266209 101.257904 295.000000
-51.266209 101.738602 295.000000
-51.613777 102.912308 297.000000
-51.613777 103.396271 297.000000
-51.613777 103.880226 297.000000
-51.613777 104.364182 297.000000
-51.613777 104.848145 297.000000
-51.613777 105.332100 297.000000
-51.613777 105.816055 297.000000
-51.787563 106.657928 298.000000
-51.787563 107.143517 298.000000
-51.787563 107.629105 298.000000
-51.787563 108.114693 298.000000
-51.787563 108.600281 298.000000
-68.248344 47.575165 396.435394
-68.248344 48.221153 396.435394
-68.248344 48.867138 396.435394
-68.209801 49.485165 396.211517
-68.213081 50.133198 396.230591
-68.213081 50.778851 396.230591
-68.213081 51.424500 396.230591
-68.213081 52.070152 396.230591
-68.213081 52.715809 396.230591
-68.213081 53.361462 396.230591
-68.213081 54.007111 396.230591
-68.213081 54.652763 396.230591
-68.213081 55.298416 396.230591
-68.096703 55.848621 395.554565
-68.096703 56.493176 395.554565
-68.167152 57.196835 395.963776
-68.167152 57.842052 395.963776
-68.167152 58.487274 395.963776
-68.159035 59.125446 395.916626
-68.153954 59.766132 395.887115
-68.153954 60.411224 395.887115
-68.151237 61.053886 395.871338
-68.145050 61.693359 395.835419
-68.138252 62.332142 395.795898
-68.138252 62.977081 395.795898
-68.130768 63.615047 395.752441
-68.122536 64.252151 395.704620
-68.122536 64.896950 395.704620
-68.127228 65.546257 395.731842
-68.140869 66.204353 395.811096
-68.140869 66.849319 395.811096
-68.140869 67.494286 395.811096
-68.138237 68.136635 395.795837
-68.138237 68.781578 395.795837
-68.136154 69.424400 395.783752
-68.134384 70.067497 395.773438
-68.134384 70.712402 395.773438
-67.898300 71.110062 394.402100
-68.009727 71.870483 395.049316
-68.009727 72.514214 395.049316
-68.183136 73.344482 396.056641
-68.183136 73.989853 396.056641
-68.183136 74.635216 396.056641
-68.159988 75.255035 395.922180
-68.163239 75.903801 395.941040
-68.163239 76.548981 395.941040
-68.197815 77.233315 396.141876
-68.203239 77.885017 396.173401
-68.203239 78.530586 396.173401
-68.203239 79.176140 396.173401
-67.725578 79.262672 393.398804
-67.725578 79.903709 393.398804
-67.759140 83.791443 393.593750
-67.759140 84.432800 393.593750
-67.759140 85.074150 393.593750
-67.756233 85.711830 393.576874
-67.756233 86.353165 393.576874
-68.203239 87.568413 396.173401
-68.203239 88.213974 396.173401
-68.203239 88.859535 396.173401
-64.198296 84.249283 372.909790
-57.983372 76.642090 336.809082
-57.983372 77.190918 336.809082
-55.201099 74.009483 320.647644
-53.889866 72.761559 313.031036
-53.889866 73.271637 313.031036
-53.917339 73.819336 313.190643
-54.552773 75.205673 316.881683
-54.552773 75.722031 316.881683
-54.552773 76.238380 316.881683
-56.337845 79.266296 327.250671
-56.337845 79.799553 327.250671
-56.337845 80.332802 327.250671
-56.112747 80.542953 325.943146
-56.112747 81.074074 325.943146
-56.112747 81.605194 325.943146
-55.080151 80.624825 319.945068
-55.080151 81.146172 319.945068
-54.607468 80.966675 317.199402
-54.390457 81.159721 315.938843
-54.390457 81.674545 315.938843
-54.309330 82.066772 315.467590
-54.190636 82.400345 314.778137
-54.190636 82.913269 314.778137
-54.057060 83.220558 314.002228
-53.895599 83.482124 313.064362
-53.895599 83.992256 313.064362
-53.619717 84.069832 311.461823
-52.507282 82.822655 305.000000
-52.507282 83.319649 305.000000
-52.507282 83.816643 305.000000
-52.335125 84.037193 304.000000
-52.335125 84.532562 304.000000
-52.162971 84.748222 303.000000
-52.162971 85.241959 303.000000
-52.162971 85.735695 303.000000
-51.990818 85.944847 302.000000
-51.646507 85.864517 300.000000
-51.646507 86.353363 300.000000
-51.646507 86.842209 300.000000
-51.646507 87.331055 300.000000
-51.474350 87.527176 299.000000
-51.474350 88.014389 299.000000
-51.474350 88.501610 299.000000
-51.302197 88.691200 298.000000
-51.302197 89.176788 298.000000
-51.130039 89.361496 297.000000
-51.130039 89.845451 297.000000
-51.130039 90.329407 297.000000
-51.130039 90.813370 297.000000
-51.130039 91.297325 297.000000
-51.130039 91.781281 297.000000
-51.130039 92.265244 297.000000
-51.130039 92.749199 297.000000
-51.130039 93.233154 297.000000
-50.957886 93.401566 296.000000
-50.957886 93.883896 296.000000
-50.957886 94.366226 296.000000
-50.957886 94.848549 296.000000
-50.785728 95.008820 295.000000
-50.785728 95.489517 295.000000
-50.785728 95.970215 295.000000
-50.785728 96.450912 295.000000
-50.785728 96.931618 295.000000
-50.785728 97.412315 295.000000
-50.785728 97.893013 295.000000
-50.785728 98.373711 295.000000
-50.785728 98.854408 295.000000
-50.785728 99.335106 295.000000
-50.785728 99.815811 295.000000
-50.785728 100.296509 295.000000
-50.785728 100.777206 295.000000
-50.785728 101.257904 295.000000
-50.785728 101.738602 295.000000
-50.957886 102.565804 296.000000
-50.957886 103.048134 296.000000
-50.957886 103.530457 296.000000
-51.130039 104.364182 297.000000
-51.130039 104.848145 297.000000
-51.130039 105.332100 297.000000
-51.130039 105.816055 297.000000
-51.130039 106.300018 297.000000
-51.130039 106.783974 297.000000
-51.130039 107.267929 297.000000
-51.130039 107.751884 297.000000
-51.130039 108.235847 297.000000
-67.602654 47.575165 396.435394
-67.602654 48.221153 396.435394
-67.602654 48.867138 396.435394
-67.564476 49.485165 396.211517
-67.567726 50.133198 396.230591
-67.567726 50.778851 396.230591
-67.567726 51.424500 396.230591
-67.567726 52.070152 396.230591
-67.567726 52.715809 396.230591
-67.567726 53.361462 396.230591
-67.567726 54.007111 396.230591
-67.567726 54.652763 396.230591
-67.567726 55.298416 396.230591
-67.452446 55.848621 395.554565
-67.452446 56.493176 395.554565
-67.522232 57.196835 395.963776
-67.522232 57.842052 395.963776
-67.522232 58.487274 395.963776
-67.514191 59.125446 395.916626
-67.509155 59.766132 395.887115
-67.509155 60.411224 395.887115
-67.506462 61.053886 395.871338
-67.500343 61.693359 395.835419
-67.493599 62.332142 395.795898
-67.493599 62.977081 395.795898
-67.486191 63.615047 395.752441
-67.478035 64.252151 395.704620
-67.478035 64.896950 395.704620
-67.482674 65.546257 395.731842
-67.496193 66.204353 395.811096
-67.496193 66.849319 395.811096
-67.496193 67.494286 395.811096
-67.493591 68.136635 395.795837
-67.493591 68.781578 395.795837
-67.491531 69.424400 395.783752
-67.489769 70.067497 395.773438
-67.489769 70.712402 395.773438
-67.255928 71.110062 394.402100
-67.366287 71.870483 395.049316
-67.366287 72.514214 395.049316
-67.538063 73.344482 396.056641
-67.538063 73.989853 396.056641
-67.538063 74.635216 396.056641
-67.515137 75.255035 395.922180
-67.518356 75.903801 395.941040
-67.518356 76.548981 395.941040
-67.552597 77.233315 396.141876
-67.557976 77.885017 396.173401
-67.557976 78.530586 396.173401
-67.557976 79.176140 396.173401
-67.084839 79.262672 393.398804
-67.084839 79.903709 393.398804
-66.416870 79.742760 389.481720
-66.145065 80.048485 387.887817
-66.089745 80.613060 387.563416
-66.089745 81.244591 387.563416
-66.100670 81.889656 387.627472
-67.118080 83.791443 393.593750
-67.118080 84.432800 393.593750
-67.118080 85.074150 393.593750
-67.115196 85.711830 393.576874
-67.115196 86.353165 393.576874
-67.557976 87.568413 396.173401
-67.557976 88.213974 396.173401
-67.557976 88.859535 396.173401
-64.238792 85.107620 376.709015
-57.926666 77.298447 339.693481
-57.926666 77.851974 339.693481
-54.678852 74.009483 320.647644
-54.021755 73.636299 316.794312
-54.021755 74.152512 316.794312
-54.021755 74.668724 316.794312
-54.036655 75.205673 316.881683
-54.036655 75.722031 316.881683
-56.350048 79.502258 330.447876
-56.350048 80.040726 330.447876
-56.350048 80.579185 330.447876
-56.816868 81.789658 333.185425
-56.816868 82.332573 333.185425
-56.816868 82.875496 333.185425
-55.581875 81.605194 325.943146
-54.559044 80.624825 319.945068
-54.559044 81.146172 319.945068
-54.090832 80.966675 317.199402
-53.875877 81.159721 315.938843
-53.875877 81.674545 315.938843
-53.795513 82.066772 315.467590
-54.621651 83.849007 320.312195
-54.621651 84.370956 320.312195
-54.621651 84.892899 320.312195
-54.280025 84.880630 318.308868
-54.280025 85.399315 318.308868
-53.961594 85.413956 316.441528
-53.569641 85.305435 314.143036
-53.569641 85.817337 314.143036
-52.010517 83.816643 305.000000
-51.839989 84.037193 304.000000
-51.839989 84.532562 304.000000
-51.669464 84.748222 303.000000
-51.669464 85.241959 303.000000
-51.669464 85.735695 303.000000
-51.328411 85.660263 301.000000
-51.157887 85.864517 300.000000
-51.157887 86.353363 300.000000
-51.157887 86.842209 300.000000
-51.157887 87.331055 300.000000
-50.987358 87.527176 299.000000
-50.987358 88.014389 299.000000
-50.987358 88.501610 299.000000
-50.816833 88.691200 298.000000
-50.816833 89.176788 298.000000
-50.646305 89.361496 297.000000
-50.646305 89.845451 297.000000
-50.646305 90.329407 297.000000
-50.646305 90.813370 297.000000
-50.646305 91.297325 297.000000
-50.646305 91.781281 297.000000
-50.475780 91.954582 296.000000
-50.475780 92.436913 296.000000
-50.475780 92.919235 296.000000
-50.475780 93.401566 296.000000
-50.305252 93.566727 295.000000
-50.305252 94.047424 295.000000
-50.305252 94.528122 295.000000
-50.305252 95.008820 295.000000
-50.305252 95.489517 295.000000
-50.305252 95.970215 295.000000
-50.305252 96.450912 295.000000
-50.305252 96.931618 295.000000
-50.305252 97.412315 295.000000
-50.305252 97.893013 295.000000
-50.305252 98.373711 295.000000
-50.134727 98.519310 294.000000
-50.305252 99.335106 295.000000
-50.305252 99.815811 295.000000
-50.305252 100.296509 295.000000
-50.305252 100.777206 295.000000
-50.305252 101.257904 295.000000
-50.305252 101.738602 295.000000
-50.305252 102.219299 295.000000
-50.305252 102.699997 295.000000
-50.305252 103.180702 295.000000
-50.475780 104.012787 296.000000
-50.475780 104.495117 296.000000
-50.475780 104.977448 296.000000
-50.475780 105.459770 296.000000
-50.475780 105.942101 296.000000
-50.475780 106.424431 296.000000
-50.475780 106.906754 296.000000
-50.475780 107.389084 296.000000
-50.475780 107.871414 296.000000
-67.390114 42.031445 399.000000
-67.390114 42.681610 399.000000
-67.390114 43.331776 399.000000
-67.221222 43.871712 398.000000
-66.826233 49.416447 395.661346
-66.826233 50.061172 395.661346
-66.826233 50.705898 395.661346
-66.815948 51.342724 395.600494
-66.808189 51.981316 395.554565
-66.808189 52.625866 395.554565
-66.808189 53.270416 395.554565
-66.808189 53.914970 395.554565
-66.808189 54.559521 395.554565
-66.808189 55.204071 395.554565
-66.808189 55.848621 395.554565
-66.808189 56.493176 395.554565
-66.808189 57.137726 395.554565
-66.808189 57.782276 395.554565
-66.808189 58.426830 395.554565
-66.808189 59.071381 395.554565
-66.808189 59.715931 395.554565
-66.808189 60.360481 395.554565
-66.808014 61.004868 395.553497
-66.808014 61.649422 395.553497
-66.807999 62.293953 395.553406
-66.807999 62.938503 395.553406
-66.780678 63.557045 395.391632
-66.780678 64.201332 395.391632
-66.780678 64.845612 395.391632
-66.777924 65.487206 395.375336
-66.774895 66.128464 395.357422
-66.774895 66.772697 395.357422
-66.771568 67.413567 395.337708
-66.767899 68.054031 395.316010
-66.767899 68.698189 395.316010
-66.491112 69.054886 393.677185
-66.444206 69.647217 393.399506
-66.444206 70.288254 393.399506
-66.392807 70.874428 393.095184
-66.447571 71.573967 393.419434
-66.447571 72.215034 393.419434
-66.779678 73.220238 395.385742
-66.779678 73.864517 395.385742
-66.779678 74.508797 395.385742
-66.741379 75.109970 395.158997
-66.495781 75.475105 393.704834
-66.495781 76.116646 393.704834
-66.495453 76.757805 393.702911
-66.495453 77.399338 393.702911
-66.495453 78.040871 393.702911
-66.480995 78.665306 393.617310
-66.444092 79.262672 393.398804
-66.444092 79.903709 393.398804
-65.782501 79.742760 389.481720
-65.513298 80.048485 387.887817
-65.458504 80.613060 387.563416
-65.458504 81.244591 387.563416
-65.469330 81.889656 387.627472
-66.477020 83.791443 393.593750
-66.477020 84.432800 393.593750
-66.477020 85.074150 393.593750
-66.474167 85.711830 393.576874
-66.474167 86.353165 393.576874
-66.543709 87.085503 393.988617
-66.543709 87.727501 393.988617
-66.543709 88.369499 393.988617
-64.101288 85.744423 379.527679
-57.373394 77.298447 339.693481
-57.373394 77.851974 339.693481
-54.699409 74.751274 323.861481
-53.505775 73.636299 316.794312
-53.505775 74.152512 316.794312
-53.505775 74.668724 316.794312
-56.421318 79.281776 334.056488
-56.421318 79.826118 334.056488
-56.421318 80.370461 334.056488
-56.346207 80.807083 333.611786
-56.346207 81.350700 333.611786
-56.274197 81.789658 333.185425
-56.503914 82.668671 334.545532
-56.503914 83.213806 334.545532
-56.503914 83.758942 334.545532
-55.569168 82.909431 329.011108
-55.569168 83.445549 329.011108
-55.041290 83.183884 325.885681
-54.770252 83.302681 324.280945
-54.770252 83.831093 324.280945
-54.646664 84.169144 323.549194
-54.468822 84.420731 322.496246
-54.468822 84.946236 322.496246
-54.099941 84.892899 320.312195
-53.761585 84.880630 318.308868
-53.761585 85.399315 318.308868
-53.446194 85.413956 316.441528
-53.057983 85.305435 314.143036
-53.057983 85.817337 314.143036
-51.513748 83.816643 305.000000
-51.513748 84.313637 305.000000
-51.513748 84.810631 305.000000
-51.175953 84.748222 303.000000
-51.175953 85.241959 303.000000
-51.175953 85.735695 303.000000
-50.838158 85.660263 301.000000
-50.669262 85.864517 300.000000
-50.669262 86.353363 300.000000
-50.669262 86.842209 300.000000
-50.669262 87.331055 300.000000
-50.500362 87.527176 299.000000
-50.500362 88.014389 299.000000
-50.500362 88.501610 299.000000
-50.331467 88.691200 298.000000
-50.331467 89.176788 298.000000
-50.162567 89.361496 297.000000
-50.162567 89.845451 297.000000
-50.162567 90.329407 297.000000
-50.162567 90.813370 297.000000
-50.162567 91.297325 297.000000
-50.162567 91.781281 297.000000
-49.993671 91.954582 296.000000
-49.993671 92.436913 296.000000
-49.993671 92.919235 296.000000
-49.824772 93.086021 295.000000
-49.824772 93.566727 295.000000
-49.824772 94.047424 295.000000
-49.824772 94.528122 295.000000
-49.824772 95.008820 295.000000
-49.824772 95.489517 295.000000
-49.824772 95.970215 295.000000
-49.824772 96.450912 295.000000
-49.824772 96.931618 295.000000
-49.655876 97.082100 294.000000
-49.655876 97.561172 294.000000
-49.655876 98.040237 294.000000
-49.655876 98.519310 294.000000
-49.655876 98.998375 294.000000
-49.655876 99.477448 294.000000
-49.655876 99.956512 294.000000
-49.655876 100.435585 294.000000
-49.655876 100.914658 294.000000
-49.824772 101.738602 295.000000
-49.824772 102.219299 295.000000
-49.824772 102.699997 295.000000
-49.824772 103.180702 295.000000
-49.824772 103.661400 295.000000
-49.824772 104.142097 295.000000
-49.824772 104.622795 295.000000
-49.824772 105.103493 295.000000
-49.824772 105.584190 295.000000
-49.824772 106.064888 295.000000
-49.824772 106.545593 295.000000
-49.824772 107.026283 295.000000
-49.824772 107.506981 295.000000
-49.824772 107.987679 295.000000
-66.740250 40.731113 399.000000
-66.740250 41.381279 399.000000
-66.740250 42.031445 399.000000
-66.740250 42.681610 399.000000
-66.740250 43.331776 399.000000
-66.572983 43.871712 398.000000
-66.405716 44.408386 397.000000
-66.405716 45.055294 397.000000
-66.238441 45.587082 396.000000
-66.171623 50.053474 395.600494
-66.171623 50.698101 395.600494
-66.171623 51.342724 395.600494
-66.088799 51.922283 395.105347
-66.088799 52.566101 395.105347
-66.097992 53.217323 395.160309
-66.097992 53.861233 395.160309
-66.097992 54.505142 395.160309
-66.097992 55.149052 395.160309
-65.875366 55.605045 393.829407
-65.875366 56.246784 393.829407
-66.032806 57.024490 394.770630
-66.032806 57.667763 394.770630
-66.032806 58.311031 394.770630
-66.032806 58.954304 394.770630
-66.032806 59.597584 394.770630
-66.032806 60.240856 394.770630
-66.032806 60.884129 394.770630
-66.018929 61.514473 394.687653
-65.782593 61.935097 393.274750
-65.782593 62.575935 393.274750
-65.798714 63.232262 393.371124
-65.798714 63.873257 393.371124
-65.798714 64.514252 393.371124
-65.787674 65.144310 393.305115
-65.644737 65.642265 392.450592
-65.644737 66.281761 392.450592
-65.621140 66.897194 392.309509
-65.571663 67.485535 392.013733
-65.571663 68.124321 392.013733
-65.571663 68.763100 392.013733
-65.513039 69.339828 391.663239
-65.513039 69.978043 391.663239
-65.449532 70.547791 391.283539
-65.466393 71.203735 391.384399
-65.466393 71.841484 391.384399
-65.709671 72.748581 392.838776
-65.709671 73.388702 392.838776
-65.709671 74.028824 392.838776
-65.632881 74.581703 392.379730
-65.423027 74.980568 391.125153
-65.423027 75.617905 391.125153
-65.443703 76.279327 391.248718
-65.443703 76.916862 391.248718
-65.443703 77.554398 391.248718
-65.429077 78.174461 391.161285
-65.364372 78.733910 390.774445
-65.364372 79.370674 390.774445
-65.148132 79.742760 389.481720
-64.881531 80.048485 387.887817
-64.827271 80.613060 387.563416
-64.827271 81.244591 387.563416
-64.837982 81.889656 387.627472
-64.840965 82.525085 387.645325
-64.840965 83.156754 387.645325
-65.147270 84.184227 389.476532
-65.147270 84.818871 389.476532
-65.147270 85.453522 389.476532
-65.198685 86.156105 389.783905
-65.198685 86.791260 389.783905
-65.198685 87.426407 389.783905
-63.483135 85.744423 379.527679
-57.123184 77.710739 341.505341
-57.123184 78.267227 341.505341
-54.171921 74.751274 323.861481
-52.989803 73.636299 316.794312
-52.989803 74.152512 316.794312
-56.025814 78.946815 334.944824
-56.025814 79.492607 334.944824
-56.025814 80.038391 334.944824
-55.877224 80.370461 334.056488
-57.318245 83.001511 342.671478
-57.318245 83.559891 342.671478
-57.318245 84.118271 342.671478
-56.685139 83.741356 338.886505
-56.685139 84.293564 338.886505
-55.959030 83.758942 334.545532
-55.033295 82.909431 329.011108
-55.033295 83.445549 329.011108
-54.510506 83.183884 325.885681
-54.242081 83.302681 324.280945
-54.242081 83.831093 324.280945
-54.119686 84.169144 323.549194
-53.943558 84.420731 322.496246
-53.943558 84.946236 322.496246
-54.811729 86.847328 327.686523
-54.811729 87.381287 327.686523
-54.811729 87.915245 327.686523
-54.265495 87.567757 324.420929
-53.762672 87.280090 321.414825
-53.762672 87.803841 321.414825
-53.309025 87.582268 318.702728
-51.016983 84.313637 305.000000
-51.016983 84.810631 305.000000
-50.682446 84.748222 303.000000
-50.515179 84.960640 302.000000
-50.515179 85.452744 302.000000
-50.347908 85.660263 301.000000
-50.180641 85.864517 300.000000
-50.180641 86.353363 300.000000
-50.180641 86.842209 300.000000
-50.180641 87.331055 300.000000
-50.013371 87.527176 299.000000
-50.013371 88.014389 299.000000
-50.013371 88.501610 299.000000
-49.846104 88.691200 298.000000
-49.846104 89.176788 298.000000
-49.678833 89.361496 297.000000
-49.678833 89.845451 297.000000
-49.678833 90.329407 297.000000
-49.678833 90.813370 297.000000
-49.511566 90.989922 296.000000
-49.511566 91.472252 296.000000
-49.511566 91.954582 296.000000
-49.511566 92.436913 296.000000
-49.511566 92.919235 296.000000
-49.344296 93.086021 295.000000
-49.344296 93.566727 295.000000
-49.344296 94.047424 295.000000
-49.344296 94.528122 295.000000
-49.344296 95.008820 295.000000
-49.344296 95.489517 295.000000
-49.344296 95.970215 295.000000
-49.344296 96.450912 295.000000
-49.344296 96.931618 295.000000
-49.177025 97.082100 294.000000
-49.177025 97.561172 294.000000
-49.177025 98.040237 294.000000
-49.177025 98.519310 294.000000
-49.177025 98.998375 294.000000
-49.177025 99.477448 294.000000
-49.177025 99.956512 294.000000
-49.177025 100.435585 294.000000
-49.177025 100.914658 294.000000
-49.344296 101.738602 295.000000
-49.344296 102.219299 295.000000
-49.344296 102.699997 295.000000
-49.344296 103.180702 295.000000
-49.344296 103.661400 295.000000
-49.344296 104.142097 295.000000
-49.344296 104.622795 295.000000
-49.344296 105.103493 295.000000
-49.344296 105.584190 295.000000
-49.344296 106.064888 295.000000
-49.344296 106.545593 295.000000
-49.344296 107.026283 295.000000
-49.344296 107.506981 295.000000
-49.344296 107.987679 295.000000
-66.090385 40.731113 399.000000
-66.090385 41.381279 399.000000
-66.090385 42.031445 399.000000
-66.090385 42.681610 399.000000
-66.090385 43.331776 399.000000
-65.924744 43.871712 398.000000
-65.759102 44.408386 397.000000
-65.759102 45.055294 397.000000
-65.593460 45.587082 396.000000
-65.527290 50.053474 395.600494
-65.527290 50.698101 395.600494
-65.527290 51.342724 395.600494
-65.445274 51.922283 395.105347
-65.445274 52.566101 395.105347
-65.454376 53.217323 395.160309
-65.454376 53.861233 395.160309
-65.454376 54.505142 395.160309
-65.454376 55.149052 395.160309
-65.233925 55.605045 393.829407
-65.233925 56.246784 393.829407
-65.389824 57.024490 394.770630
-65.389824 57.667763 394.770630
-65.389824 58.311031 394.770630
-65.389824 58.954304 394.770630
-65.389824 59.597584 394.770630
-65.389824 60.240856 394.770630
-65.389824 60.884129 394.770630
-65.376083 61.514473 394.687653
-65.142052 61.935097 393.274750
-65.142052 62.575935 393.274750
-65.158012 63.232262 393.371124
-65.158012 63.873257 393.371124
-65.158012 64.514252 393.371124
-65.147079 65.144310 393.305115
-65.040253 65.677315 392.660156
-65.040253 66.317146 392.660156
-64.982170 66.897194 392.309509
-64.808739 67.356209 391.262482
-64.808739 67.993767 391.262482
-64.802277 68.624481 391.223450
-64.739647 69.195038 390.845367
-64.739647 69.831909 390.845367
-64.665298 70.387856 390.396484
-64.673599 71.033127 390.446625
-64.673599 71.669357 390.446625
-65.069832 72.748581 392.838776
-65.069832 73.388702 392.838776
-65.069832 74.028824 392.838776
-64.805321 74.365425 391.241882
-64.684700 74.863342 390.513641
-64.684700 75.499672 390.513641
-64.649139 76.094162 390.298981
-64.555618 76.619148 389.734344
-64.555618 77.254211 389.734344
-64.527664 77.855560 389.565613
-64.438629 78.382042 389.028046
-64.438629 79.015953 389.028046
-64.167259 79.314445 387.389740
-63.850296 79.550797 385.476196
-63.772118 80.080750 385.004211
-63.772118 80.708107 385.004211
-63.678669 81.216286 384.440033
-63.683037 81.848343 384.466431
-63.683037 82.474831 384.466431
-63.875027 83.351837 385.625488
-63.875027 83.980209 385.625488
-63.875027 84.608582 385.625488
-64.213631 85.688797 387.669708
-64.213631 86.320503 387.669708
-64.213631 86.952202 387.669708
-62.864983 85.744423 379.527679
-56.566963 77.710739 341.505341
-56.566963 78.267227 341.505341
-56.593124 78.860161 341.663300
-56.593124 79.416901 341.663300
-56.593124 79.973633 341.663300
-56.436352 80.307289 340.716827
-56.284313 80.644630 339.798950
-56.284313 81.198334 339.798950
-56.139523 81.541725 338.924805
-56.760124 83.001511 342.671478
-56.760124 83.559891 342.671478
-56.760124 84.118271 342.671478
-56.133179 83.741356 338.886505
-56.133179 84.293564 338.886505
-55.414139 83.758942 334.545532
-56.706585 86.270340 342.348267
-56.706585 86.828186 342.348267
-56.706585 87.386040 342.348267
-56.095749 86.996567 338.660522
-56.095749 87.548416 338.660522
-55.590382 87.306557 335.609528
-55.120468 87.110794 332.772583
-55.120468 87.653046 332.772583
-54.680984 87.492096 330.119324
-54.278015 87.381287 327.686523
-54.278015 87.915245 327.686523
-53.737103 87.567757 324.420929
-53.239170 87.280090 321.414825
-53.239170 87.803841 321.414825
-52.789940 87.582268 318.702728
-52.160984 87.051926 314.905609
-52.160984 87.565056 314.905609
-51.647488 87.211113 311.805542
-50.023296 84.960640 302.000000
-50.023296 85.452744 302.000000
-49.692017 85.375671 300.000000
-49.692017 85.864517 300.000000
-49.692017 86.353363 300.000000
-49.692017 86.842209 300.000000
-49.526375 87.039955 299.000000
-49.526375 87.527176 299.000000
-49.526375 88.014389 299.000000
-49.360737 88.205612 298.000000
-49.195095 88.393578 297.000000
-49.195095 88.877533 297.000000
-49.195095 89.361496 297.000000
-49.195095 89.845451 297.000000
-49.195095 90.329407 297.000000
-49.029457 90.507599 296.000000
-49.029457 90.989922 296.000000
-49.029457 91.472252 296.000000
-49.029457 91.954582 296.000000
-48.863815 92.124626 295.000000
-48.863815 92.605324 295.000000
-48.863815 93.086021 295.000000
-48.863815 93.566727 295.000000
-48.863815 94.047424 295.000000
-48.863815 94.528122 295.000000
-48.863815 95.008820 295.000000
-48.863815 95.489517 295.000000
-48.863815 95.970215 295.000000
-48.698177 96.123962 294.000000
-48.698177 96.603035 294.000000
-48.698177 97.082100 294.000000
-48.698177 97.561172 294.000000
-48.698177 98.040237 294.000000
-48.698177 98.519310 294.000000
-48.698177 98.998375 294.000000
-48.698177 99.477448 294.000000
-48.698177 99.956512 294.000000
-48.698177 100.435585 294.000000
-48.698177 100.914658 294.000000
-48.698177 101.393723 294.000000
-48.698177 101.872795 294.000000
-48.698177 102.351860 294.000000
-48.698177 102.830933 294.000000
-48.698177 103.309998 294.000000
-48.698177 103.789070 294.000000
-48.698177 104.268143 294.000000
-48.698177 104.747208 294.000000
-48.698177 105.226280 294.000000
-48.698177 105.705345 294.000000
-48.863815 106.545593 295.000000
-48.863815 107.026283 295.000000
-48.863815 107.506981 295.000000
-49.195095 108.719803 297.000000
-49.195095 109.203758 297.000000
-49.195095 109.687721 297.000000
-65.604530 39.529610 400.000000
-65.604530 40.181404 400.000000
-65.604530 40.833199 400.000000
-65.440514 41.381279 399.000000
-65.440514 42.031445 399.000000
-65.276505 42.574642 398.000000
-65.276505 43.223175 398.000000
-65.276505 43.871712 398.000000
-65.112495 44.408386 397.000000
-65.112495 45.055294 397.000000
-64.948479 45.587082 396.000000
-64.948479 46.232361 396.000000
-64.948479 46.877636 396.000000
-64.779793 51.261089 394.971466
-64.779793 51.904686 394.971466
-64.779793 52.548290 394.971466
-64.737541 53.157200 394.713867
-64.656761 53.733242 394.221313
-64.656761 54.375626 394.221313
-64.625610 54.991501 394.031403
-64.523254 55.545448 393.407318
-64.523254 56.186508 393.407318
-64.510429 56.816265 393.329163
-64.619247 57.554111 393.992615
-64.619247 58.196117 393.992615
-64.619247 58.838120 393.992615
-64.619247 59.480125 393.992615
-64.619247 60.122131 393.992615
-64.619247 60.764137 393.992615
-64.427605 61.224041 392.824188
-64.412148 61.849293 392.729919
-64.412148 62.489243 392.729919
-64.517319 63.232262 393.371124
-64.517319 63.873257 393.371124
-64.517319 64.514252 393.371124
-64.506485 65.144310 393.305115
-64.400711 65.677315 392.660156
-64.400711 66.317146 392.660156
-64.231148 66.780701 391.626343
-64.171478 67.356209 391.262482
-64.171478 67.993767 391.262482
-64.165070 68.624481 391.223450
-64.103065 69.195038 390.845367
-64.103065 69.831909 390.845367
-64.029442 70.387856 390.396484
-64.037666 71.033127 390.446625
-64.037666 71.669357 390.446625
-64.199844 72.488701 391.435455
-64.199844 73.126534 391.435455
-64.199844 73.764381 391.435455
-64.168098 74.365425 391.241882
-64.048653 74.863342 390.513641
-64.048653 75.499672 390.513641
-64.013451 76.094162 390.298981
-63.920841 76.619148 389.734344
-63.920841 77.254211 389.734344
-63.893166 77.855560 389.565613
-63.805004 78.382042 389.028046
-63.805004 79.015953 389.028046
-63.536297 79.314445 387.389740
-63.222454 79.550797 385.476196
-63.145042 80.080750 385.004211
-63.145042 80.708107 385.004211
-63.052513 81.216286 384.440033
-63.056843 81.848343 384.466431
-63.056843 82.474831 384.466431
-63.246941 83.351837 385.625488
-63.246941 83.980209 385.625488
-63.246941 84.608582 385.625488
-63.582214 85.688797 387.669708
-63.582214 86.320503 387.669708
-63.582214 86.952202 387.669708
-60.008209 82.660744 365.878479
-56.953396 79.018616 347.252869
-56.953396 79.584457 347.252869
-56.953396 80.150299 347.252869
-56.036644 79.416901 341.663300
-56.036644 79.973633 341.663300
-55.881416 80.307289 340.716827
-55.730873 80.644630 339.798950
-55.730873 81.198334 339.798950
-58.308548 85.533249 355.515411
-58.308548 86.112556 355.515411
-58.308548 86.691864 355.515411
-57.914028 86.680679 353.109955
-57.490829 86.618462 350.529663
-57.490829 87.189651 350.529663
-56.999268 87.010452 347.532532
-56.712940 87.136818 345.786743
-56.712940 87.700279 345.786743
-56.148987 87.386040 342.348267
-55.544159 86.996567 338.660522
-55.544159 87.548416 338.660522
-55.043758 87.306557 335.609528
-54.578468 87.110794 332.772583
-54.578468 87.653046 332.772583
-54.143303 87.492096 330.119324
-54.721554 88.970184 333.645020
-54.721554 89.513855 333.645020
-54.721554 90.057526 333.645020
-54.024773 89.447548 329.396606
-54.024773 89.984291 329.396606
-52.270851 87.582268 318.702728
-51.648083 87.051926 314.905609
-51.648083 87.565056 314.905609
-51.139633 87.211113 311.805542
-50.684322 86.938194 309.029419
-50.684322 87.441757 309.029419
-49.203396 85.375671 300.000000
-49.203396 85.864517 300.000000
-49.203396 86.353363 300.000000
-49.203396 86.842209 300.000000
-49.039383 87.039955 299.000000
-49.039383 87.527176 299.000000
-49.039383 88.014389 299.000000
-48.875374 88.205612 298.000000
-48.711361 88.393578 297.000000
-48.711361 88.877533 297.000000
-48.711361 89.361496 297.000000
-48.711361 89.845451 297.000000
-48.711361 90.329407 297.000000
-48.547348 90.507599 296.000000
-48.547348 90.989922 296.000000
-48.547348 91.472252 296.000000
-48.383335 91.643929 295.000000
-48.383335 92.124626 295.000000
-48.383335 92.605324 295.000000
-48.383335 93.086021 295.000000
-48.383335 93.566727 295.000000
-48.383335 94.047424 295.000000
-48.383335 94.528122 295.000000
-48.383335 95.008820 295.000000
-48.383335 95.489517 295.000000
-48.219326 95.644890 294.000000
-48.219326 96.123962 294.000000
-48.219326 96.603035 294.000000
-48.219326 97.082100 294.000000
-48.219326 97.561172 294.000000
-48.219326 98.040237 294.000000
-48.055313 98.184204 293.000000
-48.055313 98.661644 293.000000
-48.055313 99.139084 293.000000
-48.055313 99.616524 293.000000
-48.055313 100.093964 293.000000
-48.055313 100.571404 293.000000
-48.219326 101.393723 294.000000
-48.219326 101.872795 294.000000
-48.219326 102.351860 294.000000
-48.219326 102.830933 294.000000
-48.219326 103.309998 294.000000
-48.219326 103.789070 294.000000
-48.219326 104.268143 294.000000
-48.219326 104.747208 294.000000
-48.219326 105.226280 294.000000
-48.219326 105.705345 294.000000
-48.219326 106.184418 294.000000
-48.383335 107.026283 295.000000
-48.383335 107.506981 295.000000
-48.711361 108.719803 297.000000
-51.171528 114.719109 312.000000
-51.171528 115.227509 312.000000
-51.171528 115.735909 312.000000
-51.171528 116.244308 312.000000
-51.171528 116.752708 312.000000
-65.115410 35.707886 401.000000
-65.115410 36.361309 401.000000
-65.115410 37.014736 401.000000
-65.115410 37.668159 401.000000
-65.115410 38.321583 401.000000
-65.115410 38.975006 401.000000
-64.953033 39.529610 400.000000
-64.953033 40.181404 400.000000
-64.953033 40.833199 400.000000
-64.790649 41.381279 399.000000
-64.790649 42.031445 399.000000
-64.628265 42.574642 398.000000
-64.628265 43.223175 398.000000
-64.465881 43.761482 397.000000
-64.465881 44.408386 397.000000
-64.465881 45.055294 397.000000
-64.303497 45.587082 396.000000
-64.303497 46.232361 396.000000
-64.303497 46.877636 396.000000
-64.303497 47.522915 396.000000
-64.141113 48.046555 395.000000
-64.141113 48.690201 395.000000
-63.653969 50.875439 392.000000
-64.051353 51.835796 394.447235
-64.051353 52.478542 394.447235
-64.051353 53.121292 394.447235
-63.945068 53.674824 393.792694
-63.945068 54.316505 393.792694
-63.945068 54.958183 393.792694
-63.839390 55.507973 393.141876
-63.839390 56.148594 393.141876
-63.787266 56.742844 392.820862
