-62.031487 109.389793 337.942719
-61.794479 109.520401 336.651520
-61.555553 109.643402 335.349884
-60.389996 108.103386 329.000000
-60.206440 108.309288 328.000000
-60.206440 108.843758 328.000000
-60.022881 109.044762 327.000000
-60.022881 109.577599 327.000000
-60.022881 110.110443 327.000000
-59.839321 110.304924 326.000000
-59.839321 110.836136 326.000000
-59.839321 111.367355 326.000000
-59.655769 111.555313 325.000000
-59.655769 112.084900 325.000000
-59.472214 112.267975 324.000000
-59.288654 112.447792 323.000000
-59.288654 112.974113 323.000000
-59.288654 113.500443 323.000000
-59.288654 114.026764 323.000000
-59.288654 114.553085 323.000000
-59.105099 114.723129 322.000000
-58.921547 114.889923 321.000000
-58.921547 115.412987 321.000000
-58.921547 115.936050 321.000000
-58.921547 116.459114 321.000000
-58.921547 116.982185 321.000000
-58.737988 117.139183 320.000000
-58.737988 117.660622 320.000000
-58.737988 118.182060 320.000000
-58.737988 118.703491 320.000000
-58.737988 119.224930 320.000000
-58.737988 119.746368 320.000000
-58.737988 120.267799 320.000000
-58.554428 120.411774 319.000000
-58.554428 120.931580 319.000000
-58.383438 121.096718 318.068451
-58.370880 121.588837 318.000000
-58.370880 122.107010 318.000000
-58.370880 122.625183 318.000000
-58.370880 123.143364 318.000000
-58.370880 123.661537 318.000000
-58.370880 124.179718 318.000000
-58.187321 124.305763 317.000000
-58.187321 124.822311 317.000000
-58.187321 125.338860 317.000000
-64.329117 98.324059 353.597626
-64.329117 98.900238 353.597626
-64.329117 99.476425 353.597626
-64.171883 99.808052 352.733337
-64.171883 100.382828 352.733337
-63.856544 100.461494 351.000000
-63.856544 101.033440 351.000000
-63.856544 101.605392 351.000000
-63.674614 101.886238 350.000000
-63.674614 102.456558 350.000000
-63.674614 103.026878 350.000000
-63.536705 103.372826 349.241974
-63.625675 104.087448 349.730988
-63.625675 104.657341 349.730988
-63.625675 105.227219 349.730988
-63.565178 105.696510 349.398468
-63.565178 106.265854 349.398468
-63.410492 106.575203 348.548187
-62.508564 105.619194 343.590576
-62.508564 106.179070 343.590576
-62.508564 106.738945 343.590576
-62.462067 107.219009 343.334991
-62.462067 107.778473 343.334991
-61.618107 106.874107 338.695984
-60.217991 104.985031 331.000000
-60.217991 105.524391 331.000000
-60.036064 105.743324 330.000000
-60.036064 106.281052 330.000000
-60.036064 106.818779 330.000000
-59.854141 107.031181 329.000000
-59.854141 107.567284 329.000000
-59.854141 108.103386 329.000000
-59.672211 108.309288 328.000000
-59.672211 108.843758 328.000000
-59.490280 109.044762 327.000000
-59.490280 109.577599 327.000000
-59.490280 110.110443 327.000000
-59.308353 110.304924 326.000000
-59.308353 110.836136 326.000000
-59.126431 111.025734 325.000000
-58.944500 111.212067 324.000000
-58.944500 111.740021 324.000000
-58.762573 111.921463 323.000000
-58.762573 112.447792 323.000000
-58.762573 112.974113 323.000000
-58.580643 113.149040 322.000000
-58.398720 113.320724 321.000000
-58.398720 113.843788 321.000000
-58.398720 114.366859 321.000000
-58.398720 114.889923 321.000000
-58.398720 115.412987 321.000000
-58.216789 115.574883 320.000000
-58.216789 116.096313 320.000000
-58.216789 116.617752 320.000000
-58.216789 117.139183 320.000000
-58.034863 117.292931 319.000000
-58.034863 117.812737 319.000000
-58.034863 118.332542 319.000000
-58.034863 118.852348 319.000000
-58.034863 119.372154 319.000000
-58.034863 119.891960 319.000000
-58.034863 120.411774 319.000000
-58.034863 120.931580 319.000000
-57.852940 121.070656 318.000000
-57.852940 121.588837 318.000000
-57.852940 122.107010 318.000000
-57.852940 122.625183 318.000000
-57.852940 123.143364 318.000000
-57.671009 123.272667 317.000000
-57.671009 123.789215 317.000000
-57.671009 124.305763 317.000000
-57.671009 124.822311 317.000000
-57.671009 125.338860 317.000000
-57.489079 125.458382 316.000000
-63.627884 99.280876 352.902557
-63.627884 99.855927 352.902557
-63.627884 100.430977 352.902557
-63.476772 100.766151 352.064453
-63.284855 101.033440 351.000000
-63.284855 101.605392 351.000000
-63.104553 101.886238 350.000000
-63.104553 102.456558 350.000000
-63.104553 103.026878 350.000000
-62.924255 103.301201 349.000000
-62.581463 103.304047 347.098755
-62.581463 103.869644 347.098755
-62.472443 104.253296 346.494080
-62.282761 104.499641 345.442017
-62.282761 105.062538 345.442017
-62.032616 105.201210 344.054626
-61.948944 105.619194 343.590576
-61.948944 106.179070 343.590576
-61.948944 106.738945 343.590576
-61.902863 107.219009 343.334991
-61.902863 107.778473 343.334991
-60.862114 106.516487 337.562653
-59.498577 104.667862 330.000000
-59.498577 105.205589 330.000000
-59.498577 105.743324 330.000000
-59.498577 106.281052 330.000000
-59.498577 106.818779 330.000000
-59.318283 107.031181 329.000000
-59.318283 107.567284 329.000000
-59.318283 108.103386 329.000000
-59.137985 108.309288 328.000000
-58.957684 108.511917 327.000000
-58.777382 108.711288 326.000000
-58.777382 109.242500 326.000000
-58.777382 109.773712 326.000000
-58.777382 110.304924 326.000000
-58.777382 110.836136 326.000000
-58.597088 111.025734 325.000000
-58.416790 111.212067 324.000000
-58.416790 111.740021 324.000000
-58.236488 111.921463 323.000000
-58.236488 112.447792 323.000000
-58.236488 112.974113 323.000000
-58.056187 113.149040 322.000000
-57.875893 113.320724 321.000000
-57.875893 113.843788 321.000000
-57.875893 114.366859 321.000000
-57.875893 114.889923 321.000000
-57.875893 115.412987 321.000000
-57.695595 115.574883 320.000000
-57.515293 115.733513 319.000000
-57.515293 116.253319 319.000000
-57.515293 116.773125 319.000000
-57.515293 117.292931 319.000000
-57.515293 117.812737 319.000000
-57.515293 118.332542 319.000000
-57.334999 118.479774 318.000000
-57.334999 118.997948 318.000000
-57.334999 119.516129 318.000000
-57.334999 120.034302 318.000000
-57.334999 120.552483 318.000000
-57.154697 120.689926 317.000000
-57.154697 121.206474 317.000000
-57.154697 121.723022 317.000000
-57.154697 122.239571 317.000000
-57.154697 122.756119 317.000000
-57.154697 123.272667 317.000000
-57.154697 123.789215 317.000000
-56.974400 123.913628 316.000000
-56.974400 124.428543 316.000000
-56.974400 124.943466 316.000000
-56.974400 125.458382 316.000000
-63.135468 99.410583 353.363586
-63.135468 99.986382 353.363586
-63.135468 100.562180 353.363586
-62.963757 100.862923 352.402557
-62.873463 101.291687 351.897186
-62.873463 101.865105 351.897186
-62.763512 102.259369 351.281799
-62.699703 102.727234 350.924652
-62.699703 103.299057 350.924652
-62.238159 103.106277 348.341431
-61.984470 103.251305 346.921570
-61.984470 103.816612 346.921570
-61.870426 104.189865 346.283264
-61.675625 104.424309 345.192993
-61.675625 104.986801 345.192993
-61.466816 105.191933 344.024292
-61.466816 105.752518 344.024292
-61.466816 106.313103 344.024292
-61.389324 106.738945 343.590576
-61.296047 107.135788 343.068512
-61.296047 107.694817 343.068512
-60.312313 106.516487 337.562653
-59.626308 105.848740 333.723114
-59.626308 106.392532 333.723114
-58.961094 105.743324 330.000000
-58.782429 105.958984 329.000000
-58.782429 106.495087 329.000000
-58.782429 107.031181 329.000000
-58.603756 107.240341 328.000000
-58.603756 107.774818 328.000000
-58.425083 107.979073 327.000000
-58.246414 108.180077 326.000000
-58.246414 108.711288 326.000000
-58.246414 109.242500 326.000000
-58.067749 109.436981 325.000000
-57.889076 109.628204 324.000000
-57.889076 110.156158 324.000000
-57.889076 110.684113 324.000000
-57.710403 110.868820 323.000000
-57.710403 111.395142 323.000000
-57.531734 111.574959 322.000000
-57.531734 112.099655 322.000000
-57.531734 112.624352 322.000000
-57.353069 112.797661 321.000000
-57.353069 113.320724 321.000000
-57.353069 113.843788 321.000000
-57.174397 114.010574 320.000000
-57.174397 114.532005 320.000000
-57.174397 115.053444 320.000000
-57.174397 115.574883 320.000000
-56.995724 115.733513 319.000000
-56.995724 116.253319 319.000000
-56.995724 116.773125 319.000000
-56.995724 117.292931 319.000000
-56.995724 117.812737 319.000000
-56.995724 118.332542 319.000000
-56.817059 118.479774 318.000000
-56.817059 118.997948 318.000000
-56.817059 119.516129 318.000000
-56.817059 120.034302 318.000000
-56.817059 120.552483 318.000000
-56.638386 120.689926 317.000000
-56.638386 121.206474 317.000000
-56.638386 121.723022 317.000000
-56.638386 122.239571 317.000000
-56.638386 122.756119 317.000000
-56.638386 123.272667 317.000000
-56.638386 123.789215 317.000000
-56.459717 123.913628 316.000000
-56.459717 124.428543 316.000000
-56.459717 124.943466 316.000000
-56.459717 125.458382 316.000000
-56.102379 125.176010 314.000000
-56.102379 125.687668 314.000000
-56.102379 126.199326 314.000000
-56.102379 126.710983 314.000000
-56.102379 127.222649 314.000000
-56.102379 127.734306 314.000000
-56.102379 128.245956 314.000000
-56.102379 128.757629 314.000000
-55.923706 128.857590 313.000000
-55.923706 129.367630 313.000000
-55.923706 129.877655 313.000000
-62.559933 99.410583 353.363586
-62.559933 99.986382 353.363586
-62.559933 100.562180 353.363586
-62.389786 100.862923 352.402557
-62.300320 101.291687 351.897186
-62.300320 101.865105 351.897186
-62.191364 102.259369 351.281799
-62.128136 102.727234 350.924652
-62.128136 103.299057 350.924652
-61.670799 103.106277 348.341431
-61.540497 103.454849 347.605438
-61.540497 104.021263 347.605438
-61.405746 104.358673 346.844299
-61.106705 104.412872 345.155182
-61.106705 104.975296 345.155182
-60.906490 105.191933 344.024292
-60.906490 105.752518 344.024292
-60.906490 106.313103 344.024292
-60.787045 106.664101 343.349640
-60.479763 106.681549 341.613953
-60.479763 107.238205 341.613953
-59.585476 106.200951 336.562653
-59.082752 105.848740 333.723114
-59.082752 106.392532 333.723114
-58.423611 105.743324 330.000000
-58.246571 105.958984 329.000000
-58.246571 106.495087 329.000000
-58.246571 107.031181 329.000000
-58.069530 107.240341 328.000000
-58.069530 107.774818 328.000000
-57.892487 107.979073 327.000000
-57.715443 108.180077 326.000000
-57.538406 108.377815 325.000000
-57.538406 108.907402 325.000000
-57.361362 109.100250 324.000000
-57.361362 109.628204 324.000000
-57.361362 110.156158 324.000000
-57.184322 110.342491 323.000000
-57.184322 110.868820 323.000000
-57.184322 111.395142 323.000000
-57.007278 111.574959 322.000000
-56.830242 111.751526 321.000000
-56.830242 112.274597 321.000000
-56.653198 112.446266 320.000000
-56.653198 112.967697 320.000000
-56.653198 113.489136 320.000000
-56.653198 114.010574 320.000000
-56.476154 114.174095 319.000000
-56.476154 114.693901 319.000000
-56.476154 115.213707 319.000000
-56.299118 115.370712 318.000000
-56.299118 115.888885 318.000000
-56.299118 116.407066 318.000000
-56.299118 116.925240 318.000000
-56.299118 117.443420 318.000000
-56.122078 117.590645 317.000000
-56.122078 118.107193 317.000000
-56.122078 118.623741 317.000000
-56.122078 119.140289 317.000000
-56.122078 119.656837 317.000000
-56.122078 120.173378 317.000000
-56.122078 120.689926 317.000000
-55.945034 120.824120 316.000000
-55.945034 121.339035 316.000000
-55.945034 121.853958 316.000000
-55.945034 122.368874 316.000000
-55.945034 122.883789 316.000000
-55.945034 123.398712 316.000000
-55.767990 123.521492 315.000000
-55.767990 124.034782 315.000000
-55.767990 124.548073 315.000000
-55.590954 124.664352 314.000000
-55.590954 125.176010 314.000000
-55.590954 125.687668 314.000000
-55.590954 126.199326 314.000000
-55.590954 126.710983 314.000000
-55.590954 127.222649 314.000000
-55.590954 127.734306 314.000000
-55.590954 128.245956 314.000000
-55.590954 128.757629 314.000000
-55.413910 128.857590 313.000000
-55.413910 129.367630 313.000000
-55.413910 129.877655 313.000000
-61.984394 99.410583 353.363586
-61.984394 99.986382 353.363586
-61.984394 100.562180 353.363586
-61.815811 100.862923 352.402557
-61.727169 101.291687 351.897186
-61.727169 101.865105 351.897186
-61.619221 102.259369 351.281799
-61.556568 102.727234 350.924652
-61.556568 103.299057 350.924652
-61.257740 103.366638 349.221069
-60.974339 103.454849 347.605438
-60.974339 104.021263 347.605438
-60.840828 104.358673 346.844299
-60.544537 104.412872 345.155182
-60.544537 104.975296 345.155182
-60.346161 105.191933 344.024292
-60.346161 105.752518 344.024292
-60.346161 106.313103 344.024292
-60.227821 106.664101 343.349640
-59.923363 106.681549 341.613953
-59.923363 107.238205 341.613953
-58.882519 105.922523 335.680298
-58.539204 105.848740 333.723114
-58.539204 106.392532 333.723114
-58.165325 106.253349 331.591675
-57.535301 105.636925 328.000000
-57.535301 106.171394 328.000000
-57.535301 106.705864 328.000000
-57.359886 106.913391 327.000000
-57.359886 107.446236 327.000000
-57.184475 107.648865 326.000000
-57.184475 108.180077 326.000000
-57.009068 108.377815 325.000000
-57.009068 108.907402 325.000000
-56.833652 109.100250 324.000000
-56.833652 109.628204 324.000000
-56.833652 110.156158 324.000000
-56.658237 110.342491 323.000000
-56.658237 110.868820 323.000000
-56.658237 111.395142 323.000000
-56.482822 111.574959 322.000000
-56.307415 111.751526 321.000000
-56.307415 112.274597 321.000000
-56.132000 112.446266 320.000000
-56.132000 112.967697 320.000000
-56.132000 113.489136 320.000000
-55.956589 113.654289 319.000000
-55.781178 113.816177 318.000000
-55.781178 114.334358 318.000000
-55.781178 114.852531 318.000000
-55.781178 115.370712 318.000000
-55.781178 115.888885 318.000000
-55.605766 116.041000 317.000000
-55.605766 116.557549 317.000000
-55.605766 117.074097 317.000000
-55.605766 117.590645 317.000000
-55.430351 117.734612 316.000000
-55.430351 118.249527 316.000000
-55.430351 118.764450 316.000000
-55.430351 119.279366 316.000000
-55.430351 119.794281 316.000000
-55.254936 119.928474 315.000000
-55.254936 120.441765 315.000000
-55.254936 120.955055 315.000000
-55.254936 121.468338 315.000000
-55.254936 121.981628 315.000000
-55.079529 122.106056 314.000000
-55.079529 122.617714 314.000000
-55.079529 123.129372 314.000000
-55.079529 123.641029 314.000000
-55.079529 124.152695 314.000000
-55.079529 124.664352 314.000000
-55.079529 125.176010 314.000000
-55.079529 125.687668 314.000000
-55.079529 126.199326 314.000000
-55.079529 126.710983 314.000000
-55.079529 127.222649 314.000000
-55.079529 127.734306 314.000000
-55.079529 128.245956 314.000000
-55.079529 128.757629 314.000000
-54.904114 128.857590 313.000000
-54.904114 129.367630 313.000000
-54.904114 129.877655 313.000000
-54.728699 129.971100 312.000000
-61.380417 99.364540 353.199951
-61.380417 99.940079 353.199951
-61.380417 100.515617 353.199951
-61.214020 100.817101 352.242462
-61.133358 101.257462 351.778290
-61.133358 101.830681 351.778290
-61.018188 102.210983 351.115570
-60.964104 102.692017 350.804352
-60.964104 103.263649 350.804352
-60.688953 103.366638 349.221069
-60.434448 103.499832 347.756592
-60.434448 104.066498 347.756592
-60.278305 104.362823 346.858093
-59.947498 104.352188 344.954559
-59.947498 104.914284 344.954559
-59.596436 104.858681 342.934418
-59.533054 105.305389 342.569733
-59.533054 105.863602 342.569733
-59.415810 106.212227 341.895081
-59.135242 106.265167 340.280609
-59.135242 106.819641 340.280609
-58.335785 105.922523 335.680298
-57.850838 105.584419 332.889771
-57.850838 106.126862 332.889771
-57.625252 106.253349 331.591675
-56.827290 105.314857 327.000000
-56.827290 105.847702 327.000000
-56.827290 106.380539 327.000000
-56.653503 106.586433 326.000000
-56.653503 107.117645 326.000000
-56.653503 107.648865 326.000000
-56.479725 107.848228 325.000000
-56.305939 108.044342 324.000000
-56.305939 108.572296 324.000000
-56.305939 109.100250 324.000000
-56.132153 109.289841 323.000000
-56.132153 109.816170 323.000000
-56.132153 110.342491 323.000000
-55.958370 110.525566 322.000000
-55.958370 111.050262 322.000000
-55.784588 111.228462 321.000000
-55.610806 111.403389 320.000000
-55.610806 111.924828 320.000000
-55.610806 112.446266 320.000000
-55.610806 112.967697 320.000000
-55.610806 113.489136 320.000000
-55.437019 113.654289 319.000000
-55.263241 113.816177 318.000000
-55.263241 114.334358 318.000000
-55.263241 114.852531 318.000000
-55.263241 115.370712 318.000000
-55.263241 115.888885 318.000000
-55.089455 116.041000 317.000000
-55.089455 116.557549 317.000000
-55.089455 117.074097 317.000000
-55.089455 117.590645 317.000000
-54.915668 117.734612 316.000000
-54.915668 118.249527 316.000000
-54.915668 118.764450 316.000000
-54.915668 119.279366 316.000000
-54.915668 119.794281 316.000000
-54.741882 119.928474 315.000000
-54.741882 120.441765 315.000000
-54.741882 120.955055 315.000000
-54.741882 121.468338 315.000000
-54.741882 121.981628 315.000000
-54.568104 122.106056 314.000000
-54.568104 122.617714 314.000000
-54.568104 123.129372 314.000000
-54.568104 123.641029 314.000000
-54.568104 124.152695 314.000000
-54.568104 124.664352 314.000000
-54.568104 125.176010 314.000000
-54.568104 125.687668 314.000000
-54.394318 125.797417 313.000000
-54.394318 126.307449 313.000000
-54.394318 126.817474 313.000000
-54.394318 127.327507 313.000000
-54.394318 127.837532 313.000000
-54.394318 128.347565 313.000000
-54.394318 128.857590 313.000000
-54.394318 129.367630 313.000000
-54.394318 129.877655 313.000000
-54.220531 129.971100 312.000000
-54.220531 130.479507 312.000000
-54.220531 130.987900 312.000000
-60.805145 99.364540 353.199951
-60.805145 99.940079 353.199951
-60.805145 100.515617 353.199951
-60.640308 100.817101 352.242462
-60.560398 101.257462 351.778290
-60.560398 101.830681 351.778290
-60.446308 102.210983 351.115570
-60.392731 102.692017 350.804352
-60.392731 103.263649 350.804352
-60.120159 103.366638 349.221069
-59.868042 103.499832 347.756592
-59.868042 104.066498 347.756592
-59.713364 104.362823 346.858093
-59.357380 104.302483 344.790283
-59.357380 104.864319 344.790283
-58.817810 104.467804 341.656067
-58.745564 104.895531 341.236420
-58.745564 105.451576 341.236420
-58.629417 105.798027 340.561768
-58.382374 105.904839 339.126770
-58.382374 106.457436 339.126770
-57.636024 105.642036 334.791412
-57.308647 105.584419 332.889771
-57.308647 106.126862 332.889771
-57.085171 106.253349 331.591675
-56.294689 105.314857 327.000000
-56.294689 105.847702 327.000000
-56.122536 106.055222 326.000000
-56.122536 106.586433 326.000000
-56.122536 107.117645 326.000000
-56.122536 107.648865 326.000000
-55.778229 107.516388 324.000000
-55.778229 108.044342 324.000000
-55.778229 108.572296 324.000000
-55.606071 108.763519 323.000000
-55.606071 109.289841 323.000000
-55.606071 109.816170 323.000000
-55.433914 110.000877 322.000000
-55.261765 110.182335 321.000000
-55.261765 110.705399 321.000000
-55.089607 110.881958 320.000000
-55.089607 111.403389 320.000000
-55.089607 111.924828 320.000000
-55.089607 112.446266 320.000000
-54.917450 112.614670 319.000000
-54.917450 113.134483 319.000000
-54.745300 113.298004 318.000000
-54.745300 113.816177 318.000000
-54.745300 114.334358 318.000000
-54.745300 114.852531 318.000000
-54.573143 115.007904 317.000000
-54.573143 115.524452 317.000000
-54.573143 116.041000 317.000000
-54.573143 116.557549 317.000000
-54.573143 117.074097 317.000000
-54.400986 117.219696 316.000000
-54.400986 117.734612 316.000000
-54.400986 118.249527 316.000000
-54.228828 118.388611 315.000000
-54.228828 118.901894 315.000000
-54.228828 119.415184 315.000000
-54.228828 119.928474 315.000000
-54.056679 120.059418 314.000000
-54.056679 120.571075 314.000000
-54.056679 121.082741 314.000000
-54.056679 121.594398 314.000000
-54.056679 122.106056 314.000000
-54.056679 122.617714 314.000000
-54.056679 123.129372 314.000000
-54.056679 123.641029 314.000000
-54.056679 124.152695 314.000000
-54.056679 124.664352 314.000000
-54.056679 125.176010 314.000000
-54.056679 125.687668 314.000000
-53.884521 125.797417 313.000000
-53.884521 126.307449 313.000000
-53.884521 126.817474 313.000000
-53.884521 127.327507 313.000000
-53.884521 127.837532 313.000000
-53.884521 128.347565 313.000000
-53.884521 128.857590 313.000000
-53.884521 129.367630 313.000000
-53.884521 129.877655 313.000000
-53.712364 129.971100 312.000000
-53.712364 130.479507 312.000000
-53.712364 130.987900 312.000000
-60.199181 99.313904 353.019958
-60.199181 99.889145 353.019958
-60.199181 100.464386 353.019958
-60.036560 100.766685 352.066315
-59.965023 101.219620 351.646820
-59.965023 101.792625 351.646820
-59.856438 102.180267 351.010040
-59.811756 102.675529 350.748016
-59.811756 103.247063 350.748016
-59.537037 103.341766 349.137024
-59.301640 103.499832 347.756592
-59.301640 104.066498 347.756592
-59.148418 104.362823 346.858093
-58.795803 104.302483 344.790283
-58.795803 104.864319 344.790283
-58.066448 104.118355 340.513214
-57.993015 104.540840 340.082581
-57.993015 105.095001 340.082581
-57.891087 105.463470 339.484833
-57.635139 105.547935 337.983917
-57.635139 106.098679 337.983917
-56.956112 105.392921 334.001953
-56.631828 105.334030 332.100311
-56.631828 105.875175 332.100311
-55.932621 105.102448 328.000000
-55.762093 105.314857 327.000000
-55.762093 105.847702 327.000000
-55.591564 106.055222 326.000000
-55.591564 106.586433 326.000000
-55.591564 107.117645 326.000000
-55.591564 107.648865 326.000000
-55.250515 107.516388 324.000000
-55.250515 108.044342 324.000000
-55.250515 108.572296 324.000000
-55.079987 108.763519 323.000000
-55.079987 109.289841 323.000000
-55.079987 109.816170 323.000000
-54.909458 110.000877 322.000000
-54.568409 109.839081 320.000000
-54.568409 110.360519 320.000000
-54.568409 110.881958 320.000000
-54.568409 111.403389 320.000000
-54.568409 111.924828 320.000000
-54.397881 112.094864 319.000000
-54.227360 112.261650 318.000000
-54.227360 112.779823 318.000000
-54.056831 112.941719 317.000000
-54.056831 113.458267 317.000000
-54.056831 113.974808 317.000000
-54.056831 114.491356 317.000000
-54.056831 115.007904 317.000000
-54.056831 115.524452 317.000000
-53.886303 115.674942 316.000000
-53.886303 116.189857 316.000000
-53.886303 116.704773 316.000000
-53.715775 116.848740 315.000000
-53.715775 117.362030 315.000000
-53.715775 117.875320 315.000000
-53.545254 118.012779 314.000000
-53.545254 118.524445 314.000000
-53.545254 119.036102 314.000000
-53.545254 119.547760 314.000000
-53.545254 120.059418 314.000000
-53.545254 120.571075 314.000000
-53.545254 121.082741 314.000000
-53.545254 121.594398 314.000000
-53.545254 122.106056 314.000000
-53.545254 122.617714 314.000000
-53.374725 122.737236 313.000000
-53.374725 123.247269 313.000000
-53.374725 123.757301 313.000000
-53.374725 124.267326 313.000000
-53.374725 124.777359 313.000000
-53.374725 125.287384 313.000000
-53.374725 125.797417 313.000000
-53.374725 126.307449 313.000000
-53.374725 126.817474 313.000000
-53.374725 127.327507 313.000000
-53.204197 127.429108 312.000000
-53.204197 127.937508 312.000000
-53.204197 128.445908 312.000000
-53.204197 128.954300 312.000000
-53.204197 129.462708 312.000000
-53.204197 129.971100 312.000000
-53.204197 130.479507 312.000000
-53.204197 130.987900 312.000000
-53.033672 131.074844 311.000000
-53.033672 131.581619 311.000000
-53.033672 132.088379 311.000000
-59.355995 97.721855 351.431976
-59.355995 98.294510 351.431976
-59.607647 99.286331 352.921936
-59.607647 99.861412 352.921936
-59.607647 100.436493 352.921936
-59.447292 100.739838 351.972534
-59.370537 101.182556 351.518066
-59.370537 101.755356 351.518066
-59.267704 102.150917 350.909241
-59.066833 102.374565 349.719910
-59.066833 102.944427 349.719910
-58.823421 103.087708 348.278717
-58.445175 102.988708 346.039246
-58.445175 103.552582 346.039246
-58.278790 103.820038 345.054108
-57.930992 103.759361 342.994873
-57.930992 104.318268 342.994873
-57.511845 104.118355 340.513214
-57.439110 104.540840 340.082581
-57.439110 105.095001 340.082581
-57.338154 105.463470 339.484833
-57.084648 105.547935 337.983917
-57.084648 106.098679 337.983917
-55.567291 103.814583 329.000000
-55.398392 104.033508 328.000000
-55.398392 104.567978 328.000000
-55.398392 105.102448 328.000000
-55.229492 105.314857 327.000000
-55.229492 105.847702 327.000000
-55.060596 106.055222 326.000000
-55.060596 106.586433 326.000000
-55.060596 107.117645 326.000000
-54.891701 107.318649 325.000000
-54.722801 107.516388 324.000000
-54.553902 107.710869 323.000000
-54.553902 108.237198 323.000000
-54.553902 108.763519 323.000000
-54.385006 108.951485 322.000000
-54.385006 109.476181 322.000000
-54.216110 109.659264 321.000000
-54.047211 109.839081 320.000000
-54.047211 110.360519 320.000000
-54.047211 110.881958 320.000000
-54.047211 111.403389 320.000000
-54.047211 111.924828 320.000000
-53.878311 112.094864 319.000000
-53.709419 112.261650 318.000000
-53.709419 112.779823 318.000000
-53.540520 112.941719 317.000000
-53.540520 113.458267 317.000000
-53.540520 113.974808 317.000000
-53.540520 114.491356 317.000000
-53.540520 115.007904 317.000000
-53.540520 115.524452 317.000000
-53.371620 115.674942 316.000000
-53.371620 116.189857 316.000000
-53.371620 116.704773 316.000000
-53.202724 116.848740 315.000000
-53.202724 117.362030 315.000000
-53.202724 117.875320 315.000000
-53.033825 118.012779 314.000000
-53.033825 118.524445 314.000000
-53.033825 119.036102 314.000000
-53.033825 119.547760 314.000000
-53.033825 120.059418 314.000000
-53.033825 120.571075 314.000000
-52.864929 120.697121 313.000000
-52.864929 121.207153 313.000000
-52.864929 121.717178 313.000000
-52.864929 122.227211 313.000000
-52.864929 122.737236 313.000000
-52.864929 123.247269 313.000000
-52.864929 123.757301 313.000000
-52.864929 124.267326 313.000000
-52.696030 124.378708 312.000000
-52.696030 124.887108 312.000000
-52.696030 125.395508 312.000000
-52.696030 125.903908 312.000000
-52.696030 126.412308 312.000000
-52.696030 126.920708 312.000000
-52.527134 127.020676 311.000000
-52.527134 127.527451 311.000000
-52.527134 128.034225 311.000000
-52.527134 128.540985 311.000000
-52.527134 129.047760 311.000000
-52.527134 129.554535 311.000000
-52.527134 130.061295 311.000000
-52.527134 130.568069 311.000000
-52.527134 131.074844 311.000000
-52.527134 131.581619 311.000000
-52.527134 132.088379 311.000000
-58.783604 97.721855 351.431976
-58.783604 98.294510 351.431976
-59.032829 99.286331 352.921936
-59.032829 99.861412 352.921936
-59.032829 100.436493 352.921936
-58.874020 100.739838 351.972534
-58.798004 101.182556 351.518066
-58.798004 101.755356 351.518066
-58.696167 102.150917 350.909241
-58.497227 102.374565 349.719910
-58.497227 102.944427 349.719910
-57.799774 102.280106 345.550262
-57.351673 102.045876 342.871338
-57.351673 102.604576 342.871338
-57.351673 103.163284 342.871338
-57.205067 103.456848 341.994873
-57.205067 104.014122 341.994873
-56.789967 103.812592 339.513214
-56.705986 104.211487 339.011139
-56.705986 104.763901 339.011139
-56.606003 105.130615 338.413391
-56.366898 105.235657 336.983917
-56.366898 105.784760 336.983917
-55.031437 103.814583 329.000000
-54.864166 104.033508 328.000000
-54.864166 104.567978 328.000000
-54.864166 105.102448 328.000000
-54.696896 105.314857 327.000000
-54.696896 105.847702 327.000000
-54.529625 106.055222 326.000000
-54.362362 106.259483 325.000000
-54.362362 106.789063 325.000000
-54.195091 106.988434 324.000000
-54.195091 107.516388 324.000000
-54.027821 107.710869 323.000000
-54.027821 108.237198 323.000000
-53.860550 108.426788 322.000000
-53.860550 108.951485 322.000000
-53.860550 109.476181 322.000000
-53.693287 109.659264 321.000000
-53.526016 109.839081 320.000000
-53.526016 110.360519 320.000000
-53.526016 110.881958 320.000000
-53.358746 111.055252 319.000000
-53.358746 111.575058 319.000000
-53.358746 112.094864 319.000000
-53.191479 112.261650 318.000000
-53.191479 112.779823 318.000000
-53.024208 112.941719 317.000000
-53.024208 113.458267 317.000000
-53.024208 113.974808 317.000000
-53.024208 114.491356 317.000000
-52.856937 114.645103 316.000000
-52.856937 115.160019 316.000000
-52.856937 115.674942 316.000000
-52.689671 115.822166 315.000000
-52.689671 116.335457 315.000000
-52.689671 116.848740 315.000000
-52.522400 116.989464 314.000000
-52.522400 117.501122 314.000000
-52.522400 118.012779 314.000000
-52.522400 118.524445 314.000000
-52.522400 119.036102 314.000000
-52.522400 119.547760 314.000000
-52.522400 120.059418 314.000000
-52.522400 120.571075 314.000000
-52.355133 120.697121 313.000000
-52.355133 121.207153 313.000000
-52.355133 121.717178 313.000000
-52.355133 122.227211 313.000000
-52.355133 122.737236 313.000000
-52.355133 123.247269 313.000000
-52.355133 123.757301 313.000000
-52.355133 124.267326 313.000000
-52.187862 124.378708 312.000000
-52.187862 124.887108 312.000000
-52.187862 125.395508 312.000000
-52.187862 125.903908 312.000000
-52.187862 126.412308 312.000000
-52.187862 126.920708 312.000000
-52.020596 127.020676 311.000000
-52.020596 127.527451 311.000000
-52.020596 128.034225 311.000000
-52.020596 128.540985 311.000000
-52.020596 129.047760 311.000000
-52.020596 129.554535 311.000000
-52.020596 130.061295 311.000000
-52.020596 130.568069 311.000000
-52.020596 131.074844 311.000000
-52.020596 131.581619 311.000000
-52.020596 132.088379 311.000000
-58.211212 97.721855 351.431976
-58.211212 98.294510 351.431976
-58.271805 98.970078 351.797791
-58.271805 99.543327 351.797791
-58.271805 100.116585 351.797791
-58.139381 100.461006 350.998322
-58.081314 100.932045 350.647736
-58.081314 101.503418 350.647736
-57.998234 101.928787 350.146179
-57.540035 101.689575 347.379944
-57.540035 102.255630 347.379944
-57.236961 102.280106 345.550262
-56.793224 102.045876 342.871338
-56.793224 102.604576 342.871338
-56.793224 103.163284 342.871338
-56.493454 103.174515 341.061554
-56.493454 103.730270 341.061554
-56.092052 103.545044 338.638214
-55.999226 103.924583 338.077820
-55.999226 104.475471 338.077820
-55.900219 104.840675 337.480072
-55.673096 104.962402 336.108917
-55.673096 105.510086 336.108917
-54.495579 103.814583 329.000000
-54.329937 104.033508 328.000000
-54.329937 104.567978 328.000000
-54.329937 105.102448 328.000000
-54.164295 105.314857 327.000000
-54.164295 105.847702 327.000000
-53.998653 106.055222 326.000000
-53.833019 106.259483 325.000000
-53.833019 106.789063 325.000000
-53.667377 106.988434 324.000000
-53.667377 107.516388 324.000000
-53.501736 107.710869 323.000000
-53.501736 108.237198 323.000000
-53.336098 108.426788 322.000000
-53.336098 108.951485 322.000000
-53.336098 109.476181 322.000000
-53.198853 109.717827 321.171417
-53.004818 109.839081 320.000000
-53.004818 110.360519 320.000000
-52.839180 110.535446 319.000000
-52.839180 111.055252 319.000000
-52.839180 111.575058 319.000000
-52.673538 111.743469 318.000000
-52.507900 111.908623 317.000000
-52.507900 112.425171 317.000000
-52.507900 112.941719 317.000000
-52.507900 113.458267 317.000000
-52.507900 113.974808 317.000000
-52.342258 114.130188 316.000000
-52.342258 114.645103 316.000000
-52.342258 115.160019 316.000000
-52.176617 115.308876 315.000000
-52.176617 115.822166 315.000000
-52.176617 116.335457 315.000000
-52.010975 116.477806 314.000000
-52.010975 116.989464 314.000000
-52.010975 117.501122 314.000000
-52.010975 118.012779 314.000000
-52.010975 118.524445 314.000000
-52.010975 119.036102 314.000000
-52.010975 119.547760 314.000000
-51.845337 119.677063 313.000000
-51.845337 120.187096 313.000000
-51.845337 120.697121 313.000000
-51.845337 121.207153 313.000000
-51.679695 121.328308 312.000000
-51.679695 121.836708 312.000000
-51.679695 122.345108 312.000000
-51.679695 122.853508 312.000000
-51.679695 123.361908 312.000000
-51.679695 123.870308 312.000000
-51.679695 124.378708 312.000000
-51.679695 124.887108 312.000000
-51.514057 124.993599 311.000000
-51.514057 125.500366 311.000000
-51.514057 126.007133 311.000000
-51.514057 126.513908 311.000000
-51.514057 127.020676 311.000000
-51.514057 127.527451 311.000000
-51.514057 128.034225 311.000000
-51.514057 128.540985 311.000000
-51.514057 129.047760 311.000000
-51.514057 129.554535 311.000000
-51.514057 130.061295 311.000000
-51.514057 130.568069 311.000000
-51.514057 131.074844 311.000000
-51.514057 131.581619 311.000000
-51.514057 132.088379 311.000000
-57.443012 97.389877 350.238098
-57.443012 97.960587 350.238098
-57.650860 98.887817 351.505402
-57.650860 99.460602 351.505402
-57.650860 100.033371 351.505402
-57.525700 100.387726 350.742279
-57.484200 100.886429 350.489258
-57.484200 101.457542 350.489258
-57.301285 101.704002 349.373993
-56.790657 101.361908 346.260590
-56.790657 101.926132 346.260590
-56.255882 101.525253 343.000000
-56.167210 101.923271 342.459381
-56.167210 102.481300 342.459381
-56.097282 102.911049 342.033020
-55.937950 103.174515 341.061554
-55.937950 103.730270 341.061554
-55.540501 103.545044 338.638214
-55.448586 103.924583 338.077820
-55.448586 104.475471 338.077820
-55.350548 104.840675 337.480072
-55.125660 104.962402 336.108917
-55.125660 105.510086 336.108917
-53.795712 103.499031 328.000000
-53.795712 104.033508 328.000000
-53.795712 104.567978 328.000000
-53.631699 104.782013 327.000000
-53.631699 105.314857 327.000000
-53.631699 105.847702 327.000000
-53.467686 106.055222 326.000000
-53.303677 106.259483 325.000000
-53.303677 106.789063 325.000000
-53.139668 106.988434 324.000000
-52.975655 107.184547 323.000000
-52.975655 107.710869 323.000000
-52.975655 108.237198 323.000000
-52.811642 108.426788 322.000000
-52.675743 108.671135 321.171417
-52.675743 109.194481 321.171417
-52.675743 109.717827 321.171417
-52.483620 109.839081 320.000000
-52.483620 110.360519 320.000000
-52.319611 110.535446 319.000000
-52.319611 111.055252 319.000000
-52.319611 111.575058 319.000000
-52.155598 111.743469 318.000000
-51.991589 111.908623 317.000000
-51.991589 112.425171 317.000000
-51.991589 112.941719 317.000000
-51.991589 113.458267 317.000000
-51.991589 113.974808 317.000000
-51.827576 114.130188 316.000000
-51.827576 114.645103 316.000000
-51.827576 115.160019 316.000000
-51.663563 115.308876 315.000000
-51.663563 115.822166 315.000000
-51.663563 116.335457 315.000000
-51.499550 116.477806 314.000000
-51.499550 116.989464 314.000000
-51.499550 117.501122 314.000000
-51.499550 118.012779 314.000000
-51.335541 118.146973 313.000000
-51.335541 118.657005 313.000000
-51.335541 119.167030 313.000000
-51.171528 119.294708 312.000000
-51.171528 119.803108 312.000000
-51.171528 120.311508 312.000000
-51.171528 120.819908 312.000000
-51.171528 121.328308 312.000000
-51.171528 121.836708 312.000000
-51.007519 121.952972 311.000000
-51.007519 122.459740 311.000000
-51.007519 122.966515 311.000000
-51.007519 123.473282 311.000000
-51.007519 123.980057 311.000000
-51.007519 124.486824 311.000000
-51.007519 124.993599 311.000000
-51.007519 125.500366 311.000000
-51.007519 126.007133 311.000000
-51.007519 126.513908 311.000000
-51.007519 127.020676 311.000000
-51.007519 127.527451 311.000000
-51.007519 128.034225 311.000000
-51.007519 128.540985 311.000000
-51.007519 129.047760 311.000000
-51.007519 129.554535 311.000000
-51.007519 130.061295 311.000000
-51.007519 130.568069 311.000000
-51.007519 131.074844 311.000000
-51.007519 131.581619 311.000000
-51.007519 132.088379 311.000000
-50.843506 132.673950 310.000000
-50.843506 133.179077 310.000000
-50.843506 133.684219 310.000000
-50.843506 134.189362 310.000000
-50.843506 134.694504 310.000000
-50.843506 135.199646 310.000000
-56.872562 97.389877 350.238098
-56.872562 97.960587 350.238098
-57.078350 98.887817 351.505402
-57.078350 99.460602 351.505402
-57.078350 100.033371 351.505402
-56.954433 100.387726 350.742279
-56.913345 100.886429 350.489258
-56.913345 101.457542 350.489258
-56.689907 101.628098 349.113251
-56.160599 101.242767 345.853607
-56.160599 101.806335 345.853607
-55.833561 101.773773 343.839600
-55.609436 101.923271 342.459381
-55.609436 102.481300 342.459381
-55.510326 102.855690 341.849030
-55.227585 102.886002 340.107849
-55.227585 103.440208 340.107849
-54.864769 103.311218 337.873505
-54.755859 103.655609 337.202820
-54.755859 104.205070 337.202820
-54.648651 104.549431 336.542572
-54.434956 104.686852 335.226563
-54.434956 105.233101 335.226563
-53.261486 103.499031 328.000000
-53.261486 104.033508 328.000000
-53.261486 104.567978 328.000000
-53.099098 104.782013 327.000000
-52.936718 104.992798 326.000000
-52.936718 105.524010 326.000000
-52.936718 106.055222 326.000000
-52.611954 105.932526 324.000000
-52.611954 106.460480 324.000000
-52.449570 106.658226 323.000000
-52.449570 107.184547 323.000000
-52.287189 107.377396 322.000000
-52.287189 107.902092 322.000000
-52.287189 108.426788 322.000000
-52.201218 108.772354 321.470581
-52.201218 109.296181 321.470581
-52.152641 109.717827 321.171417
-51.972721 109.860855 320.063416
-51.972721 110.382393 320.063416
-51.800041 110.535446 319.000000
-51.800041 111.055252 319.000000
-51.800041 111.575058 319.000000
-51.637657 111.743469 318.000000
-51.475277 111.908623 317.000000
-51.475277 112.425171 317.000000
-51.475277 112.941719 317.000000
-51.475277 113.458267 317.000000
-51.475277 113.974808 317.000000
-51.312893 114.130188 316.000000
-51.312893 114.645103 316.000000
-51.312893 115.160019 316.000000
-51.150513 115.308876 315.000000
-51.150513 115.822166 315.000000
-51.150513 116.335457 315.000000
-50.988129 116.477806 314.000000
-50.988129 116.989464 314.000000
-50.988129 117.501122 314.000000
-50.988129 118.012779 314.000000
-50.825745 118.146973 313.000000
-50.825745 118.657005 313.000000
-50.825745 119.167030 313.000000
-50.663361 119.294708 312.000000
-50.663361 119.803108 312.000000
-50.663361 120.311508 312.000000
-50.663361 120.819908 312.000000
-50.663361 121.328308 312.000000
-50.663361 121.836708 312.000000
-50.500980 121.952972 311.000000
-50.500980 122.459740 311.000000
-50.500980 122.966515 311.000000
-50.500980 123.473282 311.000000
-50.500980 123.980057 311.000000
-50.500980 124.486824 311.000000
-50.500980 124.993599 311.000000
-50.500980 125.500366 311.000000
-50.500980 126.007133 311.000000
-50.500980 126.513908 311.000000
-50.500980 127.020676 311.000000
-50.500980 127.527451 311.000000
-50.500980 128.034225 311.000000
-50.500980 128.540985 311.000000
-50.500980 129.047760 311.000000
-50.500980 129.554535 311.000000
-50.500980 130.061295 311.000000
-50.500980 130.568069 311.000000
-50.500980 131.074844 311.000000
-50.500980 131.581619 311.000000
-50.500980 132.088379 311.000000
-50.176216 131.742447 309.000000
-50.338596 132.673950 310.000000
-50.338596 133.179077 310.000000
-50.338596 133.684219 310.000000
-50.338596 134.189362 310.000000
-50.338596 134.694504 310.000000
-50.338596 135.199646 310.000000
-50.338596 135.704788 310.000000
-50.338596 136.209930 310.000000
-56.459412 97.661964 351.216583
-56.459412 98.234268 351.216583
-56.637211 99.117722 352.322601
-56.637211 99.691826 352.322601
-56.637211 100.265938 352.322601
-56.507484 100.609070 351.515625
-56.342491 100.886429 350.489258
-56.342491 101.457542 350.489258
-56.121292 101.628098 349.113251
-55.597290 101.242767 345.853607
-55.597290 101.806335 345.853607
-55.273533 101.773773 343.839600
-54.907501 101.656372 341.562622
-54.907501 102.212944 341.562622
-54.789589 102.548828 340.829132
-54.515335 102.588112 339.123108
-54.515335 103.140709 339.123108
-54.171619 103.039513 336.984924
-54.074257 103.402451 336.379272
-54.074257 103.950577 336.379272
-53.958668 104.275330 335.660217
-53.724823 104.368011 334.205566
-53.724823 104.912598 334.205566
-52.727257 103.499031 328.000000
-52.727257 104.033508 328.000000
-52.727257 104.567978 328.000000
-52.566502 104.782013 327.000000
-52.405750 104.992798 326.000000
-52.405750 105.524010 326.000000
-52.405750 106.055222 326.000000
-52.084240 105.932526 324.000000
-52.084240 106.460480 324.000000
-51.923485 106.658226 323.000000
-51.923485 107.184547 323.000000
-51.762733 107.377396 322.000000
-51.762733 107.902092 322.000000
-51.762733 108.426788 322.000000
-51.677628 108.772354 321.470581
-51.677628 109.296181 321.470581
-51.581963 109.616722 320.875488
-51.451420 109.860855 320.063416
-51.451420 110.382393 320.063416
-51.280472 110.535446 319.000000
-51.119717 110.707115 318.000000
-51.119717 111.225296 318.000000
-51.119717 111.743469 318.000000
-50.958965 111.908623 317.000000
-50.958965 112.425171 317.000000
-50.958965 112.941719 317.000000
-50.798210 113.100349 316.000000
-50.798210 113.615265 316.000000
-50.798210 114.130188 316.000000
-50.637459 114.282303 315.000000
-50.637459 114.795586 315.000000
-50.637459 115.308876 315.000000
-50.637459 115.822166 315.000000
-50.637459 116.335457 315.000000
-50.476704 116.477806 314.000000
-50.476704 116.989464 314.000000
-50.476704 117.501122 314.000000
-50.315948 117.636948 313.000000
-50.315948 118.146973 313.000000
-50.315948 118.657005 313.000000
-50.155193 118.786308 312.000000
-50.155193 119.294708 312.000000
-50.155193 119.803108 312.000000
-50.155193 120.311508 312.000000
-49.994442 120.432663 311.000000
-49.994442 120.939430 311.000000
-49.994442 121.446205 311.000000
-49.994442 121.952972 311.000000
-49.994442 122.459740 311.000000
-49.994442 122.966515 311.000000
-49.994442 123.473282 311.000000
-49.833687 123.581406 310.000000
-49.833687 124.086548 310.000000
-49.833687 124.591682 310.000000
-49.833687 125.096825 310.000000
-49.833687 125.601967 310.000000
-49.833687 126.107109 310.000000
-49.994442 127.020676 311.000000
-49.994442 127.527451 311.000000
-49.994442 128.034225 311.000000
-49.994442 128.540985 311.000000
-49.994442 129.047760 311.000000
-49.833687 129.137955 310.000000
-49.833687 129.643097 310.000000
-49.833687 130.148239 310.000000
-49.585346 130.002289 308.455139
-49.672935 131.742447 309.000000
-49.833687 132.673950 310.000000
-49.833687 133.179077 310.000000
-49.833687 133.684219 310.000000
-49.833687 134.189362 310.000000
-49.833687 134.694504 310.000000
-49.833687 135.199646 310.000000
-49.833687 135.704788 310.000000
-49.833687 136.209930 310.000000
-55.887371 97.661964 351.216583
-55.887371 98.234268 351.216583
-56.063366 99.117722 352.322601
-56.063366 99.691826 352.322601
-56.063366 100.265938 352.322601
-55.934956 100.609070 351.515625
-55.726833 100.805374 350.207703
-55.726833 101.376045 350.207703
-55.506935 101.544411 348.825775
-54.964676 101.115273 345.418060
-54.964676 101.678123 345.418060
-54.713509 101.773773 343.839600
-54.351181 101.656372 341.562622
-54.351181 102.212944 341.562622
-54.234467 102.548828 340.829132
-53.962994 102.588112 339.123108
-53.962994 103.140709 339.123108
-53.622753 103.039513 336.984924
-53.526382 103.402451 336.379272
-53.526382 103.950577 336.379272
-53.250156 103.959435 334.643372
-53.029972 104.072624 333.259674
-53.029972 104.615662 333.259674
-52.193031 103.499031 328.000000
-52.193031 104.033508 328.000000
-52.193031 104.567978 328.000000
-52.033901 104.782013 327.000000
-51.874779 104.992798 326.000000
-51.874779 105.524010 326.000000
-51.715652 105.729897 325.000000
-51.556530 105.932526 324.000000
-51.556530 106.460480 324.000000
-51.397404 106.658226 323.000000
-51.397404 107.184547 323.000000
-51.238277 107.377396 322.000000
-51.238277 107.902092 322.000000
-51.238277 108.426788 322.000000
-51.154037 108.772354 321.470581
-51.154037 109.296181 321.470581
-51.059341 109.616722 320.875488
-50.930119 109.860855 320.063416
-50.930119 110.382393 320.063416
-50.760906 110.535446 319.000000
-50.601776 110.707115 318.000000
-50.601776 111.225296 318.000000
-50.601776 111.743469 318.000000
-50.442654 111.908623 317.000000
-50.442654 112.425171 317.000000
-50.442654 112.941719 317.000000
-50.283527 113.100349 316.000000
-50.283527 113.615265 316.000000
-50.283527 114.130188 316.000000
-50.124405 114.282303 315.000000
-50.124405 114.795586 315.000000
-50.124405 115.308876 315.000000
-49.965279 115.454491 314.000000
-49.965279 115.966148 314.000000
-49.965279 116.477806 314.000000
-49.806152 116.616882 313.000000
-49.806152 117.126915 313.000000
-49.806152 117.636948 313.000000
-49.647026 117.769508 312.000000
-49.647026 118.277908 312.000000
-49.647026 118.786308 312.000000
-49.487904 118.912346 311.000000
-49.487904 119.419121 311.000000
-49.487904 119.925888 311.000000
-49.487904 120.432663 311.000000
-49.487904 120.939430 311.000000
-49.487904 121.446205 311.000000
-49.487904 121.952972 311.000000
-49.328777 122.065979 310.000000
-49.328777 122.571121 310.000000
-49.328777 123.076263 310.000000
-49.328777 123.581406 310.000000
-49.328777 124.086548 310.000000
-49.169651 124.189774 309.000000
-49.169651 124.693283 309.000000
-49.169651 125.196800 309.000000
-49.169651 125.700310 309.000000
-49.197090 126.274246 309.172424
-49.197090 126.778038 309.172424
-49.197090 127.281830 309.172424
-49.181175 127.744301 309.072418
-49.181175 128.247925 309.072418
-49.154537 128.681808 308.904999
-49.119358 129.092712 308.683929
-49.119358 129.595718 308.683929
-49.082951 130.002289 308.455139
-49.010525 130.312332 308.000000
-49.010525 130.814209 308.000000
-49.169651 131.742447 309.000000
-49.169651 132.245956 309.000000
-49.169651 132.749466 309.000000
-49.328777 133.684219 310.000000
-49.328777 134.189362 310.000000
-49.328777 134.694504 310.000000
-49.328777 135.199646 310.000000
-49.328777 135.704788 310.000000
-49.328777 136.209930 310.000000
-55.315327 97.661964 351.216583
-55.315327 98.234268 351.216583
-55.489521 99.117722 352.322601
-55.489521 99.691826 352.322601
-55.489521 100.265938 352.322601
-55.362427 100.609070 351.515625
-54.981144 100.485016 349.094727
-54.981144 101.053864 349.094727
-54.773808 101.239487 347.778290
-54.267105 100.864388 344.561035
-54.267105 101.425850 344.561035
-53.968525 101.426170 342.665253
-53.653656 101.389534 340.666046
-53.653656 101.944641 340.666046
-53.524342 102.252708 339.844971
-53.258419 102.295708 338.156525
-53.258419 102.846733 338.156525
-52.920143 102.741020 336.008698
-52.814377 103.082108 335.337158
-52.814377 103.628532 335.337158
-52.705109 103.959435 334.643372
-52.487179 104.072624 333.259674
-52.487179 104.615662 333.259674
-51.658802 103.499031 328.000000
-51.501305 103.716331 327.000000
-51.501305 104.249168 327.000000
-51.501305 104.782013 327.000000
-51.343811 104.992798 326.000000
-51.343811 105.524010 326.000000
-51.186310 105.729897 325.000000
-50.871319 105.605583 323.000000
-50.871319 106.131905 323.000000
-50.871319 106.658226 323.000000
-50.713825 106.852707 322.000000
-50.713825 107.377396 322.000000
-50.713825 107.902092 322.000000
-50.677822 108.349823 321.771423
-50.561916 108.625137 321.035492
-50.561916 109.148254 321.035492
-50.468185 109.468079 320.440369
-50.346241 109.724457 319.666077
-50.346241 110.245346 319.666077
-50.083839 110.188942 318.000000
-50.083839 110.707115 318.000000
-50.083839 111.225296 318.000000
-49.926342 111.392075 317.000000
-49.926342 111.908623 317.000000
-49.926342 112.425171 317.000000
-49.926342 112.941719 317.000000
-49.768845 113.100349 316.000000
-49.768845 113.615265 316.000000
-49.611351 113.769012 315.000000
-49.611351 114.282303 315.000000
-49.611351 114.795586 315.000000
-49.611351 115.308876 315.000000
-49.453854 115.454491 314.000000
-49.453854 115.966148 314.000000
-49.453854 116.477806 314.000000
-49.296356 116.616882 313.000000
-49.296356 117.126915 313.000000
-49.296356 117.636948 313.000000
-49.138859 117.769508 312.000000
-49.138859 118.277908 312.000000
-49.138859 118.786308 312.000000
-48.981365 118.912346 311.000000
-48.981365 119.419121 311.000000
-48.981365 119.925888 311.000000
-48.981365 120.432663 311.000000
-48.981365 120.939430 311.000000
-48.981365 121.446205 311.000000
-48.981365 121.952972 311.000000
-48.823868 122.065979 310.000000
-48.823868 122.571121 310.000000
-48.666370 122.679237 309.000000
-48.666370 123.182755 309.000000
-48.666370 123.686264 309.000000
-48.508873 123.787865 308.000000
-48.508873 124.289749 308.000000
-48.508873 124.791626 308.000000
-48.508873 125.293510 308.000000
-48.508873 125.795395 308.000000
-48.508873 126.297272 308.000000
-48.508873 126.799156 308.000000
-48.552704 127.416069 308.278290
-48.552704 127.918396 308.278290
-48.552704 128.420746 308.278290
