-86.361816 98.071320 359.000000
-86.361816 98.656303 359.000000
-86.361816 99.826279 359.000000
-86.361816 102.166222 359.000000
-86.361816 112.695969 359.000000
-86.361816 113.865944 359.000000
-85.777100 92.806450 359.000000
-85.777100 93.976418 359.000000
-85.777100 94.561401 359.000000
-85.777100 95.146393 359.000000
-85.777100 96.316360 359.000000
-85.777100 96.901352 359.000000
-85.777100 98.071320 359.000000
-85.777100 98.656303 359.000000
-85.777100 103.336197 359.000000
-85.777100 113.865944 359.000000
-85.777100 114.450928 359.000000
-84.607666 92.221458 359.000000
-84.607666 92.806450 359.000000
-84.607666 93.976418 359.000000
-84.607666 94.561401 359.000000
-84.607666 95.146393 359.000000
-84.607666 96.316360 359.000000
-84.607666 96.901352 359.000000
-84.607666 98.071320 359.000000
-84.607666 103.336197 359.000000
-84.607666 103.921181 359.000000
-84.607666 105.676140 359.000000
-84.607666 114.450928 359.000000
-84.607666 115.035912 359.000000
-84.022949 92.221458 359.000000
-84.022949 92.806450 359.000000
-84.022949 93.976418 359.000000
-84.022949 94.561401 359.000000
-84.022949 95.146393 359.000000
-84.022949 96.316360 359.000000
-84.022949 96.901352 359.000000
-84.022949 103.921181 359.000000
-84.022949 105.091148 359.000000
-84.022949 105.676140 359.000000
-84.022949 110.356026 359.000000
-84.022949 115.035912 359.000000
-84.022949 116.205887 359.000000
-82.853508 92.221458 359.000000
-82.853508 92.806450 359.000000
-82.853508 93.976418 359.000000
-82.853508 94.561401 359.000000
-82.853508 95.146393 359.000000
-82.853508 96.316360 359.000000
-82.853508 103.921181 359.000000
-82.853508 105.091148 359.000000
-82.853508 110.941010 359.000000
-82.853508 116.205887 359.000000
-82.853508 116.790871 359.000000
-82.268791 92.221458 359.000000
-82.268791 92.806450 359.000000
-82.268791 93.976418 359.000000
-82.268791 94.561401 359.000000
-82.268791 95.146393 359.000000
-82.268791 103.336197 359.000000
-82.268791 103.921181 359.000000
-82.268791 110.941010 359.000000
-82.268791 116.790871 359.000000
-82.268791 117.960846 359.000000
-82.268791 118.545830 359.000000
-81.099358 93.976418 359.000000
-81.099358 95.146393 359.000000
-81.099358 96.316360 359.000000
-81.099358 103.336197 359.000000
-81.099358 110.941010 359.000000
-81.099358 112.110985 359.000000
-81.099358 118.545830 359.000000
-81.099358 119.715797 359.000000
-80.514641 96.316360 359.000000
-80.514641 96.901352 359.000000
-80.514641 98.071320 359.000000
-80.514641 110.356026 359.000000
-80.514641 112.110985 359.000000
-80.514641 112.695969 359.000000
-80.514641 119.715797 359.000000
-80.514641 120.300789 359.000000
-79.345200 105.676140 359.000000
-79.345200 106.846107 359.000000
-79.345200 112.695969 359.000000
-79.345200 113.280952 359.000000
-79.345200 120.300789 359.000000
-79.345200 121.470757 359.000000
-79.345200 122.055748 359.000000
-78.760483 92.221458 359.000000
-78.760483 105.091148 359.000000
-78.760483 105.676140 359.000000
-78.760483 113.280952 359.000000
-78.760483 114.450928 359.000000
-78.760483 122.055748 359.000000
-78.760483 123.225716 359.000000
-78.175766 103.921181 359.000000
-78.175766 114.450928 359.000000
-78.175766 115.035912 359.000000
-78.175766 123.225716 359.000000
-78.175766 123.810699 359.000000
-78.175766 124.980675 359.000000
-77.591049 92.221458 359.000000
-77.591049 96.316360 359.000000
-77.591049 103.336197 359.000000
-77.006325 92.221458 359.000000
-77.006325 92.806450 359.000000
-77.006325 103.336197 359.000000
-77.006325 115.035912 359.000000
-77.006325 116.205887 359.000000
-77.006325 116.790871 359.000000
-77.006325 124.980675 359.000000
-77.006325 125.565659 359.000000
-76.421608 92.806450 359.000000
-76.421608 101.581238 359.000000
-76.421608 102.166222 359.000000
-76.421608 116.205887 359.000000
-76.421608 116.790871 359.000000
-76.421608 125.565659 359.000000
-76.421608 126.735634 359.000000
-75.252174 92.806450 359.000000
-75.252174 93.976418 359.000000
-75.252174 101.581238 359.000000
-75.252174 116.205887 359.000000
-75.252174 117.960846 359.000000
-75.252174 120.300789 359.000000
-75.252174 126.735634 359.000000
-75.252174 127.320618 359.000000
-75.252174 128.490585 359.000000
-74.667458 93.976418 359.000000
-74.667458 94.561401 359.000000
-74.667458 100.411263 359.000000
-74.667458 120.300789 359.000000
-74.667458 125.565659 359.000000
-74.667458 126.735634 359.000000
-74.667458 127.320618 359.000000
-74.667458 128.490585 359.000000
-74.667458 129.075577 359.000000
-73.498016 94.561401 359.000000
-73.498016 95.146393 359.000000
-73.498016 99.826279 359.000000
-73.498016 100.411263 359.000000
-73.498016 120.300789 359.000000
-73.498016 124.980675 359.000000
-73.498016 125.565659 359.000000
-73.498016 126.735634 359.000000
-73.498016 127.320618 359.000000
-73.498016 128.490585 359.000000
-73.498016 129.075577 359.000000
-73.498016 130.245544 359.000000
-72.913300 95.146393 359.000000
-72.913300 120.300789 359.000000
-72.913300 121.470757 359.000000
-72.913300 124.980675 359.000000
-72.913300 125.565659 359.000000
-72.913300 126.735634 359.000000
-72.913300 127.320618 359.000000
-72.913300 128.490585 359.000000
-72.913300 129.075577 359.000000
-72.913300 130.245544 359.000000
-72.913300 130.830536 359.000000
-71.743866 95.146393 359.000000
-71.743866 96.316360 359.000000
-71.743866 120.300789 359.000000
-71.743866 121.470757 359.000000
-71.743866 122.055748 359.000000
-71.743866 123.810699 359.000000
-71.743866 124.980675 359.000000
-71.743866 125.565659 359.000000
-71.743866 126.735634 359.000000
-71.743866 127.320618 359.000000
-71.743866 128.490585 359.000000
-71.743866 129.075577 359.000000
-71.743866 130.245544 359.000000
-71.743866 130.830536 359.000000
-71.159149 96.316360 359.000000
-71.159149 96.901352 359.000000
-71.159149 121.470757 359.000000
-71.159149 122.055748 359.000000
-71.159149 123.225716 359.000000
-71.159149 123.810699 359.000000
-71.159149 124.980675 359.000000
-71.159149 125.565659 359.000000
-71.159149 126.735634 359.000000
-71.159149 127.320618 359.000000
-71.159149 128.490585 359.000000
-71.159149 129.075577 359.000000
-71.159149 130.245544 359.000000
-71.159149 130.830536 359.000000
-71.159149 131.415527 359.000000
-69.989708 96.901352 359.000000
-69.989708 98.071320 359.000000
-69.989708 114.450928 359.000000
-69.989708 115.035912 359.000000
-69.989708 116.205887 359.000000
-69.989708 120.300789 359.000000
-69.989708 121.470757 359.000000
-69.989708 122.055748 359.000000
-69.989708 123.225716 359.000000
-69.989708 123.810699 359.000000
-69.989708 124.980675 359.000000
-69.989708 125.565659 359.000000
-69.989708 126.735634 359.000000
-69.989708 127.320618 359.000000
-69.989708 128.490585 359.000000
-69.989708 129.075577 359.000000
-69.989708 130.245544 359.000000
-69.989708 130.830536 359.000000
-69.989708 131.415527 359.000000
-69.989708 132.585495 359.000000
-69.404991 98.071320 359.000000
-69.404991 116.205887 359.000000
-69.404991 116.790871 359.000000
-69.404991 117.960846 359.000000
-69.404991 118.545830 359.000000
-69.404991 119.715797 359.000000
-69.404991 120.300789 359.000000
-69.404991 121.470757 359.000000
-69.404991 122.055748 359.000000
-69.404991 123.225716 359.000000
-69.404991 123.810699 359.000000
-69.404991 124.980675 359.000000
-69.404991 125.565659 359.000000
-69.404991 126.735634 359.000000
-69.404991 127.320618 359.000000
-69.404991 128.490585 359.000000
-69.404991 129.075577 359.000000
-69.404991 130.245544 359.000000
-69.404991 130.830536 359.000000
-69.404991 131.415527 359.000000
-69.404991 132.585495 359.000000
-69.404991 133.170471 359.000000
-68.235558 98.071320 359.000000
-68.235558 98.656303 359.000000
-68.235558 107.431099 359.000000
-68.235558 108.601067 359.000000
-68.235558 109.186050 359.000000
-68.235558 110.356026 359.000000
-68.235558 110.941010 359.000000
-68.235558 112.110985 359.000000
-68.235558 118.545830 359.000000
-68.235558 119.715797 359.000000
-68.235558 120.300789 359.000000
-68.235558 121.470757 359.000000
-68.235558 122.055748 359.000000
-68.235558 123.225716 359.000000
-68.235558 123.810699 359.000000
-68.235558 124.980675 359.000000
-68.235558 125.565659 359.000000
-68.235558 126.735634 359.000000
-68.235558 127.320618 359.000000
-68.235558 128.490585 359.000000
-68.235558 129.075577 359.000000
-68.235558 130.245544 359.000000
-68.235558 130.830536 359.000000
-68.235558 131.415527 359.000000
-68.235558 132.585495 359.000000
-68.235558 133.170471 359.000000
-68.235558 134.340454 359.000000
-67.650833 98.656303 359.000000
-67.650833 99.826279 359.000000
-67.650833 106.846107 359.000000
-67.650833 107.431099 359.000000
-67.650833 108.601067 359.000000
-67.650833 109.186050 359.000000
-67.650833 110.356026 359.000000
-67.650833 110.941010 359.000000
-67.650833 119.715797 359.000000
-67.650833 120.300789 359.000000
-67.650833 121.470757 359.000000
-67.650833 122.055748 359.000000
-67.650833 123.225716 359.000000
-67.650833 123.810699 359.000000
-67.650833 124.980675 359.000000
-67.650833 125.565659 359.000000
-67.650833 126.735634 359.000000
-67.650833 127.320618 359.000000
-67.650833 128.490585 359.000000
-67.650833 129.075577 359.000000
-67.650833 130.245544 359.000000
-67.650833 130.830536 359.000000
-67.650833 131.415527 359.000000
-67.650833 132.585495 359.000000
-67.650833 133.170471 359.000000
-67.650833 134.340454 359.000000
-67.650833 134.925430 359.000000
-67.650833 136.095413 359.000000
-66.481400 99.826279 359.000000
-66.481400 100.411263 359.000000
-68.086334 108.227280 367.666656
-67.016380 107.705910 361.888885
-67.016380 108.295601 361.888885
-66.863525 109.225288 361.063477
-66.918114 109.903297 361.358276
-66.980499 111.184517 361.695160
-66.980499 111.773895 361.695160
-67.042892 113.057854 362.032074
-66.793335 119.102066 360.684479
-66.710159 120.127731 360.235291
-66.573250 120.466995 359.495972
-66.544655 121.586334 359.341583
-66.550980 122.183495 359.375732
-66.557930 123.367584 359.413300
-66.551559 123.941368 359.378876
-66.542206 125.094978 359.328339
-66.506592 130.880112 359.136017
-66.539574 131.530518 359.314148
-66.534981 132.692352 359.289337
-66.530838 133.269501 359.266968
-66.527992 134.434601 359.251617
-66.520233 135.004242 359.209686
-66.520233 136.174896 359.209686
-66.525772 136.771637 359.239624
-66.322174 120.488800 361.318054
-66.135338 120.736481 360.300201
-65.969368 121.604744 359.395996
-65.977257 122.204994 359.438995
-65.986008 123.392761 359.486664
-65.978035 123.963570 359.443237
-65.925224 131.472458 359.155518
-65.951630 132.696060 359.299377
-65.938431 133.254852 359.227448
-65.925255 134.398697 359.155670
-65.928734 134.991058 359.174622
-65.928734 136.161606 359.174622
-65.934090 136.757996 359.203827
-66.767387 102.648842 367.000000
-66.767387 103.844887 367.000000
-68.804970 109.479080 378.200012
-68.774651 110.662842 378.033325
-67.778595 109.667213 372.558350
-67.778595 110.881371 372.558350
-67.778595 111.488441 372.558350
-67.778595 112.702599 372.558350
-67.144882 112.250267 369.075012
-67.184769 113.520462 369.294250
-67.222717 114.186684 369.502838
-67.401993 115.094902 370.488251
-64.867828 130.521866 356.558716
-64.769539 131.484344 356.018433
-64.676842 131.875488 355.508942
-64.595474 132.866699 355.061676
-64.505386 133.259155 354.566498
-64.505386 134.414688 354.566498
-64.396751 134.765106 353.969360
-64.157860 135.414459 352.656250
-66.169640 103.844887 367.000000
-66.169640 104.442909 367.000000
-66.930893 107.459206 371.222229
-66.930893 108.669006 371.222229
-66.930893 109.273903 371.222229
-66.930893 110.483711 371.222229
-66.930893 111.088608 371.222229
-66.431061 111.459785 368.449982
-66.386841 111.985573 368.204712
-66.394005 113.197746 368.244415
-66.412712 113.829865 368.348206
-64.634880 119.544975 358.487701
-64.750389 120.343819 359.128387
-64.735016 122.070396 359.043091
-62.783337 133.710419 348.218414
-62.654366 134.001999 347.503113
-67.835037 109.284981 379.666656
-63.627182 118.753960 356.115662
-63.221523 130.681747 353.845245
-63.067501 130.938553 352.983185
-62.937443 131.816528 352.255280
-62.793255 132.087219 351.448273
-62.775391 133.194672 351.348267
-62.611206 133.417313 350.429321
-64.974136 103.844887 367.000000
-64.974136 104.442909 367.000000
-67.290428 109.404930 380.083344
-65.746231 107.499405 371.361115
-65.746231 108.709656 371.361115
-65.746231 109.314781 371.361115
-65.746231 110.525047 371.361115
-65.746231 111.130173 371.361115
-65.746231 112.340424 371.361115
-65.238281 112.072945 368.492004
-65.245316 113.286072 368.531738
-62.158943 130.239487 351.098663
-61.996704 131.040802 350.182281
-61.799431 131.192627 349.067993
-61.781723 132.292313 348.967987
-61.580727 132.428711 347.832642
-61.079655 132.475510 345.002411
-60.896084 132.637848 343.965515
-60.815746 133.582367 343.511749
-60.783562 134.071106 343.329926
-64.376389 103.844887 367.000000
-64.376389 104.442909 367.000000
-64.376389 105.638954 367.000000
-64.376389 106.236977 367.000000
-64.376389 107.433022 367.000000
-64.376389 108.031036 367.000000
-64.376389 109.227081 367.000000
-64.376389 109.825104 367.000000
-64.243988 110.792816 366.245209
-64.170280 111.261803 365.825012
-61.137741 130.425095 348.536957
-60.916042 130.518036 347.273102
-60.898502 131.611877 347.173096
-60.673103 131.688385 345.888153
-60.098694 131.558197 342.613495
-59.878704 131.632889 341.359406
-60.600468 134.345444 345.474030
-59.766666 133.052185 340.720673
-60.206230 135.149292 343.226532
-59.318844 131.068100 341.337097
-59.459209 134.723373 342.144806
-63.180897 103.844887 367.000000
-63.180897 104.442909 367.000000
-63.180897 105.638954 367.000000
-63.180897 106.236977 367.000000
-63.180897 107.433022 367.000000
-63.180897 108.031036 367.000000
-63.180897 109.227081 367.000000
-63.095196 109.676132 366.502197
-63.045238 110.782784 366.212036
-62.972900 111.251724 365.791840
-59.796631 129.977859 347.341797
-59.566723 130.041931 346.006317
-59.550735 131.134354 345.913452
-59.329838 131.209488 344.630310
-59.401367 133.054428 345.045807
-59.401367 134.178909 345.045807
-59.401367 134.741165 345.045807
-59.092403 135.718307 343.251129
-63.037880 104.599434 369.666656
-63.085251 105.280861 369.944458
-63.061565 106.446510 369.805542
-63.061565 107.049110 369.805542
-63.061565 108.254295 369.805542
-63.061565 108.856888 369.805542
-63.242481 110.377831 370.866486
-62.733578 110.089096 367.882172
-62.684097 111.200241 367.592010
-59.056496 129.595139 346.319031
-58.832310 129.665359 345.004364
-58.806808 130.733017 344.854797
-58.579739 130.787994 343.523224
-58.030426 130.670609 340.301941
-58.661156 132.651413 344.000671
-58.661156 133.772491 344.000671
-58.661156 134.333038 344.000671
-58.661156 135.454132 344.000671
-58.224171 135.001465 341.438110
-58.169983 135.987534 341.120361
-58.261784 136.758865 341.658691
-57.909576 130.538559 342.868073
-57.463257 130.641266 340.225555
-57.378555 131.002274 339.724060
-57.377861 133.768539 339.719940
-57.408901 134.394791 339.903748
-57.265484 135.164017 339.054596
-57.309593 135.821030 339.315735
-56.956787 136.083908 337.226868
-62.091572 105.035660 371.208344
-62.164459 105.764549 371.644104
-62.128017 106.913010 371.426208
-62.128017 107.518250 371.426208
-62.128017 108.728714 371.426208
-62.611912 110.185524 374.319153
-62.158535 110.598717 371.608673
-61.674862 110.338951 368.717102
-57.559052 120.358047 344.111115
-57.376953 125.007828 343.022461
-57.697720 126.830841 344.940125
-57.728977 128.024307 345.126984
-57.749992 129.196075 345.252625
-57.638409 129.507950 344.585541
-57.638409 130.630951 344.585541
-57.435108 133.527283 343.370117
-57.441559 134.101883 343.408722
-55.976776 135.044708 334.651642
-55.843658 135.267563 333.855804
-55.733284 136.086105 333.195953
-62.136395 111.646454 375.129028
-61.748837 111.557556 372.789276
-56.617607 119.553581 341.811096
-56.496693 120.409836 341.081116
-56.421402 120.804413 340.626556
-56.324783 121.705734 340.043243
-56.222847 123.144753 339.427856
-56.412331 124.114731 340.571777
-56.697105 125.856804 342.291046
-56.725964 126.478897 342.465240
-56.753536 127.098701 342.631744
-56.519146 127.685791 341.216644
-56.508202 128.216965 341.150574
-56.509480 129.331696 341.158295
-56.519268 129.910110 341.217377
-56.148430 130.162460 338.978577
-56.060242 130.509506 338.446167
-56.011761 131.498672 338.153473
-55.923069 131.840607 337.618042
-55.935146 132.969604 337.690948
-55.868004 133.359589 337.285583
-55.697407 134.048218 336.255676
-55.720528 134.652023 336.395264
-62.504715 106.592575 381.100006
-61.656246 106.370773 375.926788
-61.757465 107.158974 376.543945
-63.472378 111.395844 387.000000
-63.308365 111.736977 386.000000
-63.308365 112.994942 386.000000
-61.893803 111.085106 377.375183
-56.276718 120.013855 343.127045
-56.095356 120.741730 342.021271
-55.915672 120.910507 340.925690
-55.700733 121.552528 339.615204
-55.515484 121.699829 338.485718
-55.473888 122.710922 338.232086
-55.653767 123.661758 339.328827
-55.928650 125.383873 341.004822
-55.947605 125.982208 341.120392
-55.983467 126.619179 341.339050
-55.849136 127.425110 340.520020
-55.806374 127.881989 340.259308
-55.777477 128.924088 340.083099
-55.841839 129.627655 340.475525
-55.461235 129.846176 338.154907
-55.369987 130.182678 337.598572
-55.320621 131.165848 337.297607
-55.232300 131.505188 336.759094
-55.220192 132.573608 336.685272
-55.134136 132.914780 336.160583
-54.965885 133.601349 335.134705
-54.962875 134.140106 335.116364
-54.700909 134.587692 333.519135
-54.577114 134.825333 332.764313
-54.480984 135.670425 332.178223
-54.399033 136.006821 331.678558
-61.943954 106.695847 381.469238
-61.192165 106.629028 376.839478
-61.289310 107.413338 377.437714
-62.517292 113.329559 385.000000
-60.993984 111.792290 375.619049
-60.751709 111.957878 374.127045
-57.158661 114.513611 352.000000
-57.158661 115.660774 352.000000
-57.158661 116.234352 352.000000
-57.158661 117.381508 352.000000
-56.039959 120.145309 345.110687
-54.560547 125.186165 336.000000
-54.560547 125.733673 336.000000
-54.560547 126.281181 336.000000
-54.560547 127.376198 336.000000
-54.398163 127.542992 335.000000
-54.398163 128.634750 335.000000
-54.235779 128.795013 334.000000
-54.235779 129.883514 334.000000
-54.073399 130.037247 333.000000
-54.295570 131.661224 334.368195
-54.184803 131.936371 333.686066
-54.029716 132.643112 332.730988
-54.024437 133.172272 332.698486
-53.804497 133.709961 331.344055
-53.703548 133.998001 330.722382
-53.655251 134.954346 330.424957
-53.575317 135.290909 329.932678
-53.508545 136.196182 329.521454
-62.211731 111.395844 387.000000
-62.050976 111.736977 386.000000
-62.050976 112.994942 386.000000
-56.424595 113.616341 351.000000
-56.424595 114.188286 351.000000
-56.424595 115.332184 351.000000
-56.263840 115.573921 350.000000
-56.103085 116.381104 349.000000
-55.138565 119.969414 343.000000
-54.977810 120.734230 342.000000
-54.977810 121.291512 342.000000
-54.817055 122.048172 341.000000
-54.817055 122.603828 341.000000
-54.656303 123.352333 340.000000
-54.656303 123.906357 340.000000
-54.495548 124.646721 339.000000
-54.174038 124.460472 337.000000
-52.812107 136.320831 328.527832
-52.757347 137.249054 328.187195
-62.377037 107.724991 392.000000
-62.377037 109.002510 392.000000
-62.217907 109.361565 391.000000
-60.260223 107.154678 378.697205
-60.355900 107.942871 379.298462
-61.422279 111.107994 386.000000
-61.263161 111.447502 385.000000
-61.104034 112.409470 384.000000
-60.944908 112.740845 383.000000
-60.180016 112.558403 378.193146
-60.015915 112.866051 377.161865
-59.979237 114.025475 376.931335
-54.420780 119.619659 342.000000
-54.420780 120.734230 342.000000
-54.261654 120.936859 341.000000
-54.102531 121.690254 340.000000
-54.102531 122.244278 340.000000
-54.102531 123.352333 340.000000
-53.943405 123.541924 339.000000
-53.625153 123.911339 337.000000
-53.625153 124.460472 337.000000
-53.466030 125.186165 336.000000
-53.466030 125.733673 336.000000
-53.466030 126.281181 336.000000
-53.306904 126.997116 335.000000
-53.306904 127.542992 335.000000
-53.147781 128.250763 334.000000
-52.988655 128.409393 333.000000
-52.988655 129.494629 333.000000
-52.988655 130.037247 333.000000
-53.050240 131.274887 333.387024
-52.934261 131.529953 332.658173
-52.793510 132.261459 331.773651
-52.776512 132.759323 331.666809
-52.595470 133.381104 330.529083
-52.513550 133.711105 330.014282
-52.511280 134.780777 330.000000
-52.511280 135.318512 330.000000
-52.511280 136.393967 330.000000
-60.433578 107.323753 383.714172
-59.678848 107.218323 378.922119
-59.763599 107.988899 379.460205
-60.478596 110.532303 384.000000
-60.321098 110.868561 383.000000
-60.321098 112.116753 383.000000
-60.163609 112.446480 382.000000
-60.163609 113.691406 382.000000
-55.281219 113.616341 351.000000
-55.123722 113.862961 350.000000
-55.123722 115.003601 350.000000
-54.966225 115.243721 349.000000
-54.651234 115.714165 347.000000
-54.493736 115.944496 346.000000
-54.336239 116.733734 345.000000
-53.076267 122.813065 337.000000
-53.076267 123.911339 337.000000
-52.918774 124.091156 336.000000
-52.761276 124.813599 335.000000
-52.761276 125.359482 335.000000
-52.603783 125.529518 334.000000
-52.603783 126.618019 334.000000
-52.603783 127.162262 334.000000
-52.446281 127.866776 333.000000
-52.446281 128.409393 333.000000
-52.288788 129.105759 332.000000
-52.131290 129.256241 331.000000
-52.358791 130.903748 332.444489
-52.232029 131.127228 331.639618
-52.096512 131.865021 330.779175
-52.068874 132.333771 330.603699
-51.929592 133.054321 329.719330
-51.973797 133.705322 330.000000
-51.973797 134.780777 330.000000
-51.973797 135.318512 330.000000
-51.816296 135.980652 329.000000
-51.816296 136.516754 329.000000
-51.816296 137.588959 329.000000
-51.816296 138.125061 329.000000
-51.816296 139.197266 329.000000
-51.816296 139.733368 329.000000
-61.100101 107.086227 392.000000
-61.100101 107.724991 392.000000
-60.944233 108.724434 391.000000
-54.553661 112.152000 350.000000
-54.553661 113.292641 350.000000
-54.553661 113.862961 350.000000
-54.241928 114.346451 348.000000
-54.086060 114.583298 347.000000
-53.930191 115.380692 346.000000
-53.930191 115.944496 346.000000
-53.774323 116.733734 345.000000
-53.150852 118.714241 341.000000
-52.994984 118.920128 340.000000
-52.994984 120.028175 340.000000
-52.994984 120.582207 340.000000
-52.839119 121.332344 339.000000
-52.839119 121.884735 339.000000
-52.683250 122.626724 338.000000
-51.436310 128.865738 330.000000
-51.436310 129.941208 330.000000
-51.425373 131.526428 329.929840
-51.400326 131.999710 329.769135
-51.280441 132.764053 329.000000
-51.280441 133.300156 329.000000
-51.280441 134.372345 329.000000
-51.280441 134.908447 329.000000
-51.280441 135.980652 329.000000
-51.124577 136.101822 328.000000
-51.124577 137.170761 328.000000
-51.124577 137.705246 328.000000
-51.124577 138.774185 328.000000
-51.124577 139.308655 328.000000
-51.124577 139.843124 328.000000
-60.615875 106.078636 393.000000
-60.307396 106.813049 391.000000
-60.307396 107.450180 391.000000
-60.307396 108.724434 391.000000
-59.339973 107.607262 384.727783
-58.581036 107.468781 379.807251
-58.592850 108.109474 379.883850
-59.073483 110.244469 383.000000
-59.073483 110.868561 383.000000
-58.919250 111.824013 382.000000
-58.919250 112.446480 382.000000
-58.919250 113.691406 382.000000
-53.058167 116.395378 344.000000
-53.058167 116.955917 344.000000
-52.441212 118.366104 340.000000
-52.441212 118.920128 340.000000
-52.286976 119.675156 339.000000
-52.132736 119.872894 338.000000
-51.978497 120.616516 337.000000
-51.978497 121.165649 337.000000
-51.978497 122.263924 337.000000
-51.824261 122.448631 336.000000
-51.824261 123.543648 336.000000
-51.670021 123.721848 335.000000
-51.515781 124.441025 334.000000
-51.361542 124.611061 333.000000
-51.361542 125.153679 333.000000
-51.361542 126.238922 333.000000
-51.361542 126.781540 333.000000
-51.207302 127.482788 332.000000
-51.207302 128.023773 332.000000
-51.053062 128.716888 331.000000
-51.016876 130.781555 330.765381
-58.400433 108.280876 382.677307
-58.340481 108.792648 382.284485
-58.297070 109.956619 382.000000
-58.297070 110.579086 382.000000
-58.297070 111.824013 382.000000
-58.144459 112.152115 381.000000
-58.144459 113.393784 381.000000
-53.413544 111.581680 350.000000
-53.413544 112.152000 350.000000
-53.260933 112.968956 349.000000
-53.108322 113.212326 348.000000
-52.955715 114.017868 347.000000
-52.955715 114.583298 347.000000
-52.803101 115.380692 346.000000
-52.650494 115.609390 345.000000
-51.429611 119.518242 337.000000
-51.277004 120.258598 336.000000
-51.277004 120.806107 336.000000
-51.124390 121.538330 335.000000
-50.971783 121.719780 334.000000
-50.971783 122.808273 334.000000
-50.819172 122.983200 333.000000
-50.819172 124.068443 333.000000
-50.819172 124.611061 333.000000
-50.666561 124.777840 332.000000
-50.666561 125.859818 332.000000
-50.666561 126.400810 332.000000
-50.513950 127.098801 331.000000
-50.513950 127.638168 331.000000
-50.361340 128.328018 330.000000
-50.361340 128.865738 330.000000
-50.361340 129.941208 330.000000
-50.361340 130.478928 330.000000
-50.208729 131.155746 329.000000
-50.201202 131.672119 328.950684
-49.903507 131.956985 327.000000
-49.903507 132.489822 327.000000
-50.056122 133.963943 328.000000
-49.903507 134.088348 327.000000
-49.903507 135.154037 327.000000
-49.903507 135.686874 327.000000
-49.903507 136.752563 327.000000
-49.903507 137.285400 327.000000
-49.903507 138.351089 327.000000
-49.903507 138.883926 327.000000
-49.903507 139.949615 327.000000
-49.903507 140.482452 327.000000
-49.750900 140.584061 326.000000
-49.903507 142.080978 327.000000
-49.903507 142.613831 327.000000
-49.903507 143.679520 327.000000
-61.147457 96.118835 405.000000
-61.147457 96.778770 405.000000
-60.845497 97.614227 403.000000
-60.694515 98.027054 402.000000
-60.543530 99.090057 401.000000
-60.392555 99.494743 400.000000
-60.241570 99.896172 399.000000
-60.090588 100.942879 398.000000
-59.939610 101.336159 397.000000
-59.939610 102.629967 397.000000
-59.788628 103.016739 396.000000
-59.788628 104.307289 396.000000
-59.788628 104.952568 396.000000
-59.637646 105.974831 395.000000
-59.335686 106.078636 393.000000
-59.033718 106.813049 391.000000
-58.882736 107.175385 390.000000
-58.731758 108.168312 389.000000
-58.419071 108.222923 386.928986
-56.949230 112.260963 377.193726
-56.430946 111.848328 373.760956
-52.843483 111.581680 350.000000
-52.692505 111.831573 349.000000
-52.541519 112.645264 348.000000
-52.390541 112.887001 347.000000
-52.390541 114.017868 347.000000
-52.239555 114.253082 346.000000
-52.088577 115.047218 345.000000
-51.937595 115.274292 344.000000
-51.786613 116.057014 343.000000
-51.635632 116.275955 342.000000
-51.484650 117.047272 341.000000
-51.484650 117.602928 341.000000
-51.333668 118.366104 340.000000
-51.182690 118.570358 339.000000
-51.031704 119.322128 338.000000
-49.823856 125.639359 330.000000
-49.823856 126.714821 330.000000
-49.823856 127.252548 330.000000
-49.672874 127.939133 329.000000
-49.672874 128.475235 329.000000
-49.672874 129.547440 329.000000
-49.521893 129.688156 328.000000
-49.370911 130.358459 327.000000
-49.219929 130.491013 326.000000
-49.370911 131.956985 327.000000
-49.370911 132.489822 327.000000
-49.370911 133.555511 327.000000
-49.370911 134.088348 327.000000
-49.219929 134.740723 326.000000
-49.219929 135.271927 326.000000
-49.219929 136.334351 326.000000
-49.219929 136.865570 326.000000
-49.219929 137.927994 326.000000
-49.219929 138.459213 326.000000
-49.219929 139.521637 326.000000
-49.219929 140.052841 326.000000
-49.219929 140.584061 326.000000
-49.219929 141.646484 326.000000
-49.219929 142.177704 326.000000
-49.219929 143.240128 326.000000
-49.219929 143.771332 326.000000
-59.292999 102.629967 397.000000
-59.143646 103.016739 396.000000
-59.143646 104.307289 396.000000
-59.143646 104.952568 396.000000
-58.994293 105.974831 395.000000
-58.994293 106.618477 395.000000
-58.396881 106.813049 391.000000
-58.098179 106.900574 389.000000
-57.799469 107.612175 387.000000
-57.650116 107.963081 386.000000
-57.220707 108.407516 383.124847
-57.160355 108.916809 382.720734
-57.052711 109.956619 382.000000
-56.903358 110.289612 381.000000
-56.903358 111.531281 381.000000
-56.903358 112.152115 381.000000
-51.526661 113.922874 345.000000
-51.377308 114.713745 344.000000
-51.377308 115.274292 344.000000
-51.078602 115.718666 342.000000
-50.929249 115.935966 341.000000
-50.929249 117.047272 341.000000
-50.929249 117.602928 341.000000
-50.630547 118.017967 339.000000
-50.481190 118.220596 338.000000
-50.331841 118.969101 337.000000
-50.182487 119.163582 336.000000
-50.182487 120.258598 336.000000
-50.033134 120.446571 335.000000
-49.883781 121.175529 334.000000
-49.734428 121.355347 333.000000
-49.734428 122.440582 333.000000
-49.734428 122.983200 333.000000
-49.734428 124.068443 333.000000
-49.585079 124.236855 332.000000
-49.585079 124.777840 332.000000
-49.435722 125.480721 331.000000
-59.975903 94.371445 406.000000
-59.975903 95.033020 406.000000
-59.828175 96.118835 405.000000
-59.680458 96.539810 404.000000
-59.532730 97.614227 403.000000
-59.385006 98.027054 402.000000
-59.237278 99.090057 401.000000
-59.089561 99.494743 400.000000
-58.941833 99.896172 399.000000
-58.794109 100.942879 398.000000
-58.646389 101.336159 397.000000
-57.169147 106.350952 387.000000
-57.021420 107.334106 386.000000
-56.578251 107.124001 383.000000
-56.578251 108.372185 383.000000
-56.430531 108.711693 382.000000
-56.282806 109.668777 381.000000
-56.135082 110.000137 380.000000
-56.135082 111.238548 380.000000
-55.983997 111.556702 378.977264
-55.560802 111.939148 376.112488
-55.009781 111.435791 372.382385
-51.703365 110.441040 350.000000
-51.555641 111.262886 349.000000
-51.407917 111.511139 348.000000
-51.260193 112.321571 347.000000
-51.260193 112.887001 347.000000
-51.112469 113.689285 346.000000
-49.782955 117.870827 337.000000
-49.635231 118.616074 336.000000
-49.635231 119.163582 336.000000
-49.487507 119.900696 335.000000
-49.339783 120.087029 334.000000
-49.192059 120.812729 333.000000
-49.192059 121.355347 333.000000
-49.192059 122.440582 333.000000
-49.192059 122.983200 333.000000
-49.044334 123.695862 332.000000
-49.044334 124.236855 332.000000
-48.748886 124.026161 330.000000
-48.748886 125.101624 330.000000
-48.601162 125.258629 329.000000
-48.601162 126.330833 329.000000
-48.601162 126.866936 329.000000
-48.601162 127.939133 329.000000
-48.453438 128.084747 328.000000
-48.453438 129.153687 328.000000
-48.305714 129.292770 327.000000
-48.157990 129.959808 326.000000
-48.157990 130.491013 326.000000
-48.157990 131.553436 326.000000
-48.157990 132.084656 326.000000
-48.157990 133.147079 326.000000
-48.157990 133.678299 326.000000
-48.157990 134.740723 326.000000
-48.157990 135.271927 326.000000
-48.010265 135.916153 325.000000
-48.010265 136.445740 325.000000
-48.157990 137.927994 326.000000
-48.157990 138.459213 326.000000
-48.157990 139.521637 326.000000
-48.157990 140.052841 326.000000
-48.157990 140.584061 326.000000
-48.157990 141.646484 326.000000
-48.157990 142.177704 326.000000
-48.157990 143.240128 326.000000
-48.157990 143.771332 326.000000
-48.157990 144.833755 326.000000
-59.314632 94.371445 406.000000
-59.168537 94.798950 405.000000
-59.168537 96.118835 405.000000
-59.022446 96.539810 404.000000
-58.876347 97.614227 403.000000
-58.730251 98.027054 402.000000
-58.584156 99.090057 401.000000
-58.438065 99.494743 400.000000
-58.291965 99.896172 399.000000
-58.145870 100.942879 398.000000
-57.999779 101.336159 397.000000
-57.999779 102.629967 397.000000
-57.853683 103.016739 396.000000
-57.853683 104.307289 396.000000
-57.853683 104.952568 396.000000
-57.707584 105.974831 395.000000
-57.561489 106.348557 394.000000
-57.123203 106.813049 391.000000
-55.070518 110.959839 376.949646
-54.668728 111.369797 374.199463
-51.133305 109.870720 350.000000
-51.133305 110.441040 350.000000
-50.987209 111.262886 349.000000
-50.695019 111.190704 347.000000
-50.695019 112.321571 347.000000
-50.548923 112.561676 346.000000
-50.548923 113.689285 346.000000
-50.256733 113.592659 344.000000
-50.256733 114.713745 344.000000
-50.110638 114.939186 343.000000
-49.964542 115.718666 342.000000
-49.818447 115.935966 341.000000
-49.818447 117.047272 341.000000
-49.818447 117.602928 341.000000
-49.526257 118.017967 339.000000
-48.357494 123.323280 331.000000
-48.211403 123.488434 330.000000
-48.211403 124.026161 330.000000
-48.065304 124.722527 329.000000
-48.065304 125.258629 329.000000
-48.065304 126.330833 329.000000
-47.919212 126.481331 328.000000
-47.919212 127.550278 328.000000
-47.773113 127.694244 327.000000
-47.773113 128.759933 327.000000
-47.627022 128.897369 326.000000
-47.480923 129.561157 325.000000
-47.480923 130.090729 325.000000
-47.480923 131.149902 325.000000
-47.627022 132.084656 326.000000
-47.480923 132.738647 325.000000
-47.480923 133.268234 325.000000
-47.480923 134.327408 325.000000
-47.334831 134.442032 324.000000
-47.334831 135.497940 324.000000
-47.334831 136.025894 324.000000
-47.334831 137.081802 324.000000
-47.334831 137.609756 324.000000
-47.480923 139.093658 325.000000
-47.627022 140.052841 326.000000
-47.261784 139.505966 323.500000
-47.627022 141.646484 326.000000
-47.627022 142.177704 326.000000
-47.627022 143.240128 326.000000
-47.627022 143.771332 326.000000
-47.480923 144.389481 325.000000
-57.353168 100.689247 397.000000
-57.353168 101.336159 397.000000
-57.208702 102.371460 396.000000
-57.208702 103.016739 396.000000
-57.208702 104.307289 396.000000
-57.064232 104.687538 395.000000
-57.064232 105.974831 395.000000
-56.775303 106.078636 393.000000
-56.341900 106.539871 390.000000
-55.764034 106.076141 386.000000
-55.475101 106.777969 384.000000
-55.330635 107.124001 383.000000
-55.186172 108.089233 382.000000
-55.186172 108.711693 382.000000
-55.041706 109.668777 381.000000
-54.897236 110.000137 380.000000
-54.798195 111.037849 379.314423
-49.696445 113.032112 344.000000
-49.696445 113.592659 344.000000
-49.551979 114.380272 343.000000
-49.407513 114.604095 342.000000
-49.263046 115.380310 341.000000
-49.118580 115.595970 340.000000
-49.118580 116.704025 340.000000
-48.974113 116.913170 339.000000
-48.829647 117.669830 338.000000
-48.540718 117.521057 336.000000
-48.540718 118.616074 336.000000
-48.396248 118.808937 335.000000
-48.251785 119.542786 334.000000
-48.107315 119.727486 333.000000
-48.107315 120.812729 333.000000
-48.107315 121.355347 333.000000
-47.962852 122.072891 332.000000
-47.962852 122.613884 332.000000
-46.807117 129.690460 324.000000
-46.807117 130.746368 324.000000
-46.807117 131.274307 324.000000
-46.807117 132.330215 324.000000
-46.662651 132.448120 323.000000
-46.662651 133.500763 323.000000
-46.662651 134.027084 323.000000
-46.662651 135.079742 323.000000
-46.662651 135.606064 323.000000
-46.662651 136.658707 323.000000
-46.662651 137.185043 323.000000
-46.662651 138.237686 323.000000
-46.662651 138.764008 323.000000
-46.572361 139.020828 322.375000
-46.662651 140.342987 323.000000
-46.807117 141.305435 324.000000
-46.807117 142.361343 324.000000
-46.807117 142.889297 324.000000
-46.807117 143.945206 324.000000
-57.849255 94.139008 405.000000
-57.849255 94.798950 405.000000
-57.849255 96.118835 405.000000
-57.563583 96.300858 403.000000
-57.563583 97.614227 403.000000
-57.277905 97.783203 401.000000
-57.135071 98.842949 400.000000
-57.135071 99.494743 400.000000
-56.992229 99.896172 399.000000
-55.421017 105.993515 388.000000
-54.992504 105.801338 385.000000
-54.849667 106.777969 384.000000
-54.706825 107.124001 383.000000
-54.563995 108.089233 382.000000
-54.563995 108.711693 382.000000
-54.421154 109.668777 381.000000
-53.645729 108.718140 375.571259
-53.594238 109.836586 375.210815
-53.657848 110.579071 375.656128
-53.264683 110.984116 372.903595
-50.136024 108.468788 351.000000
-49.993187 109.300400 350.000000
-49.993187 109.870720 350.000000
-49.850349 110.125504 349.000000
-49.707508 110.944077 348.000000
-49.564674 111.190704 347.000000
-49.421833 111.997871 346.000000
-49.421833 112.561676 346.000000
-48.279133 116.568291 338.000000
-48.136295 117.321686 337.000000
-47.993458 117.521057 336.000000
-47.850620 118.263062 335.000000
-47.707783 118.454285 334.000000
-47.564945 119.184868 333.000000
-47.564945 119.727486 333.000000
-47.564945 120.812729 333.000000
-47.422108 120.990913 332.000000
-47.422108 122.072891 332.000000
-47.279270 122.244560 331.000000
-47.136433 122.950699 330.000000
-46.993595 123.114227 329.000000
-46.993595 123.650322 329.000000
-46.993595 124.722527 329.000000
-46.850758 124.877914 328.000000
-46.707916 125.562874 327.000000
-46.707916 126.095718 327.000000
-46.707916 127.161400 327.000000
-46.565083 127.303741 326.000000
-46.565083 128.366165 326.000000
-46.422241 128.501984 325.000000
-46.422241 129.561157 325.000000
-57.189613 94.798950 405.000000
-57.189613 96.118835 405.000000
-56.907200 96.300858 403.000000
-56.765987 97.372002 402.000000
-56.624779 97.783203 401.000000
-56.483574 98.842949 400.000000
-56.483574 99.494743 400.000000
-56.342365 99.896172 399.000000
-56.059948 100.689247 397.000000
-56.059948 101.336159 397.000000
-55.918739 102.371460 396.000000
-55.918739 103.016739 396.000000
-55.777527 104.043884 395.000000
-55.777527 104.687538 395.000000
-55.636318 105.706535 394.000000
-55.353901 105.808716 392.000000
-53.079041 108.810432 375.890106
-53.024227 109.921822 375.501953
-52.766899 109.997269 373.679626
-52.410812 110.464577 371.157928
-49.564335 108.468788 351.000000
-49.423126 109.300400 350.000000
-49.281918 109.556816 349.000000
-49.140709 109.809959 348.000000
-48.999500 110.625275 347.000000
-48.858288 110.870270 346.000000
-48.858288 111.997871 346.000000
-48.575871 111.911026 344.000000
-48.575871 113.032112 344.000000
-48.434666 113.262444 343.000000
-48.293453 114.046814 342.000000
-48.152245 114.268997 341.000000
-48.011036 115.041946 340.000000
-47.869827 115.255981 339.000000
-47.869827 116.360779 339.000000
-46.740154 121.705200 331.000000
-46.598949 121.875244 330.000000
-46.457737 122.578125 329.000000
-46.457737 123.114227 329.000000
-46.316528 123.274498 328.000000
-46.175320 123.964348 327.000000
-46.175320 124.497185 327.000000
-46.175320 125.562874 327.000000
-46.034111 125.710098 326.000000
-46.034111 126.772522 326.000000
-46.034111 127.303741 326.000000
-45.892902 127.972397 325.000000
-45.751694 128.106598 324.000000
-45.751694 129.162506 324.000000
-45.751694 129.690460 324.000000
-45.610485 130.342819 323.000000
-45.610485 130.869141 323.000000
-45.610485 131.921799 323.000000
-45.610485 132.448120 323.000000
-45.610485 133.500763 323.000000
-45.610485 134.027084 323.000000
-45.610485 135.079742 323.000000
-45.610485 135.606064 323.000000
-45.469276 136.235626 322.000000
-45.469276 136.760315 322.000000
-45.469276 137.809708 322.000000
-45.469276 138.334396 322.000000
-45.469276 138.859100 322.000000
-45.469276 139.908478 322.000000
-45.469276 140.433182 322.000000
-45.610485 141.921951 323.000000
-45.610485 142.448288 323.000000
-45.610485 143.500931 323.000000
-55.413338 100.689247 397.000000
-55.413338 101.336159 397.000000
-55.273758 102.371460 396.000000
-55.273758 103.016739 396.000000
-55.134174 104.043884 395.000000
-54.994591 104.422501 394.000000
-54.715435 105.169960 392.000000
-54.436272 105.268875 390.000000
-54.017532 105.720337 387.000000
-53.738373 105.801338 385.000000
-53.598793 106.777969 384.000000
-53.319633 106.844299 382.000000
-53.319633 108.089233 382.000000
-53.319633 108.711693 382.000000
-53.180054 109.668777 381.000000
-51.771416 110.390205 370.908051
-48.294746 110.870270 346.000000
-48.015583 111.350487 344.000000
-48.015583 111.911026 344.000000
-47.876007 112.703529 343.000000
-47.736423 112.932243 342.000000
-47.736423 114.046814 342.000000
-47.457264 113.933899 340.000000
-47.317684 114.703590 339.000000
-47.317684 115.255981 339.000000
-47.038525 115.674278 337.000000
-46.898945 115.878540 336.000000
-46.898945 116.973549 336.000000
-46.759365 117.171303 335.000000
-46.619785 117.910034 334.000000
-46.480202 118.099632 333.000000
-46.480202 119.184868 333.000000
-46.340626 119.367943 332.000000
-46.340626 120.449921 332.000000
-46.340626 120.990913 332.000000
-45.363560 126.383652 325.000000
-45.363560 126.913231 325.000000
-45.223980 127.578636 324.000000
-45.084400 127.711197 323.000000
-45.084400 128.763855 323.000000
-45.084400 129.290176 323.000000
-45.084400 130.342819 323.000000
-45.084400 130.869141 323.000000
-45.084400 131.921799 323.000000
-45.084400 132.448120 323.000000
-45.084400 133.500763 323.000000
-45.084400 134.027084 323.000000
-44.944820 134.661530 322.000000
-44.944820 135.186234 322.000000
-44.944820 136.235626 322.000000
-44.944820 136.760315 322.000000
-44.944820 137.809708 322.000000
-44.944820 138.334396 322.000000
-44.944820 138.859100 322.000000
-44.805241 139.473999 321.000000
-44.805241 139.997055 321.000000
-44.944820 141.482574 322.000000
-44.944820 142.007263 322.000000
-44.944820 143.056656 322.000000
-55.870335 94.798950 405.000000
-55.732388 95.881500 404.000000
-55.594433 96.300858 403.000000
-55.456482 97.372002 402.000000
-55.318527 97.783203 401.000000
-55.180580 98.842949 400.000000
-55.180580 99.494743 400.000000
-55.042629 99.896172 399.000000
-53.663116 104.998955 389.000000
-53.387211 105.720337 387.000000
-53.111305 105.801338 385.000000
-52.973354 106.777969 384.000000
-52.697453 106.844299 382.000000
-52.697453 108.089233 382.000000
-52.697453 108.711693 382.000000
-52.807812 110.186890 382.799988
-51.747303 108.585304 375.112427
-51.689632 109.685425 374.694397
-51.516537 109.926620 373.439606
-48.420959 107.896835 351.000000
-48.420959 108.468788 351.000000
-48.145058 108.988121 349.000000
-48.145058 109.556816 349.000000
-48.007103 109.809959 348.000000
-47.869152 110.625275 347.000000
-46.765541 113.598793 339.000000
-46.765541 114.703590 339.000000
-46.489639 114.576004 337.000000
-46.351688 115.331032 336.000000
-46.213734 115.533669 335.000000
-46.213734 116.625427 335.000000
-46.075787 116.821541 334.000000
-45.937832 117.557007 333.000000
-45.937832 118.099632 333.000000
-45.799881 118.826950 332.000000
-45.799881 119.367943 332.000000
-45.799881 120.449921 332.000000
-45.661930 120.626480 331.000000
-45.523979 121.337509 330.000000
-45.386024 121.505920 329.000000
-45.386024 122.578125 329.000000
-45.248077 122.740028 328.000000
-45.110123 122.898659 327.000000
-45.110123 123.964348 327.000000
-44.972172 124.116463 326.000000
-44.972172 125.178886 326.000000
-44.972172 125.710098 326.000000
-55.210693 94.798950 405.000000
-55.074375 95.881500 404.000000
-54.938049 96.300858 403.000000
-54.801727 97.372002 402.000000
-54.665401 97.783203 401.000000
-54.529083 98.842949 400.000000
-54.529083 99.494743 400.000000
-54.392761 99.896172 399.000000
-54.120117 100.689247 397.000000
-54.120117 101.336159 397.000000
-53.983791 102.371460 396.000000
-53.983791 103.016739 396.000000
-53.711143 103.780487 394.000000
-53.438503 103.892441 392.000000
-53.438503 105.169960 392.000000
-51.022167 108.342873 374.274902
-50.976498 109.464554 373.939880
-50.718365 109.516479 372.046326
-50.426754 110.092339 369.907227
-47.849270 107.896835 351.000000
-47.712948 108.159760 350.000000
-47.576626 108.988121 349.000000
-47.440300 109.242897 348.000000
-47.303982 110.059837 347.000000
-47.167656 110.306465 346.000000
-47.031334 110.549835 345.000000
-46.758690 111.026787 343.000000
-46.758690 111.585701 343.000000
-46.622364 112.374962 342.000000
-46.486042 112.602036 341.000000
-46.349720 113.379868 340.000000
-45.259140 117.203987 332.000000
-45.259140 117.744972 332.000000
-45.259140 118.826950 332.000000
-45.122814 119.008400 331.000000
-44.986496 119.724319 330.000000
-44.986496 120.262047 330.000000
-44.850170 120.969818 329.000000
-44.850170 121.505920 329.000000
-44.577522 121.832977 327.000000
-44.577522 122.365822 327.000000
-44.441204 122.522820 326.000000
-44.441204 123.585251 326.000000
-44.441204 124.116463 326.000000
-44.304878 124.794899 325.000000
-44.304878 125.324486 325.000000
-44.168556 125.994774 324.000000
-44.032234 126.132225 323.000000
-44.032234 127.184875 323.000000
-44.032234 127.711197 323.000000
-44.032234 128.763855 323.000000
-44.032234 129.290176 323.000000
-44.032234 130.342819 323.000000
-43.895912 130.463974 322.000000
-43.895912 131.513367 322.000000
-43.895912 132.038055 322.000000
-43.895912 133.087448 322.000000
-43.895912 133.612152 322.000000
-43.895912 134.661530 322.000000
-43.759586 134.766403 321.000000
-43.759586 135.812546 321.000000
-43.759586 136.335602 321.000000
-43.759586 137.381729 321.000000
-43.759586 137.904800 321.000000
-43.759586 138.427872 321.000000
-43.623264 139.039490 320.000000
-43.623264 139.560928 320.000000
-43.623264 140.603806 320.000000
-43.759586 141.566254 321.000000
-43.759586 142.612396 321.000000
-53.742893 99.896172 399.000000
-53.473507 100.689247 397.000000
-53.473507 101.336159 397.000000
-53.338810 102.371460 396.000000
-53.204117 102.756592 395.000000
-52.934727 103.517082 393.000000
-52.800034 103.892441 392.000000
-52.665340 104.901665 391.000000
-52.126564 104.459114 387.000000
-52.126564 105.720337 387.000000
-51.857174 105.801338 385.000000
-51.722481 106.777969 384.000000
-51.453094 106.844299 382.000000
-51.453094 108.089233 382.000000
-51.453094 108.711693 382.000000
-51.504280 110.066002 382.380005
-50.048939 109.377808 371.575195
-49.768555 109.969223 369.493591
-46.738808 108.928978 347.000000
-46.604111 109.742661 346.000000
-46.469418 109.987663 345.000000
-46.334724 110.229393 344.000000
-46.200031 111.026787 343.000000
-46.065334 111.260391 342.000000
-45.930641 112.046379 341.000000
-45.795948 112.271820 340.000000
-45.795948 113.379868 340.000000
-45.661255 113.598793 339.000000
-45.391865 114.026863 337.000000
-45.257175 114.236015 336.000000
-45.122478 114.987793 335.000000
-44.987785 115.188789 334.000000
-44.853088 115.929153 333.000000
-44.853088 116.471771 333.000000
-43.775536 123.735733 325.000000
-43.775536 124.794899 325.000000
-43.640846 124.938866 324.000000
-43.506149 125.605904 323.000000
-43.506149 126.132225 323.000000
-43.506149 127.184875 323.000000
-43.371456 127.315804 322.000000
-43.371456 128.365189 322.000000
-43.371456 128.889893 322.000000
-43.371456 129.939285 322.000000
-43.371456 130.463974 322.000000
-43.236763 131.104950 321.000000
-43.236763 131.628021 321.000000
-43.236763 132.674149 321.000000
-43.236763 133.197205 321.000000
-43.236763 134.243347 321.000000
-43.236763 134.766403 321.000000
-43.236763 135.812546 321.000000
-43.236763 136.335602 321.000000
-43.102070 136.953751 320.000000
-43.102070 137.475189 320.000000
-43.102070 137.996628 320.000000
-43.102070 139.039490 320.000000
-43.102070 139.560928 320.000000
-43.102070 140.603806 320.000000
-43.102070 141.125244 320.000000
-43.102070 142.168106 320.000000
-53.758350 95.881500 404.000000
-53.625286 96.300858 403.000000
-53.492218 97.372002 402.000000
-53.359154 97.783203 401.000000
-53.359154 99.090057 401.000000
-53.226089 99.494743 400.000000
-51.895439 104.633377 390.000000
-51.496239 104.459114 387.000000
-51.496239 105.720337 387.000000
-51.363178 106.076141 386.000000
-51.230110 107.056030 385.000000
-50.963982 107.124001 383.000000
-50.798065 108.019379 381.753143
-50.782337 108.607788 381.634918
-50.833309 109.961807 382.018005
-49.693195 108.104050 373.449890
-49.699944 109.335968 373.500641
-46.705894 106.752945 351.000000
-46.572826 107.589439 350.000000
-46.439766 107.850739 349.000000
-46.306698 108.675835 348.000000
-45.109112 113.046402 339.000000
-44.842979 112.928589 337.000000
-44.709915 113.688507 336.000000
-44.576851 113.896034 335.000000
-44.443787 114.644547 334.000000
-44.310719 114.843910 333.000000
-44.310719 115.929153 333.000000
-44.177654 116.122002 332.000000
-44.177654 117.203987 332.000000
-44.044590 117.390320 331.000000
-44.044590 118.469040 331.000000
-43.911526 118.648857 330.000000
-43.911526 119.724319 330.000000
-43.778458 119.897614 329.000000
-43.645393 120.602142 328.000000
-43.512325 120.767288 327.000000
