-55.880989 109.954712 414.873749
-55.880989 110.630737 414.873749
-55.880970 111.306740 414.873627
-55.880970 111.982773 414.873627
-55.858925 112.614357 414.709961
-55.849407 113.270813 414.639282
-55.849407 113.946465 414.639282
-55.847050 114.617271 414.621765
-55.868584 115.337357 414.781647
-55.868584 116.013237 414.781647
-55.868584 116.689117 414.781647
-55.867332 117.362366 414.772339
-55.867332 118.038231 414.772339
-55.865944 118.711143 414.762054
-55.864422 119.383751 414.750763
-55.864422 120.059586 414.750763
-55.862923 120.732155 414.739594
-55.861107 121.404037 414.726166
-55.861107 122.079834 414.726166
-55.835049 122.698349 414.532654
-55.833229 123.369812 414.519165
-55.807400 123.987862 414.327362
-55.807400 124.663002 414.327362
-54.654362 122.748558 405.766998
-51.849216 117.075699 384.940887
-51.849216 117.702965 384.940887
-51.849216 118.330215 384.940887
-51.238636 117.556625 380.407806
-51.238636 118.176498 380.407806
-50.650997 117.433929 376.045044
-47.816357 111.440308 355.000000
-47.816357 112.018776 355.000000
-47.816357 112.597244 355.000000
-47.816357 113.175713 355.000000
-47.816357 113.754181 355.000000
-47.816357 114.332649 355.000000
-47.816357 114.911118 355.000000
-47.816357 115.489586 355.000000
-47.681664 115.741096 354.000000
-47.546967 115.989357 353.000000
-47.546967 116.564560 353.000000
-47.546967 117.139771 353.000000
-47.412277 117.381508 352.000000
-47.412277 117.955086 352.000000
-47.277584 118.191940 351.000000
-47.142887 118.425529 350.000000
-47.142887 118.995850 350.000000
-46.873501 118.882942 348.000000
-46.738808 119.106758 347.000000
-46.738808 119.672188 347.000000
-46.604111 119.891113 346.000000
-46.469418 120.106773 345.000000
-46.469418 120.668945 345.000000
-46.334724 120.879723 344.000000
-46.200031 121.087242 343.000000
-46.200031 121.646156 343.000000
-46.200031 122.205070 343.000000
-46.065334 122.406082 342.000000
-46.065334 122.963371 342.000000
-46.065334 123.520653 342.000000
-45.930641 123.715134 341.000000
-45.930641 124.270790 341.000000
-45.795948 124.460381 340.000000
-45.526558 124.279030 338.000000
-45.526558 124.829796 338.000000
-45.391865 125.009613 337.000000
-45.257175 125.186165 336.000000
-45.257175 125.733673 336.000000
-45.257175 126.281181 336.000000
-45.257175 126.828690 336.000000
-45.122478 126.997116 335.000000
-45.122478 127.542992 335.000000
-45.122478 128.088867 335.000000
-44.987785 128.250763 334.000000
-44.987785 128.795013 334.000000
-44.853088 128.952011 333.000000
-44.853088 129.494629 333.000000
-44.853088 130.037247 333.000000
-44.718399 130.187744 332.000000
-44.718399 130.728729 332.000000
-44.718399 131.269714 332.000000
-44.718399 131.810715 332.000000
-44.583702 131.953049 331.000000
-44.583702 132.492401 331.000000
-44.583702 133.031769 331.000000
-44.583702 133.571121 331.000000
-44.583702 134.110489 331.000000
-44.583702 134.649841 331.000000
-44.583702 135.189209 331.000000
-44.583702 135.728577 331.000000
-44.583702 136.267929 331.000000
-44.449009 136.393967 330.000000
-44.449009 136.931702 330.000000
-44.449009 137.469437 330.000000
-44.449009 138.007172 330.000000
-44.449009 138.544891 330.000000
-44.449009 139.082626 330.000000
-44.449009 139.620361 330.000000
-44.449009 140.158096 330.000000
-44.449009 140.695816 330.000000
-44.449009 141.233551 330.000000
-44.449009 141.771286 330.000000
-44.449009 142.309006 330.000000
-44.583702 143.279617 331.000000
-44.718399 144.253479 332.000000
-44.718399 144.794464 332.000000
-44.718399 145.335449 332.000000
-44.853088 146.315826 333.000000
-44.853088 146.858444 333.000000
-44.853088 147.401077 333.000000
-44.278423 146.048218 328.733551
-44.278423 146.583878 328.733551
-44.278423 147.119537 328.733551
-44.273254 147.637970 328.695160
-44.273254 148.173569 328.695160
-44.261078 148.668274 328.604767
-44.024700 148.406891 326.849823
-44.024700 148.939499 326.849823
-55.222069 97.815895 415.000000
-55.222069 98.492134 415.000000
-55.222069 99.168373 415.000000
-55.222069 99.844612 415.000000
-55.205433 100.490570 414.875000
-55.205433 101.166603 414.875000
-55.205433 101.842636 414.875000
-55.205433 102.518669 414.875000
-55.205433 103.194702 414.875000
-55.205433 103.870735 414.875000
-55.205433 104.546768 414.875000
-55.205433 105.222801 414.875000
-55.205433 105.898834 414.875000
-55.205433 106.574867 414.875000
-55.205433 107.250908 414.875000
-55.205433 107.926941 414.875000
-55.205433 108.602974 414.875000
-55.205265 109.278679 414.873749
-55.205265 109.954712 414.873749
-55.205265 110.630737 414.873749
-55.205254 111.306740 414.873627
-55.205254 111.982773 414.873627
-55.183475 112.614357 414.709961
-55.174065 113.270813 414.639282
-55.174065 113.946465 414.639282
-55.171738 114.617271 414.621765
-55.193012 115.337357 414.781647
-55.193012 116.013237 414.781647
-55.193012 116.689117 414.781647
-55.191772 117.362366 414.772339
-55.191772 118.038231 414.772339
-55.190403 118.711143 414.762054
-55.188904 119.383751 414.750763
-55.188904 120.059586 414.750763
-55.187412 120.732155 414.739594
-55.185631 121.404037 414.726166
-55.185631 122.079834 414.726166
-55.159878 122.698349 414.532654
-55.158085 123.369812 414.519165
-55.132565 123.987862 414.327362
-55.132565 124.663002 414.327362
-53.993477 122.748558 405.766998
-52.128151 119.146286 391.748871
-52.128151 119.784637 391.748871
-51.222244 118.330215 384.940887
-50.303055 116.822762 378.033051
-50.303055 117.438759 378.033051
-47.238152 110.861839 355.000000
-47.238152 111.440308 355.000000
-47.238152 112.018776 355.000000
-47.238152 112.597244 355.000000
-47.238152 113.175713 355.000000
-47.238152 113.754181 355.000000
-47.238152 114.332649 355.000000
-47.238152 114.911118 355.000000
-47.238152 115.489586 355.000000
-46.972023 115.414146 353.000000
-46.972023 115.989357 353.000000
-46.972023 116.564560 353.000000
-46.838959 116.807930 352.000000
-46.572826 116.714561 350.000000
-46.572826 117.284889 350.000000
-46.572826 117.855209 350.000000
-46.306698 117.748817 348.000000
-46.306698 118.315880 348.000000
-46.173634 118.541321 347.000000
-46.040565 118.763504 346.000000
-46.040565 119.327309 346.000000
-45.907501 119.544601 345.000000
-45.774437 119.758636 344.000000
-45.774437 120.319183 344.000000
-45.641373 120.528328 343.000000
-45.508305 120.734230 342.000000
-45.508305 121.291512 342.000000
-45.508305 121.848801 342.000000
-45.375240 122.048172 341.000000
-45.375240 122.603828 341.000000
-45.375240 123.159477 341.000000
-45.242176 123.352333 340.000000
-45.242176 123.906357 340.000000
-45.109112 124.094322 339.000000
-44.976044 124.279030 338.000000
-44.976044 124.829796 338.000000
-44.842979 125.009613 337.000000
-44.709915 125.186165 336.000000
-44.709915 125.733673 336.000000
-44.709915 126.281181 336.000000
-44.709915 126.828690 336.000000
-44.576851 126.997116 335.000000
-44.576851 127.542992 335.000000
-44.576851 128.088867 335.000000
-44.443787 128.250763 334.000000
-44.443787 128.795013 334.000000
-44.310719 128.952011 333.000000
-44.310719 129.494629 333.000000
-44.310719 130.037247 333.000000
-44.177654 130.187744 332.000000
-44.044590 130.334961 331.000000
-44.044590 130.874329 331.000000
-44.044590 131.413681 331.000000
-44.044590 131.953049 331.000000
-44.044590 132.492401 331.000000
-43.911526 132.629852 330.000000
-43.911526 133.167587 330.000000
-43.911526 133.705322 330.000000
-43.911526 134.243057 330.000000
-43.911526 134.780777 330.000000
-43.911526 135.318512 330.000000
-43.911526 135.856247 330.000000
-43.911526 136.393967 330.000000
-43.911526 136.931702 330.000000
-43.911526 137.469437 330.000000
-43.911526 138.007172 330.000000
-43.911526 138.544891 330.000000
-43.911526 139.082626 330.000000
-43.911526 139.620361 330.000000
-43.911526 140.158096 330.000000
-43.778458 140.269470 329.000000
-43.778458 140.805573 329.000000
-43.778458 141.341675 329.000000
-43.778458 141.877777 329.000000
-43.778458 142.413879 329.000000
-43.778458 142.949966 329.000000
-43.778458 143.486069 329.000000
-43.778458 144.022171 329.000000
-43.778458 144.558273 329.000000
-43.778458 145.094376 329.000000
-43.778458 145.630478 329.000000
-43.778458 146.166580 329.000000
-43.778458 146.702682 329.000000
-43.586700 146.593857 327.558899
-43.566212 147.058441 327.404938
-43.566212 147.591949 327.404938
-43.522324 147.976227 327.075104
-43.492344 148.406891 326.849823
-43.492344 148.939499 326.849823
-43.426308 149.245148 326.353546
-54.546143 97.815895 415.000000
-54.546143 98.492134 415.000000
-54.546143 99.168373 415.000000
-54.529709 99.814537 414.875000
-54.529709 100.490570 414.875000
-54.529709 101.166603 414.875000
-54.529709 101.842636 414.875000
-54.529709 102.518669 414.875000
-54.529709 103.194702 414.875000
-54.529709 103.870735 414.875000
-54.529709 104.546768 414.875000
-54.529709 105.222801 414.875000
-54.529709 105.898834 414.875000
-54.529709 106.574867 414.875000
-54.529709 107.250908 414.875000
-54.529709 107.926941 414.875000
-54.529709 108.602974 414.875000
-54.529549 109.278679 414.873749
-54.529549 109.954712 414.873749
-54.529549 110.630737 414.873749
-54.529530 111.306740 414.873627
-54.529530 111.982773 414.873627
-54.508018 112.614357 414.709961
-54.498730 113.270813 414.639282
-54.498730 113.946465 414.639282
-54.496426 114.617271 414.621765
-54.517441 115.337357 414.781647
-54.517441 116.013237 414.781647
-54.517441 116.689117 414.781647
-54.516220 117.362366 414.772339
-54.516220 118.038231 414.772339
-54.514866 118.711143 414.762054
-54.513382 119.383751 414.750763
-54.513382 120.059586 414.750763
-54.511913 120.732155 414.739594
-54.510151 121.404037 414.726166
-54.510151 122.079834 414.726166
-54.484715 122.698349 414.532654
-54.482937 123.369812 414.519165
-53.960323 122.855377 410.542938
-53.960323 123.524345 410.542938
-53.332584 122.748558 405.766998
-51.490093 119.146286 391.748871
-51.490093 119.784637 391.748871
-50.595276 118.330215 384.940887
-49.687336 116.822762 378.033051
-49.687336 117.438759 378.033051
-46.659950 110.861839 355.000000
-46.659950 111.440308 355.000000
-46.659950 112.018776 355.000000
-46.659950 112.597244 355.000000
-46.659950 113.175713 355.000000
-46.659950 113.754181 355.000000
-46.659950 114.332649 355.000000
-46.528515 114.587425 354.000000
-46.528515 115.164261 354.000000
-46.397076 115.414146 353.000000
-46.397076 115.989357 353.000000
-46.397076 116.564560 353.000000
-46.265640 116.807930 352.000000
-46.002769 116.714561 350.000000
-46.002769 117.284889 350.000000
-46.002769 117.855209 350.000000
-45.739895 117.748817 348.000000
-45.739895 118.315880 348.000000
-45.608459 118.541321 347.000000
-45.345589 118.420258 345.000000
-45.345589 118.982430 345.000000
-45.214149 119.198097 344.000000
-45.082714 119.410500 343.000000
-45.082714 119.969414 343.000000
-44.951275 120.176949 342.000000
-44.819839 120.381203 341.000000
-44.819839 120.936859 341.000000
-44.819839 121.492516 341.000000
-44.819839 122.048172 341.000000
-44.819839 122.603828 341.000000
-44.688404 122.798309 340.000000
-44.556969 122.989532 339.000000
-44.556969 123.541924 339.000000
-44.294094 123.362198 337.000000
-44.162659 123.543648 336.000000
-44.162659 124.091156 336.000000
-44.162659 124.638657 336.000000
-44.162659 125.186165 336.000000
-44.031219 125.359482 335.000000
-44.031219 125.905357 335.000000
-43.899788 126.073769 334.000000
-43.899788 126.618019 334.000000
-43.899788 127.162262 334.000000
-43.768349 127.324158 333.000000
-43.768349 127.866776 333.000000
-43.768349 128.409393 333.000000
-43.768349 128.952011 333.000000
-43.636913 129.105759 332.000000
-43.636913 129.646744 332.000000
-43.636913 130.187744 332.000000
-43.505474 130.334961 331.000000
-43.505474 130.874329 331.000000
-43.505474 131.413681 331.000000
-43.505474 131.953049 331.000000
-43.505474 132.492401 331.000000
-43.374039 132.629852 330.000000
-43.374039 133.167587 330.000000
-43.374039 133.705322 330.000000
-43.374039 134.243057 330.000000
-43.374039 134.780777 330.000000
-43.374039 135.318512 330.000000
-43.374039 135.856247 330.000000
-43.374039 136.393967 330.000000
-43.374039 136.931702 330.000000
-43.374039 137.469437 330.000000
-43.374039 138.007172 330.000000
-43.374039 138.544891 330.000000
-43.374039 139.082626 330.000000
-43.374039 139.620361 330.000000
-43.374039 140.158096 330.000000
-43.242603 140.269470 329.000000
-43.242603 140.805573 329.000000
-43.242603 141.341675 329.000000
-43.242603 141.877777 329.000000
-43.242603 142.413879 329.000000
-43.242603 142.949966 329.000000
-43.242603 143.486069 329.000000
-43.242603 144.022171 329.000000
-43.242603 144.558273 329.000000
-43.242603 145.094376 329.000000
-43.242603 145.630478 329.000000
-43.242603 146.166580 329.000000
-43.242603 146.702682 329.000000
-43.053192 146.593857 327.558899
-43.032951 147.058441 327.404938
-43.032951 147.591949 327.404938
-42.989601 147.976227 327.075104
-42.959991 148.406891 326.849823
-42.959991 148.939499 326.849823
-42.894760 149.245148 326.353546
-42.882244 149.733231 326.258331
-42.882244 150.264862 326.258331
-53.870213 97.815895 415.000000
-53.870213 98.492134 415.000000
-53.870213 99.168373 415.000000
-53.845871 99.799500 414.812500
-53.845871 100.475433 414.812500
-53.845871 101.151360 414.812500
-53.845871 101.827293 414.812500
-53.845871 102.503227 414.812500
-53.845871 103.179161 414.812500
-53.845871 103.855087 414.812500
-53.845871 104.531021 414.812500
-53.845871 105.206955 414.812500
-53.845871 105.882889 414.812500
-53.845871 106.558815 414.812500
-53.845871 107.234741 414.812500
-53.845871 107.910675 414.812500
-53.845871 108.586609 414.812500
-53.843441 109.257614 414.793762
-53.843441 109.933502 414.793762
-53.827843 110.577370 414.673584
-53.826969 111.251266 414.666870
-53.826969 111.926964 414.666870
-53.824093 112.596634 414.644714
-53.815460 113.254135 414.578217
-53.815460 113.929680 414.578217
-53.813202 114.600418 414.560822
-53.811775 115.272888 414.549835
-53.811775 115.948402 414.549835
-53.810955 116.622116 414.543518
-53.808517 117.292305 414.524750
-53.808517 117.967766 414.524750
-53.818821 118.665924 414.604065
-53.818821 119.341530 414.604065
-53.818821 120.017113 414.604065
-53.816357 120.687195 414.585114
-53.815205 121.360161 414.576263
-53.815205 122.035706 414.576263
-53.797066 122.669884 414.436493
-53.312965 122.235252 410.707123
-52.827652 121.785698 406.968414
-52.827652 122.448845 406.968414
-51.829689 120.786301 399.280426
-50.852036 119.146286 391.748871
-50.852036 119.784637 391.748871
-49.411957 117.012726 380.654938
-46.081745 110.283371 355.000000
-46.081745 110.861839 355.000000
-46.081745 111.440308 355.000000
-46.081745 112.018776 355.000000
-45.951939 112.280067 354.000000
-45.951939 112.856903 354.000000
-45.951939 113.433746 354.000000
-45.951939 114.010582 354.000000
-45.822132 114.263725 353.000000
-45.822132 114.838936 353.000000
-45.692326 115.087189 352.000000
-45.562519 115.332184 351.000000
-45.562519 115.904137 351.000000
-45.562519 116.476089 351.000000
-45.432709 116.714561 350.000000
-45.432709 117.284889 350.000000
-45.302902 117.518486 349.000000
-45.043285 117.410461 347.000000
-45.043285 117.975891 347.000000
-45.043285 118.541321 347.000000
-44.783672 118.420258 345.000000
-44.783672 118.982430 345.000000
-44.653862 119.198097 344.000000
-44.524055 119.410500 343.000000
-44.524055 119.969414 343.000000
-44.394245 120.176949 342.000000
-44.264439 120.381203 341.000000
-44.264439 120.936859 341.000000
-44.264439 121.492516 341.000000
-44.264439 122.048172 341.000000
-44.264439 122.603828 341.000000
-43.875015 122.075958 338.000000
-43.745209 122.263924 337.000000
-43.745209 122.813065 337.000000
-43.615402 122.996140 336.000000
-43.615402 123.543648 336.000000
-43.615402 124.091156 336.000000
-43.485592 124.267723 335.000000
-43.485592 124.813599 335.000000
-43.355785 124.985268 334.000000
-43.355785 125.529518 334.000000
-43.355785 126.073769 334.000000
-43.225979 126.238922 333.000000
-43.225979 126.781540 333.000000
-43.225979 127.324158 333.000000
-43.225979 127.866776 333.000000
-43.225979 128.409393 333.000000
-43.096172 128.564774 332.000000
-43.096172 129.105759 332.000000
-43.096172 129.646744 332.000000
-42.966362 129.795609 331.000000
-42.966362 130.334961 331.000000
-42.966362 130.874329 331.000000
-42.836555 131.016663 330.000000
-42.836555 131.554398 330.000000
-42.836555 132.092133 330.000000
-42.836555 132.629852 330.000000
-42.706745 132.764053 329.000000
-42.706745 133.300156 329.000000
-42.706745 133.836258 329.000000
-42.706745 134.372345 329.000000
-42.706745 134.908447 329.000000
-42.706745 135.444550 329.000000
-42.706745 135.980652 329.000000
-42.706745 136.516754 329.000000
-42.706745 137.052856 329.000000
-42.706745 137.588959 329.000000
-42.706745 138.125061 329.000000
-42.706745 138.661163 329.000000
-42.706745 139.197266 329.000000
-42.706745 139.733368 329.000000
-42.576939 139.843124 328.000000
-42.576939 140.377594 328.000000
-42.576939 140.912064 328.000000
-42.576939 141.446548 328.000000
-42.576939 141.981018 328.000000
-42.576939 142.515488 328.000000
-42.576939 143.049957 328.000000
-42.576939 143.584427 328.000000
-42.706745 144.558273 329.000000
-42.706745 145.094376 329.000000
-42.706745 145.630478 329.000000
-42.706745 146.166580 329.000000
-42.706745 146.702682 329.000000
-42.706745 147.238785 329.000000
-42.706745 147.774887 329.000000
-42.706745 148.310989 329.000000
-42.405140 147.795883 326.676514
-42.376118 148.226700 326.452942
-42.376118 148.758652 326.452942
-42.363216 149.245148 326.353546
-42.350857 149.733231 326.258331
-42.350857 150.264862 326.258331
-53.194286 97.815895 415.000000
-53.194286 98.492134 415.000000
-53.194286 99.168373 415.000000
-53.170254 99.799500 414.812500
-53.170254 100.475433 414.812500
-53.170254 101.151360 414.812500
-53.170254 101.827293 414.812500
-53.170254 102.503227 414.812500
-53.170254 103.179161 414.812500
-53.170254 103.855087 414.812500
-53.170254 104.531021 414.812500
-53.170254 105.206955 414.812500
-53.170254 105.882889 414.812500
-53.170254 106.558815 414.812500
-53.170254 107.234741 414.812500
-53.170254 107.910675 414.812500
-53.170254 108.586609 414.812500
-53.167847 109.257614 414.793762
-53.167847 109.933502 414.793762
-53.152443 110.577370 414.673584
-53.151585 111.251266 414.666870
-53.151585 111.926964 414.666870
-53.148746 112.596634 414.644714
-53.140221 113.254135 414.578217
-53.140221 113.929680 414.578217
-53.137993 114.600418 414.560822
-53.136581 115.272888 414.549835
-53.136581 115.948402 414.549835
-53.135773 116.622116 414.543518
-53.133366 117.292305 414.524750
-53.133366 117.967766 414.524750
-53.143536 118.665924 414.604065
-53.143536 119.341530 414.604065
-53.143536 120.017113 414.604065
-53.141102 120.687195 414.585114
-53.139973 121.360161 414.576263
-53.139973 122.035706 414.576263
-53.122055 122.669884 414.436493
-51.862774 120.421257 404.612091
-51.432232 120.075409 401.253204
-51.432232 120.729240 401.253204
-50.503036 119.190109 394.003967
-49.587582 117.659973 386.861969
-49.587582 118.290367 386.861969
-45.503544 109.126434 355.000000
-45.503544 109.704903 355.000000
-45.503544 110.283371 355.000000
-45.503544 110.861839 355.000000
-45.503544 111.440308 355.000000
-45.503544 112.018776 355.000000
-45.375366 112.280067 354.000000
-45.375366 112.856903 354.000000
-45.375366 113.433746 354.000000
-45.247185 113.688515 353.000000
-45.119007 113.940033 352.000000
-45.119007 114.513611 352.000000
-44.990829 114.760239 351.000000
-44.862648 115.003601 350.000000
-44.862648 115.573921 350.000000
-44.862648 116.144241 350.000000
-44.734470 116.381104 349.000000
-44.734470 116.949799 349.000000
-44.606293 117.181755 348.000000
-44.478115 117.410461 347.000000
-44.478115 117.975891 347.000000
-44.478115 118.541321 347.000000
-44.104885 118.107292 344.088226
-44.104885 118.667976 344.088226
-44.093575 119.198097 344.000000
-43.837215 119.062378 342.000000
-43.837215 119.619659 342.000000
-43.709038 119.825546 341.000000
-43.580860 120.028175 340.000000
-43.580860 120.582207 340.000000
-43.580860 121.136230 340.000000
-43.452682 121.332344 339.000000
-43.452682 121.884735 339.000000
-43.324501 122.075958 338.000000
-43.196323 122.263924 337.000000
-43.196323 122.813065 337.000000
-43.068146 122.996140 336.000000
-43.068146 123.543648 336.000000
-43.068146 124.091156 336.000000
-42.939964 124.267723 335.000000
-42.939964 124.813599 335.000000
-42.811787 124.985268 334.000000
-42.811787 125.529518 334.000000
-42.811787 126.073769 334.000000
-42.683605 126.238922 333.000000
-42.683605 126.781540 333.000000
-42.683605 127.324158 333.000000
-42.555428 127.482788 332.000000
-42.555428 128.023773 332.000000
-42.555428 128.564774 332.000000
-42.427250 128.716888 331.000000
-42.427250 129.256241 331.000000
-42.299072 129.403473 330.000000
-42.299072 129.941208 330.000000
-42.299072 130.478928 330.000000
-42.299072 131.016663 330.000000
-42.170891 131.155746 329.000000
-42.170891 131.691849 329.000000
-42.170891 132.227951 329.000000
-42.170891 132.764053 329.000000
-42.170891 133.300156 329.000000
-42.170891 133.836258 329.000000
-42.170891 134.372345 329.000000
-42.170891 134.908447 329.000000
-42.042713 135.032883 328.000000
-42.042713 135.567352 328.000000
-42.042713 136.101822 328.000000
-42.042713 136.636292 328.000000
-42.042713 137.170761 328.000000
-42.042713 137.705246 328.000000
-42.042713 138.239716 328.000000
-42.042713 138.774185 328.000000
-42.042713 139.308655 328.000000
-41.914532 139.416779 327.000000
-41.914532 139.949615 327.000000
-41.914532 140.482452 327.000000
-41.914532 141.015305 327.000000
-41.914532 141.548141 327.000000
-42.042713 142.515488 328.000000
-42.042713 143.049957 328.000000
-42.042713 143.584427 328.000000
-42.042713 144.118896 328.000000
-42.042713 144.653366 328.000000
-42.170891 145.630478 329.000000
-42.170891 146.166580 329.000000
-42.170891 146.702682 329.000000
-42.170891 147.238785 329.000000
-42.170891 147.774887 329.000000
-42.170891 148.310989 329.000000
-41.843464 147.691406 326.445557
-41.818386 148.134506 326.249908
-41.818386 148.666122 326.249908
-41.819466 149.201599 326.258331
-41.819466 149.733231 326.258331
-41.819466 150.264862 326.258331
-41.749146 150.542938 325.709717
-52.493046 97.768761 414.799988
-52.493046 98.444664 414.799988
-52.493046 99.120575 414.799988
-52.478580 99.768990 414.685699
-52.478580 100.444717 414.685699
-52.478580 101.120438 414.685699
-52.478580 101.796165 414.685699
-52.478580 102.471893 414.685699
-52.478580 103.147621 414.685699
-52.478580 103.823341 414.685699
-52.478580 104.499069 414.685699
-52.478580 105.174797 414.685699
-52.478580 105.850517 414.685699
-52.478580 106.526245 414.685699
-52.478580 107.201973 414.685699
-52.478580 107.877693 414.685699
-52.478580 108.553421 414.685699
-52.478580 109.229149 414.685699
-52.478580 109.904877 414.685699
-52.477329 110.577957 414.675781
-52.477329 111.253654 414.675781
-52.477329 111.929375 414.675781
-52.463852 112.576164 414.569305
-52.473518 113.272568 414.645691
-52.473518 113.948227 414.645691
-52.473518 114.623878 414.645691
-52.473015 115.298439 414.641693
-52.473015 115.974091 414.641693
-52.472458 116.648506 414.637299
-52.471844 117.322769 414.632446
-52.471844 117.998413 414.632446
-52.454548 118.634941 414.495789
-52.453720 119.308479 414.489258
-52.453720 119.983879 414.489258
-52.453350 120.658432 414.486328
-52.443783 121.311691 414.410706
-52.443783 121.986977 414.410706
-51.997360 121.618103 410.883087
-51.203762 120.421257 404.612091
-50.574593 119.592773 399.640381
-50.180702 119.307472 396.527832
-49.304981 117.860260 389.607910
-48.444027 116.425995 382.804657
-48.444027 117.049767 382.804657
-44.925339 109.126434 355.000000
-44.925339 109.704903 355.000000
-44.925339 110.283371 355.000000
-44.925339 110.861839 355.000000
-44.925339 111.440308 355.000000
-44.925339 112.018776 355.000000
-44.798790 112.280067 354.000000
-44.798790 112.856903 354.000000
-44.798790 113.433746 354.000000
-44.672237 113.688515 353.000000
-44.545689 113.940033 352.000000
-44.545689 114.513611 352.000000
-44.419140 114.760239 351.000000
-44.292591 115.003601 350.000000
-44.292591 115.573921 350.000000
-44.292591 116.144241 350.000000
-44.166042 116.381104 349.000000
-44.166042 116.949799 349.000000
-44.039490 117.181755 348.000000
-43.912941 117.410461 347.000000
-43.912941 117.975891 347.000000
-43.671001 117.888229 345.088226
-43.544453 118.107292 344.088226
-43.544453 118.667976 344.088226
-43.406738 118.851585 343.000000
-43.027084 118.366104 340.000000
-43.027084 118.920128 340.000000
-43.027084 119.474152 340.000000
-43.027084 120.028175 340.000000
-43.027084 120.582207 340.000000
-42.900536 120.779945 339.000000
-42.773987 120.974426 338.000000
-42.773987 121.525192 338.000000
-42.647438 121.714790 337.000000
-42.520889 121.901123 336.000000
-42.520889 122.448631 336.000000
-42.520889 122.996140 336.000000
-42.394337 123.175964 335.000000
-42.394337 123.721848 335.000000
-42.267788 123.896774 334.000000
-42.267788 124.441025 334.000000
-42.141235 124.611061 333.000000
-42.141235 125.153679 333.000000
-42.141235 125.696297 333.000000
-42.141235 126.238922 333.000000
-42.141235 126.781540 333.000000
-42.141235 127.324158 333.000000
-42.014687 127.482788 332.000000
-42.014687 128.023773 332.000000
-42.014687 128.564774 332.000000
-41.888134 128.716888 331.000000
-41.888134 129.256241 331.000000
-41.761585 129.403473 330.000000
-41.761585 129.941208 330.000000
-41.761585 130.478928 330.000000
-41.761585 131.016663 330.000000
-41.635033 131.155746 329.000000
-41.635033 131.691849 329.000000
-41.635033 132.227951 329.000000
-41.635033 132.764053 329.000000
-41.635033 133.300156 329.000000
-41.635033 133.836258 329.000000
-41.635033 134.372345 329.000000
-41.635033 134.908447 329.000000
-41.508484 135.032883 328.000000
-41.508484 135.567352 328.000000
-41.508484 136.101822 328.000000
-41.508484 136.636292 328.000000
-41.508484 137.170761 328.000000
-41.508484 137.705246 328.000000
-41.508484 138.239716 328.000000
-41.508484 138.774185 328.000000
-41.508484 139.308655 328.000000
-41.381931 139.416779 327.000000
-41.381931 139.949615 327.000000
-41.381931 140.482452 327.000000
-41.381931 141.015305 327.000000
-41.255383 141.115280 326.000000
-41.508484 142.515488 328.000000
-41.508484 143.049957 328.000000
-41.508484 143.584427 328.000000
-41.508484 144.118896 328.000000
-41.508484 144.653366 328.000000
-41.635033 145.630478 329.000000
-41.635033 146.166580 329.000000
-41.635033 146.702682 329.000000
-41.635033 147.238785 329.000000
-41.635033 147.774887 329.000000
-41.635033 148.310989 329.000000
-41.381931 147.942245 327.000000
-41.203381 147.834457 325.589050
-41.203381 148.364990 325.589050
-41.189396 148.845001 325.478546
-41.218647 149.481461 325.709717
-41.218647 150.012192 325.709717
-41.218647 150.542938 325.709717
-41.137646 150.776779 325.069641
-41.137646 151.306488 325.069641
-51.842430 96.463425 415.000000
-51.842430 97.139664 415.000000
-51.842430 97.815895 415.000000
-51.814232 98.438568 414.774292
-51.814232 99.114441 414.774292
-51.814232 99.790306 414.774292
-51.814232 100.466179 414.774292
-51.814232 101.142044 414.774292
-51.814232 101.817909 414.774292
-51.814232 102.493790 414.774292
-51.814232 103.169655 414.774292
-51.814232 103.845520 414.774292
-51.814232 104.521393 414.774292
-51.814232 105.197266 414.774292
-51.814232 105.873131 414.774292
-51.814232 106.549004 414.774292
-51.814232 107.224876 414.774292
-51.814232 107.900742 414.774292
-51.811413 108.570694 414.751709
-51.803165 109.229149 414.685699
-51.803165 109.904877 414.685699
-51.801929 110.577957 414.675781
-51.801929 111.253654 414.675781
-51.801929 111.929375 414.675781
-51.790691 112.580658 414.585846
-51.798168 113.272568 414.645691
-51.798168 113.948227 414.645691
-51.798168 114.623878 414.645691
-51.797668 115.298439 414.641693
-51.797668 115.974091 414.641693
-51.797119 116.648506 414.637299
-51.796513 117.322769 414.632446
-51.796513 117.998413 414.632446
-51.779442 118.634941 414.495789
-51.778625 119.308479 414.489258
-51.778625 119.983879 414.489258
-51.777367 120.656357 414.479187
-51.363155 120.361107 411.163391
-51.363155 121.031090 411.163391
-50.621075 119.942772 405.223022
-49.923679 118.941566 399.640381
-49.923679 119.592773 399.640381
-49.534855 119.307472 396.527832
-48.217896 116.764458 385.985504
-44.347137 109.126434 355.000000
-44.347137 109.704903 355.000000
-44.347137 110.283371 355.000000
-44.347137 110.861839 355.000000
-44.347137 111.440308 355.000000
-44.222218 111.703232 354.000000
-44.222218 112.280067 354.000000
-44.097294 112.538101 353.000000
-44.097294 113.113312 353.000000
-43.972374 113.366455 352.000000
-43.847454 113.616341 351.000000
-43.847454 114.188286 351.000000
-43.722530 114.433281 350.000000
-43.722530 115.003601 350.000000
-43.722530 115.573921 350.000000
-43.597610 115.812416 349.000000
-43.472687 116.047630 348.000000
-43.472687 116.614693 348.000000
-43.347767 116.845024 347.000000
-43.347767 117.410461 347.000000
-43.347767 117.975891 347.000000
-43.108944 117.888229 345.088226
-42.984024 118.107292 344.088226
-42.984024 118.667976 344.088226
-42.848080 118.851585 343.000000
-42.473312 118.366104 340.000000
-42.473312 118.920128 340.000000
-42.348392 119.122757 339.000000
-42.348392 119.675156 339.000000
-42.348392 120.227547 339.000000
-42.223473 120.423660 338.000000
-42.098549 120.616516 337.000000
-42.098549 121.165649 337.000000
-41.973629 121.353615 336.000000
-41.973629 121.901123 336.000000
-41.973629 122.448631 336.000000
-41.973629 122.996140 336.000000
-41.848709 123.175964 335.000000
-41.848709 123.721848 335.000000
-41.723789 123.896774 334.000000
-41.723789 124.441025 334.000000
-41.598866 124.611061 333.000000
-41.598866 125.153679 333.000000
-41.598866 125.696297 333.000000
-41.598866 126.238922 333.000000
-41.598866 126.781540 333.000000
-41.473946 126.941803 332.000000
-41.349022 127.098801 331.000000
-41.349022 127.638168 331.000000
-41.349022 128.177521 331.000000
-41.224102 128.328018 330.000000
-41.224102 128.865738 330.000000
-41.224102 129.403473 330.000000
-41.224102 129.941208 330.000000
-41.224102 130.478928 330.000000
-41.099178 130.619644 329.000000
-41.099178 131.155746 329.000000
-41.099178 131.691849 329.000000
-41.099178 132.227951 329.000000
-41.099178 132.764053 329.000000
-41.099178 133.300156 329.000000
-40.974258 133.429459 328.000000
-40.974258 133.963943 328.000000
-40.974258 134.498413 328.000000
-40.849335 134.621185 327.000000
-40.849335 135.154037 327.000000
-40.849335 135.686874 327.000000
-40.849335 136.219727 327.000000
-40.849335 136.752563 327.000000
-40.849335 137.285400 327.000000
-40.724415 137.396790 326.000000
-40.724415 137.927994 326.000000
-40.724415 138.459213 326.000000
-40.724415 138.990417 326.000000
-40.724415 139.521637 326.000000
-40.724415 140.052841 326.000000
-40.724415 140.584061 326.000000
-40.724415 141.115280 326.000000
-40.849335 142.080978 327.000000
-40.849335 142.613831 327.000000
-40.849335 143.146667 327.000000
-40.849335 143.679520 327.000000
-40.849335 144.212357 327.000000
-40.974258 145.187851 328.000000
-40.974258 145.722321 328.000000
-40.974258 146.256790 328.000000
-40.974258 146.791260 328.000000
-40.974258 147.325729 328.000000
-40.974258 147.860199 328.000000
-40.849335 147.942245 327.000000
-40.673077 147.834457 325.589050
-40.673077 148.364990 325.589050
-40.659275 148.845001 325.478546
-40.688152 149.481461 325.709717
-40.688152 150.012192 325.709717
-40.688152 150.542938 325.709717
-40.608192 150.776779 325.069641
-40.608192 151.306488 325.069641
-51.166504 96.463425 415.000000
-51.166504 97.139664 415.000000
-51.166504 97.815895 415.000000
-51.138676 98.438568 414.774292
-51.138676 99.114441 414.774292
-51.138676 99.790306 414.774292
-51.138676 100.466179 414.774292
-51.138676 101.142044 414.774292
-51.138676 101.817909 414.774292
-51.138676 102.493790 414.774292
-51.138676 103.169655 414.774292
-51.138676 103.845520 414.774292
-51.138676 104.521393 414.774292
-51.138676 105.197266 414.774292
-51.138676 105.873131 414.774292
-51.138676 106.549004 414.774292
-51.138676 107.224876 414.774292
-51.138676 107.900742 414.774292
-51.135887 108.570694 414.751709
-51.127750 109.229149 414.685699
-51.127750 109.904877 414.685699
-51.126530 110.577957 414.675781
-51.126530 111.253654 414.675781
-51.126530 111.929375 414.675781
-51.115440 112.580658 414.585846
-51.122818 113.272568 414.645691
-51.122818 113.948227 414.645691
-51.122818 114.623878 414.645691
-51.122322 115.298439 414.641693
-51.122322 115.974091 414.641693
-51.121780 116.648506 414.637299
-51.121185 117.322769 414.632446
-51.121185 117.998413 414.632446
-51.104336 118.634941 414.495789
-51.103527 119.308479 414.489258
-51.103527 119.983879 414.489258
-51.102287 120.656357 414.479187
-50.023117 118.769478 405.726257
-50.023117 119.430603 405.726257
-49.383938 118.557236 400.542023
-48.763840 117.713036 395.512573
-48.763840 118.357521 395.512573
-48.399857 118.113731 392.560364
-47.589222 116.764458 385.985504
-43.645641 108.819038 354.000000
-43.645641 109.395874 354.000000
-43.645641 109.972717 354.000000
-43.645641 110.549553 354.000000
-43.645641 111.126389 354.000000
-43.645641 111.703232 354.000000
-43.522346 111.962891 353.000000
-43.399055 112.219292 352.000000
-43.399055 112.792870 352.000000
-43.275764 113.044388 351.000000
-43.152470 113.292641 350.000000
-43.152470 113.862961 350.000000
-43.029179 114.106339 349.000000
-43.029179 114.675034 349.000000
-43.029179 115.243721 349.000000
-42.782593 115.148727 347.000000
-42.659298 115.380692 346.000000
-42.659298 115.944496 346.000000
-42.659298 116.508293 346.000000
-42.536007 116.733734 345.000000
-42.536007 117.295914 345.000000
-42.447266 117.612206 344.280243
-42.330635 117.848511 343.334290
-42.330635 118.407974 343.334290
-41.919540 117.812073 340.000000
-41.919540 118.366104 340.000000
-41.919540 118.920128 340.000000
-41.796249 119.122757 339.000000
-41.796249 119.675156 339.000000
-41.796249 120.227547 339.000000
-41.672955 120.423660 338.000000
-41.549664 120.616516 337.000000
-41.549664 121.165649 337.000000
-41.426373 121.353615 336.000000
-41.426373 121.901123 336.000000
-41.426373 122.448631 336.000000
-41.426373 122.996140 336.000000
-41.303078 123.175964 335.000000
-41.303078 123.721848 335.000000
-41.179787 123.896774 334.000000
-41.179787 124.441025 334.000000
-41.056492 124.611061 333.000000
-41.056492 125.153679 333.000000
-40.933201 125.318832 332.000000
-40.933201 125.859818 332.000000
-40.933201 126.400810 332.000000
-40.809906 126.559441 331.000000
-40.809906 127.098801 331.000000
-40.809906 127.638168 331.000000
-40.686615 127.790283 330.000000
-40.686615 128.328018 330.000000
-40.686615 128.865738 330.000000
-40.563320 129.011337 329.000000
-40.563320 129.547440 329.000000
-40.563320 130.083542 329.000000
-40.563320 130.619644 329.000000
-40.563320 131.155746 329.000000
-40.563320 131.691849 329.000000
-40.440029 131.826050 328.000000
-40.440029 132.360519 328.000000
-40.440029 132.894989 328.000000
-40.316734 133.022659 327.000000
-40.316734 133.555511 327.000000
-40.316734 134.088348 327.000000
-40.316734 134.621185 327.000000
-40.193443 134.740723 326.000000
-40.193443 135.271927 326.000000
-40.193443 135.803146 326.000000
-40.193443 136.334351 326.000000
-40.193443 136.865570 326.000000
-40.193443 137.396790 326.000000
-40.193443 137.927994 326.000000
-40.193443 138.459213 326.000000
-40.193443 138.990417 326.000000
-40.193443 139.521637 326.000000
-40.193443 140.052841 326.000000
-40.193443 140.584061 326.000000
-40.193443 141.115280 326.000000
-40.193443 141.646484 326.000000
-40.193443 142.177704 326.000000
-40.193443 142.708908 326.000000
-40.193443 143.240128 326.000000
-40.193443 143.771332 326.000000
-40.193443 144.302551 326.000000
-40.316734 145.278046 327.000000
-40.316734 145.810883 327.000000
-40.316734 146.343719 327.000000
-40.316734 146.876572 327.000000
-40.316734 147.409409 327.000000
-40.316734 147.942245 327.000000
-40.193443 148.021042 326.000000
-40.193443 148.552246 326.000000
-40.070972 148.629196 325.006653
-40.082439 149.201477 325.099670
-40.082439 149.731232 325.099670
-40.082439 150.260971 325.099670
-40.078735 150.776779 325.069641
-40.078735 151.306488 325.069641
-50.368908 93.532547 414.000000
-50.368908 94.207153 414.000000
-50.368908 94.881767 414.000000
-50.490574 96.463425 415.000000
-50.490574 97.139664 415.000000
-50.490574 97.815895 415.000000
-50.463112 98.438568 414.774292
-50.463112 99.114441 414.774292
-50.463112 99.790306 414.774292
-50.463112 100.466179 414.774292
-50.463112 101.142044 414.774292
-50.463112 101.817909 414.774292
-50.463112 102.493790 414.774292
-50.463112 103.169655 414.774292
-50.463112 103.845520 414.774292
-50.463112 104.521393 414.774292
-50.463112 105.197266 414.774292
-50.463112 105.873131 414.774292
-50.463112 106.549004 414.774292
-50.463112 107.224876 414.774292
-50.463112 107.900742 414.774292
-50.460365 108.570694 414.751709
-50.435951 109.193680 414.551056
-50.435951 109.869194 414.551056
-50.442272 110.558540 414.602997
-50.442272 111.234131 414.602997
-50.442272 111.909714 414.602997
-50.440186 112.580658 414.585846
-50.437897 113.251076 414.567017
-50.437897 113.926605 414.567017
-50.435371 114.596413 414.546295
-50.432602 115.265572 414.523499
-50.432602 115.941032 414.523499
-50.429546 116.609436 414.498413
-50.426193 117.277046 414.470825
-50.426193 117.952415 414.470825
-50.422497 118.619102 414.440460
-50.414997 119.276680 414.378815
-50.414997 119.951912 414.378815
-50.041733 119.734032 411.310822
-49.362293 118.769478 405.726257
-49.362293 119.430603 405.726257
-48.128944 117.091156 395.588928
-47.587574 116.411430 391.139221
-47.587574 117.048790 391.139221
-47.262611 116.882492 388.468231
-43.069069 108.819038 354.000000
-43.069069 109.395874 354.000000
-43.069069 109.972717 354.000000
-43.069069 110.549553 354.000000
-43.069069 111.126389 354.000000
-43.069069 111.703232 354.000000
-42.947403 111.962891 353.000000
-42.825741 112.219292 352.000000
-42.825741 112.792870 352.000000
-42.704079 113.044388 351.000000
-42.582413 113.292641 350.000000
-42.582413 113.862961 350.000000
-42.460747 114.106339 349.000000
-42.460747 114.675034 349.000000
-42.460747 115.243721 349.000000
-42.095753 114.816887 346.000000
-42.095753 115.380692 346.000000
-42.095753 115.944496 346.000000
-41.852425 115.834831 344.000000
-41.852425 116.395378 344.000000
-41.852425 116.955917 344.000000
-41.609097 116.833237 342.000000
-41.487434 117.047272 341.000000
-41.487434 117.602928 341.000000
-41.365768 117.812073 340.000000
-41.244106 118.017967 339.000000
-41.244106 118.570358 339.000000
-41.244106 119.122757 339.000000
-41.122440 119.322128 338.000000
-41.122440 119.872894 338.000000
-41.000778 120.067375 337.000000
-40.879116 120.258598 336.000000
-40.879116 120.806107 336.000000
-40.879116 121.353615 336.000000
-40.879116 121.901123 336.000000
-40.879116 122.448631 336.000000
-40.757450 122.630089 335.000000
-40.635788 122.808273 334.000000
-40.635788 123.352524 334.000000
-40.635788 123.896774 334.000000
-40.514122 124.068443 333.000000
-40.514122 124.611061 333.000000
-40.514122 125.153679 333.000000
-40.392460 125.318832 332.000000
-40.392460 125.859818 332.000000
-40.392460 126.400810 332.000000
-40.270794 126.559441 331.000000
-40.270794 127.098801 331.000000
-40.270794 127.638168 331.000000
-40.149132 127.790283 330.000000
-40.149132 128.328018 330.000000
-40.149132 128.865738 330.000000
-40.027466 129.011337 329.000000
-40.027466 129.547440 329.000000
-40.027466 130.083542 329.000000
-40.027466 130.619644 329.000000
-40.027466 131.155746 329.000000
-40.027466 131.691849 329.000000
-39.905804 131.826050 328.000000
-39.905804 132.360519 328.000000
-39.905804 132.894989 328.000000
-39.784138 133.022659 327.000000
-39.784138 133.555511 327.000000
-39.784138 134.088348 327.000000
-39.662476 134.209503 326.000000
-39.662476 134.740723 326.000000
-39.662476 135.271927 326.000000
-39.662476 135.803146 326.000000
-39.662476 136.334351 326.000000
-39.662476 136.865570 326.000000
-39.662476 137.396790 326.000000
-39.540810 137.504898 325.000000
-39.540810 138.034485 325.000000
-39.540810 138.564072 325.000000
-39.540810 139.093658 325.000000
-39.540810 139.623230 325.000000
-39.540810 140.152817 325.000000
-39.540810 140.682404 325.000000
-39.540810 141.211990 325.000000
-39.540810 141.741562 325.000000
-39.662476 142.708908 326.000000
-39.662476 143.240128 326.000000
-39.662476 143.771332 326.000000
-39.662476 144.302551 326.000000
-39.662476 144.833755 326.000000
-39.662476 145.364975 326.000000
-39.662476 145.896194 326.000000
-39.662476 146.427399 326.000000
-39.662476 146.958618 326.000000
-39.662476 147.489822 326.000000
-39.662476 148.021042 326.000000
-39.662476 148.552246 326.000000
-39.487965 148.427521 324.565643
-39.404663 148.642151 323.880951
-39.404663 149.169922 323.880951
-39.496777 150.047607 324.638062
-39.496777 150.576614 324.638062
-39.496777 151.105606 324.638062
-39.422863 151.350830 324.030548
-49.694611 92.183334 414.000000
-49.694611 92.857941 414.000000
-49.694611 93.532547 414.000000
-49.694611 94.207153 414.000000
-49.694611 94.881767 414.000000
-49.595779 96.039597 413.176636
-49.595779 96.712860 413.176636
-49.635773 97.464661 413.509827
-49.635773 98.138474 413.509827
-49.635773 98.812279 413.509827
-49.469093 99.152016 412.121246
-49.694611 100.278625 414.000000
-49.694611 100.953232 414.000000
-49.694611 101.627846 414.000000
-49.694611 102.302452 414.000000
-49.694611 102.977058 414.000000
-49.694611 103.651665 414.000000
-49.454540 103.822281 412.000000
-49.334507 104.240005 411.000000
-49.334507 104.909721 411.000000
-49.334507 105.579445 411.000000
-49.214470 105.990646 410.000000
-49.214470 106.658737 410.000000
-49.415260 107.764717 411.672791
-49.540497 108.710342 412.716095
-49.540497 109.382866 412.716095
-49.540497 110.055374 412.716095
-49.383591 110.377197 411.408936
-49.383591 111.047577 411.408936
-49.378292 111.705978 411.364807
-49.372467 112.363029 411.316254
-49.372467 113.033272 411.316254
-49.340252 113.629311 411.047882
-49.328823 114.272636 410.952667
-49.328823 114.942284 410.952667
-49.420792 115.827461 411.718842
-49.526962 116.748634 412.603333
-49.526962 117.420959 412.603333
-49.526962 118.093292 412.603333
-49.208935 118.002991 409.953888
-49.208935 118.671005 409.953888
-48.867542 118.511101 407.109802
-48.027626 117.126152 400.112549
-48.027626 117.778137 400.112549
-47.484631 117.091156 395.588928
-46.734581 115.876053 389.340363
-46.734581 116.510483 389.340363
-46.421230 116.359451 386.729858
-42.492493 108.242195 354.000000
-42.492493 108.819038 354.000000
-42.492493 109.395874 354.000000
-42.492493 109.972717 354.000000
-42.492493 110.549553 354.000000
-42.492493 111.126389 354.000000
-42.372456 111.387680 353.000000
-42.252422 111.645714 352.000000
-42.132389 111.900490 351.000000
-42.132389 112.472435 351.000000
-42.012352 112.722321 350.000000
-41.892319 112.968956 349.000000
-41.892319 113.537651 349.000000
-41.772282 113.779388 348.000000
-41.652248 114.017868 347.000000
-41.652248 114.583298 347.000000
-41.532211 114.816887 346.000000
-41.532211 115.380692 346.000000
-41.532211 115.944496 346.000000
-41.292141 115.834831 344.000000
-41.292141 116.395378 344.000000
-41.292141 116.955917 344.000000
-41.052067 116.833237 342.000000
-40.932034 117.047272 341.000000
-40.932034 117.602928 341.000000
-40.811996 117.812073 340.000000
-40.691963 118.017967 339.000000
-40.691963 118.570358 339.000000
-40.571926 118.771362 338.000000
-40.451893 118.969101 337.000000
-40.451893 119.518242 337.000000
-40.331860 119.711090 336.000000
-40.331860 120.258598 336.000000
-40.331860 120.806107 336.000000
-40.331860 121.353615 336.000000
-40.211823 121.538330 335.000000
-40.211823 122.084213 335.000000
-40.091789 122.264023 334.000000
-40.091789 122.808273 334.000000
-40.091789 123.352524 334.000000
-39.971752 123.525826 333.000000
-39.971752 124.068443 333.000000
-39.971752 124.611061 333.000000
-39.971752 125.153679 333.000000
-39.851719 125.318832 332.000000
-39.731682 125.480721 331.000000
-39.731682 126.020081 331.000000
-39.611649 126.177086 330.000000
-39.611649 126.714821 330.000000
-39.611649 127.252548 330.000000
-39.611649 127.790283 330.000000
-39.491611 127.939133 329.000000
-39.491611 128.475235 329.000000
-39.491611 129.011337 329.000000
-39.491611 129.547440 329.000000
-39.491611 130.083542 329.000000
-39.371574 130.222641 328.000000
-39.371574 130.757111 328.000000
-39.371574 131.291580 328.000000
-39.251537 131.424133 327.000000
-39.251537 131.956985 327.000000
-39.251537 132.489822 327.000000
-39.251537 133.022659 327.000000
-39.251537 133.555511 327.000000
-39.251537 134.088348 327.000000
-39.131504 134.209503 326.000000
-39.131504 134.740723 326.000000
-39.131504 135.271927 326.000000
-39.131504 135.803146 326.000000
-39.131504 136.334351 326.000000
-39.131504 136.865570 326.000000
-39.131504 137.396790 326.000000
-39.011467 137.504898 325.000000
-39.011467 138.034485 325.000000
-39.011467 138.564072 325.000000
-39.011467 139.093658 325.000000
-39.011467 139.623230 325.000000
-39.011467 140.152817 325.000000
-39.011467 140.682404 325.000000
-39.011467 141.211990 325.000000
-39.011467 141.741562 325.000000
-39.131504 142.708908 326.000000
-39.131504 143.240128 326.000000
-39.131504 143.771332 326.000000
-39.131504 144.302551 326.000000
-39.131504 144.833755 326.000000
-39.131504 145.364975 326.000000
-39.131504 145.896194 326.000000
-39.131504 146.427399 326.000000
-39.131504 146.958618 326.000000
-39.131504 147.489822 326.000000
-39.131504 148.021042 326.000000
-39.131504 148.552246 326.000000
-38.959332 148.427521 324.565643
-38.877144 148.642151 323.880951
-38.877144 149.169922 323.880951
-38.968025 150.047607 324.638062
-38.968025 150.576614 324.638062
-38.968025 151.105606 324.638062
-38.895103 151.350830 324.030548
-49.020309 92.183334 414.000000
-49.020309 92.857941 414.000000
-49.020309 93.532547 414.000000
-49.020309 94.207153 414.000000
-49.020309 94.881767 414.000000
-48.922817 96.039597 413.176636
-48.922817 96.712860 413.176636
-48.962273 97.464661 413.509827
-48.962273 98.138474 413.509827
-48.962273 98.812279 413.509827
-48.797855 99.152016 412.121246
-49.020309 100.278625 414.000000
-49.020309 100.953232 414.000000
-49.020309 101.627846 414.000000
-49.020309 102.302452 414.000000
-49.020309 102.977058 414.000000
-49.020309 103.651665 414.000000
-48.783497 103.822281 412.000000
-48.665092 104.240005 411.000000
-48.665092 104.909721 411.000000
-48.546684 105.322556 410.000000
-48.546684 105.990646 410.000000
-48.546684 106.658737 410.000000
-48.191467 106.541512 407.000000
-48.649513 108.223663 410.868408
-48.649513 108.893166 410.868408
-48.649513 109.562668 410.868408
-48.639851 110.210289 410.786835
-48.639851 110.879662 410.786835
-48.601803 111.461784 410.465515
-48.559952 112.034065 410.112061
-48.559952 112.702347 410.112061
-48.525761 113.290787 409.823273
-48.499989 113.898064 409.605621
-48.499989 114.565514 409.605621
-48.750206 115.827461 411.718842
-48.768955 116.543152 411.877167
-48.768955 117.214310 411.877167
-48.768955 117.885452 411.877167
-48.455242 117.793976 409.227722
-48.455242 118.460800 409.227722
-47.883160 117.721169 404.396210
-47.115082 116.481232 397.909424
-47.115082 117.129616 397.909424
-46.606304 116.506157 393.612549
-46.100449 115.876053 389.340363
-46.100449 116.510483 389.340363
-45.791348 116.359451 386.729858
-41.915920 107.088524 354.000000
-41.915920 107.665359 354.000000
-41.915920 108.242195 354.000000
-41.915920 108.819038 354.000000
-41.915920 109.395874 354.000000
-41.915920 109.972717 354.000000
-41.797512 110.237267 353.000000
-41.797512 110.812469 353.000000
-41.679104 111.072136 352.000000
-41.560699 111.328537 351.000000
-41.442291 111.581680 350.000000
-41.442291 112.152000 350.000000
-41.323887 112.400269 349.000000
-41.205479 112.645264 348.000000
-41.205479 113.212326 348.000000
-41.087074 113.452431 347.000000
-40.968666 113.689285 346.000000
