1.575698 153.089783 293.000000
1.570320 153.043106 292.000000
1.570320 153.518921 292.000000
1.570320 153.994720 292.000000
1.570320 154.470535 292.000000
1.570320 154.946350 292.000000
1.570320 155.422165 292.000000
1.570320 155.897964 292.000000
1.570320 156.373779 292.000000
1.570320 156.849594 292.000000
1.564943 156.786606 291.000000
1.564943 157.260788 291.000000
1.564943 157.734970 291.000000
1.564943 158.209152 291.000000
1.559565 158.138031 290.000000
1.559565 158.610580 290.000000
1.559565 159.083130 290.000000
1.559565 159.555679 290.000000
1.559565 160.028229 290.000000
2.942751 35.346626 420.000000
2.942751 36.031010 420.000000
2.942751 36.715397 420.000000
2.941887 37.388786 419.876556
2.941887 38.072971 419.876556
2.941887 38.757156 419.876556
2.940539 39.423275 419.684265
2.940539 40.107143 419.684265
2.940539 40.791016 419.684265
2.939320 41.457699 419.510315
2.939492 42.143742 419.534790
2.939492 42.827366 419.534790
2.939672 43.513668 419.560547
2.939893 44.200642 419.591949
2.939929 44.884911 419.597076
2.939929 45.568638 419.597076
2.939929 46.252369 419.597076
2.939501 46.929276 419.536133
2.939501 47.612907 419.536133
2.939160 48.290932 419.487427
2.937415 48.945400 419.238373
2.937415 49.628544 419.238373
2.937294 50.309612 419.221069
2.937597 50.997990 419.264313
2.937597 51.681175 419.264313
2.938673 52.383530 419.417816
2.938673 53.066967 419.417816
2.938673 53.750404 419.417816
2.937280 54.408062 419.219177
2.920140 54.769691 416.772858
2.920140 55.448818 416.772858
2.900103 55.742794 413.912994
2.890379 56.228104 412.525177
2.890379 56.900303 412.525177
2.879612 57.358055 410.988556
2.873055 57.895611 410.052582
2.873055 58.563782 410.052582
2.872505 59.220642 409.974243
2.683509 57.820595 383.000000
2.683509 58.444691 383.000000
2.683509 59.068783 383.000000
2.747953 61.126385 392.197632
2.747953 61.765465 392.197632
2.747953 62.404549 392.197632
2.735266 62.752575 390.386963
2.724750 63.144989 388.886017
2.724750 63.778675 388.886017
2.713555 64.147728 387.288330
2.700016 64.455589 385.355896
2.700016 65.083519 385.355896
2.709432 65.940620 386.699860
2.709432 66.570755 386.699860
2.709432 67.200874 386.699860
2.706134 67.748421 386.229095
2.703507 68.311394 385.854156
2.703507 68.940140 385.854156
2.689533 69.209290 383.859741
2.673483 69.418053 381.569061
2.673483 70.039810 381.569061
2.659014 70.279152 379.504028
2.644408 70.508095 377.419312
2.644408 71.123093 377.419312
2.629235 71.326492 375.253845
2.617673 71.621613 373.603638
2.617673 72.230392 373.603638
2.606892 72.539192 372.064941
2.599384 72.934807 370.993408
2.599384 73.539330 370.993408
2.592588 73.950005 370.023407
2.480319 71.324532 354.000000
2.480319 71.901375 354.000000
2.480319 72.478210 354.000000
2.473312 72.848679 353.000000
2.473312 73.423889 353.000000
2.519916 75.393433 359.651459
2.519916 75.979485 359.651459
2.519916 76.565529 359.651459
2.513462 76.953957 358.730225
2.505905 77.305382 357.651703
2.485266 77.246681 354.706085
2.485266 77.824669 354.706085
2.477226 78.149010 353.558533
2.451004 77.891792 349.815979
2.451004 78.461815 349.815979
2.442805 78.767471 348.645813
2.432409 78.997963 347.162109
2.432409 79.563660 347.162109
2.428208 79.990952 346.562469
2.419134 80.254662 345.267487
2.419134 80.817268 345.267487
2.405633 80.925697 343.340546
2.394496 81.107918 341.751007
2.394496 81.664803 341.751007
2.385094 81.898849 340.409180
2.371992 82.000587 338.539154
2.371992 82.552231 338.539154
2.364176 82.830048 337.423645
2.291142 80.804108 327.000000
2.291142 81.336952 327.000000
2.291142 81.869789 327.000000
2.291142 82.402634 327.000000
2.291142 82.935478 327.000000
2.291142 83.468323 327.000000
2.291142 84.001160 327.000000
2.291142 84.534004 327.000000
2.291142 85.066849 327.000000
2.291142 85.599686 327.000000
2.291142 86.132530 327.000000
2.291142 86.665375 327.000000
2.284136 86.931557 326.000000
2.284136 87.462769 326.000000
2.284136 87.993988 326.000000
2.284136 88.525200 326.000000
2.284136 89.056412 326.000000
2.277129 89.312813 325.000000
2.270123 89.565956 324.000000
2.263116 89.815849 323.000000
2.263116 90.342171 323.000000
2.256109 90.587166 322.000000
2.249103 90.828903 321.000000
2.249103 91.351967 321.000000
2.242096 91.588821 320.000000
2.242096 92.110260 320.000000
2.242096 92.631699 320.000000
2.235090 92.862030 319.000000
2.235090 93.381836 319.000000
2.235090 93.901642 319.000000
2.228083 94.125450 318.000000
2.228083 94.643631 318.000000
2.228083 95.161804 318.000000
2.221077 95.379105 317.000000
2.221077 95.895653 317.000000
2.221077 96.412193 317.000000
2.214070 96.622978 316.000000
2.214070 97.137901 316.000000
2.214070 97.652817 316.000000
2.207064 97.857071 315.000000
2.200057 98.058075 314.000000
2.200057 98.569733 314.000000
2.200057 99.081390 314.000000
2.193050 99.275879 313.000000
2.193050 99.785912 313.000000
2.193050 100.295937 313.000000
2.186044 100.483902 312.000000
2.186044 100.992302 312.000000
2.179038 101.175377 311.000000
2.179038 101.682152 311.000000
2.179038 102.188919 311.000000
2.172031 102.365479 310.000000
2.165024 102.538780 309.000000
2.165024 103.042297 309.000000
2.165024 103.545807 309.000000
2.158018 103.712585 308.000000
2.158018 104.214470 308.000000
2.158018 104.716354 308.000000
2.158018 105.218231 308.000000
2.158018 105.720116 308.000000
2.158018 106.222000 308.000000
2.151011 106.377373 307.000000
2.151011 106.877632 307.000000
2.151011 107.377884 307.000000
2.151011 107.878136 307.000000
2.144005 108.025360 306.000000
2.144005 108.523987 306.000000
2.144005 109.022606 306.000000
2.136998 109.163315 305.000000
2.136998 109.660309 305.000000
2.136998 110.157303 305.000000
2.136998 110.654297 305.000000
2.136998 111.151291 305.000000
2.136998 111.648285 305.000000
2.129992 111.777588 304.000000
2.129992 112.272949 304.000000
2.129992 112.768318 304.000000
2.122985 112.891098 303.000000
2.122985 113.384834 303.000000
2.122985 113.878571 303.000000
2.122985 114.372307 303.000000
2.122985 114.866035 303.000000
2.115978 114.979050 302.000000
2.115978 115.471153 302.000000
2.115978 115.963257 302.000000
2.115978 116.455360 302.000000
2.115978 116.947464 302.000000
2.108972 117.050697 301.000000
2.108972 117.541176 301.000000
2.108972 118.031647 301.000000
2.108972 118.522125 301.000000
2.108972 119.012604 301.000000
2.101965 119.106064 300.000000
2.101965 119.594910 300.000000
2.101965 120.083763 300.000000
2.101965 120.572609 300.000000
2.101965 121.061455 300.000000
2.101965 121.550301 300.000000
2.101965 122.039146 300.000000
2.101965 122.527992 300.000000
2.101965 123.016838 300.000000
2.101965 123.505684 300.000000
2.094959 123.581215 299.000000
2.094959 124.068428 299.000000
2.094959 124.555649 299.000000
2.094959 125.042862 299.000000
2.094959 125.530083 299.000000
2.094959 126.017296 299.000000
2.094959 126.504509 299.000000
2.094959 126.991730 299.000000
2.094959 127.478943 299.000000
2.087952 127.538177 298.000000
2.087952 128.023773 298.000000
2.087952 128.509354 298.000000
2.087952 128.994949 298.000000
2.094959 129.915024 299.000000
2.094959 130.402252 299.000000
2.094959 130.889465 299.000000
2.094959 131.376678 299.000000
2.094959 131.863892 299.000000
2.094959 132.351120 299.000000
2.094959 132.838333 299.000000
2.094959 133.325546 299.000000
2.094959 133.812759 299.000000
2.094959 134.299973 299.000000
2.094959 134.787201 299.000000
2.087952 134.821991 298.000000
2.087952 135.307571 298.000000
2.087952 135.793167 298.000000
2.080945 135.821442 297.000000
2.080945 136.305389 297.000000
2.080945 136.789352 297.000000
2.080945 137.273315 297.000000
2.080945 137.757263 297.000000
2.080945 138.241226 297.000000
2.080945 138.725189 297.000000
2.080945 139.209137 297.000000
2.080945 139.693100 297.000000
2.080945 140.177063 297.000000
2.087952 141.134628 298.000000
2.087952 141.620209 298.000000
2.087952 142.105804 298.000000
2.087952 142.591385 298.000000
2.087952 143.076965 298.000000
2.087952 143.562561 298.000000
2.087952 144.048141 298.000000
2.087952 144.533737 298.000000
2.087952 145.019318 298.000000
2.080945 145.016632 297.000000
2.080945 145.500595 297.000000
2.080945 145.984543 297.000000
2.080945 146.468506 297.000000
2.080945 146.952469 297.000000
2.080945 147.436417 297.000000
2.073939 147.422333 296.000000
2.073939 147.904663 296.000000
2.073939 148.386993 296.000000
2.066933 148.366379 295.000000
2.066933 148.847076 295.000000
2.066933 149.327774 295.000000
2.066933 149.808472 295.000000
2.059926 149.779724 294.000000
2.059926 150.258804 294.000000
2.059926 150.737869 294.000000
2.059926 151.216934 294.000000
2.059926 151.695999 294.000000
2.059926 152.175079 294.000000
2.059926 152.654144 294.000000
2.059926 153.133209 294.000000
2.052919 153.089783 293.000000
2.045913 153.043106 292.000000
2.045913 153.518921 292.000000
2.045913 153.994720 292.000000
2.045913 154.470535 292.000000
2.045913 154.946350 292.000000
2.045913 155.422165 292.000000
2.045913 155.897964 292.000000
2.045913 156.373779 292.000000
2.045913 156.849594 292.000000
2.038907 156.786606 291.000000
2.038907 157.260788 291.000000
2.038907 157.734970 291.000000
2.031900 157.665482 290.000000
2.031900 158.138031 290.000000
2.031900 158.610580 290.000000
2.031900 159.083130 290.000000
3.626823 35.346626 420.000000
3.626823 36.031010 420.000000
3.626823 36.715397 420.000000
3.625757 37.388786 419.876556
3.625757 38.072971 419.876556
3.625757 38.757156 419.876556
3.624833 39.431290 419.769562
3.624096 40.107143 419.684265
3.624096 40.791016 419.684265
3.622594 41.457699 419.510315
3.622806 42.143742 419.534790
3.622806 42.827366 419.534790
3.623028 43.513668 419.560547
3.623299 44.200642 419.591949
3.623343 44.884911 419.597076
3.623343 45.568638 419.597076
3.623343 46.252369 419.597076
3.622818 46.929276 419.536133
3.622818 47.612907 419.536133
3.622397 48.290932 419.487427
3.620365 48.947014 419.252167
3.620365 49.630177 419.252167
3.619861 50.306335 419.193756
3.620470 50.997990 419.264313
3.620470 51.681175 419.264313
3.621796 52.383530 419.417816
3.621796 53.066967 419.417816
3.621796 53.750404 419.417816
3.617302 54.366299 418.897400
3.598956 54.769691 416.772858
3.598956 55.448818 416.772858
3.574260 55.742794 413.912994
3.562276 56.228104 412.525177
3.562276 56.900303 412.525177
3.549006 57.358055 410.988556
3.540924 57.895611 410.052582
3.540924 58.563782 410.052582
3.540247 59.220642 409.974243
3.307317 57.820595 383.000000
3.307317 58.444691 383.000000
3.426866 61.203941 396.844269
3.426866 61.850590 396.844269
3.426866 62.497242 396.844269
3.410656 62.845203 394.967041
3.394104 63.180679 393.050232
3.463649 65.128853 401.103882
3.463649 65.782448 401.103882
3.463649 66.436043 401.103882
3.444364 66.716080 398.870544
3.444364 67.366035 398.870544
3.342862 66.011627 387.116241
3.339267 66.570755 386.699860
3.339267 67.200874 386.699860
3.335201 67.748421 386.229095
3.331964 68.311394 385.854156
3.331964 68.940140 385.854156
3.314741 69.209290 383.859741
3.294960 69.418053 381.569061
3.294960 70.039810 381.569061
3.277128 70.279152 379.504028
3.261067 70.550087 377.644104
3.261067 71.165451 377.644104
3.249689 71.530373 376.326477
3.233717 71.789009 374.476837
3.233717 72.399208 374.476837
3.238240 73.111526 375.000580
3.238240 73.722588 375.000580
3.238240 74.333649 375.000580
3.228420 74.717453 373.863464
3.218123 75.086411 372.671051
3.218123 75.693672 372.671051
3.056894 72.478210 354.000000
3.048258 72.848679 353.000000
3.048258 73.423889 353.000000
3.105696 75.393433 359.651459
3.105696 75.979485 359.651459
3.105696 76.565529 359.651459
3.097740 76.953957 358.730225
3.088427 77.305382 357.651703
3.062991 77.246681 354.706085
3.062991 77.824669 354.706085
3.053082 78.149010 353.558533
3.040460 78.399681 352.096924
3.040460 78.973419 352.096924
3.020566 79.026688 349.793182
2.994567 78.911552 346.782379
2.994567 79.476631 346.782379
2.976303 79.553520 344.667297
2.954540 79.529335 342.147034
2.954540 80.086861 342.147034
2.939901 80.244812 340.451782
2.926326 80.426483 338.879761
2.926326 80.978683 338.879761
2.916289 81.251251 337.717468
2.902729 81.421181 336.147095
2.902729 81.968933 336.147095
2.893852 82.264336 335.119141
2.815105 80.557007 326.000000
2.815105 81.088219 326.000000
2.815105 81.619431 326.000000
2.815105 82.150642 326.000000
2.815105 82.681854 326.000000
2.815105 83.213066 326.000000
2.815105 83.744286 326.000000
2.815105 84.275497 326.000000
2.815105 84.806709 326.000000
2.815105 85.337921 326.000000
2.815105 85.869133 326.000000
2.815105 86.400345 326.000000
2.815105 86.931557 326.000000
2.815105 87.462769 326.000000
2.806470 87.724060 325.000000
2.806470 88.253647 325.000000
2.806470 88.783226 325.000000
2.797835 89.038002 324.000000
2.789200 89.289520 323.000000
2.789200 89.815849 323.000000
2.789200 90.342171 323.000000
2.780564 90.587166 322.000000
2.771929 90.828903 321.000000
2.771929 91.351967 321.000000
2.763294 91.588821 320.000000
2.754658 91.822418 319.000000
2.754658 92.342224 319.000000
2.754658 92.862030 319.000000
2.746023 93.089096 318.000000
2.746023 93.607277 318.000000
2.746023 94.125450 318.000000
2.737388 94.346008 317.000000
2.737388 94.862556 317.000000
2.737388 95.379105 317.000000
2.737388 95.895653 317.000000
2.737388 96.412193 317.000000
2.728753 96.622978 316.000000
2.720117 96.830498 315.000000
2.720117 97.343788 315.000000
2.720117 97.857071 315.000000
2.711482 98.058075 314.000000
2.711482 98.569733 314.000000
2.711482 99.081390 314.000000
2.702847 99.275879 313.000000
2.702847 99.785912 313.000000
2.702847 100.295937 313.000000
2.694211 100.483902 312.000000
2.694211 100.992302 312.000000
2.685576 101.175377 311.000000
2.685576 101.682152 311.000000
2.685576 102.188919 311.000000
2.676941 102.365479 310.000000
2.668305 102.538780 309.000000
2.659670 102.708824 308.000000
2.659670 103.210701 308.000000
2.659670 103.712585 308.000000
2.659670 104.214470 308.000000
2.659670 104.716354 308.000000
2.659670 105.218231 308.000000
2.659670 105.720116 308.000000
2.659670 106.222000 308.000000
2.651035 106.377373 307.000000
2.651035 106.877632 307.000000
2.651035 107.377884 307.000000
2.651035 107.878136 307.000000
2.642400 108.025360 306.000000
2.642400 108.523987 306.000000
2.642400 109.022606 306.000000
2.633764 109.163315 305.000000
2.633764 109.660309 305.000000
2.633764 110.157303 305.000000
2.633764 110.654297 305.000000
2.633764 111.151291 305.000000
2.633764 111.648285 305.000000
2.625129 111.777588 304.000000
2.625129 112.272949 304.000000
2.625129 112.768318 304.000000
2.616494 112.891098 303.000000
2.616494 113.384834 303.000000
2.616494 113.878571 303.000000
2.616494 114.372307 303.000000
2.616494 114.866035 303.000000
2.616494 115.359772 303.000000
2.607858 115.471153 302.000000
2.607858 115.963257 302.000000
2.607858 116.455360 302.000000
2.607858 116.947464 302.000000
2.607858 117.439575 302.000000
2.607858 117.931679 302.000000
2.599223 118.031647 301.000000
2.599223 118.522125 301.000000
2.599223 119.012604 301.000000
2.599223 119.503075 301.000000
2.590588 119.594910 300.000000
2.590588 120.083763 300.000000
2.590588 120.572609 300.000000
2.590588 121.061455 300.000000
2.590588 121.550301 300.000000
2.590588 122.039146 300.000000
2.590588 122.527992 300.000000
2.590588 123.016838 300.000000
2.590588 123.505684 300.000000
2.590588 123.994530 300.000000
2.590588 124.483376 300.000000
2.590588 124.972221 300.000000
2.590588 125.461067 300.000000
2.590588 125.949913 300.000000
2.590588 126.438759 300.000000
2.581953 126.504509 299.000000
2.581953 126.991730 299.000000
2.581953 127.478943 299.000000
2.573317 127.538177 298.000000
2.573317 128.023773 298.000000
2.573317 128.509354 298.000000
2.573317 128.994949 298.000000
2.581953 129.915024 299.000000
2.581953 130.402252 299.000000
2.581953 130.889465 299.000000
2.581953 131.376678 299.000000
2.581953 131.863892 299.000000
2.581953 132.351120 299.000000
2.581953 132.838333 299.000000
2.581953 133.325546 299.000000
2.581953 133.812759 299.000000
2.581953 134.299973 299.000000
2.581953 134.787201 299.000000
2.573317 134.821991 298.000000
2.573317 135.307571 298.000000
2.573317 135.793167 298.000000
2.564682 135.821442 297.000000
2.564682 136.305389 297.000000
2.564682 136.789352 297.000000
2.564682 137.273315 297.000000
2.564682 137.757263 297.000000
2.564682 138.241226 297.000000
2.564682 138.725189 297.000000
2.564682 139.209137 297.000000
2.564682 139.693100 297.000000
2.564682 140.177063 297.000000
2.573317 141.134628 298.000000
2.573317 141.620209 298.000000
2.573317 142.105804 298.000000
2.573317 142.591385 298.000000
2.573317 143.076965 298.000000
2.573317 143.562561 298.000000
2.573317 144.048141 298.000000
2.573317 144.533737 298.000000
2.573317 145.019318 298.000000
2.564682 145.016632 297.000000
2.564682 145.500595 297.000000
2.564682 145.984543 297.000000
2.564682 146.468506 297.000000
2.564682 146.952469 297.000000
2.564682 147.436417 297.000000
2.556047 147.422333 296.000000
2.556047 147.904663 296.000000
2.556047 148.386993 296.000000
2.547411 148.366379 295.000000
2.547411 148.847076 295.000000
2.547411 149.327774 295.000000
2.547411 149.808472 295.000000
2.538776 149.779724 294.000000
2.538776 150.258804 294.000000
2.538776 150.737869 294.000000
2.538776 151.216934 294.000000
2.538776 151.695999 294.000000
2.538776 152.175079 294.000000
2.538776 152.654144 294.000000
2.538776 153.133209 294.000000
2.530141 153.089783 293.000000
2.521505 153.043106 292.000000
2.521505 153.518921 292.000000
2.521505 153.994720 292.000000
2.521505 154.470535 292.000000
2.521505 154.946350 292.000000
2.521505 155.422165 292.000000
2.521505 155.897964 292.000000
2.512870 155.838257 291.000000
2.512870 156.312439 291.000000
2.512870 156.786606 291.000000
2.512870 157.260788 291.000000
2.512870 157.734970 291.000000
2.504235 157.665482 290.000000
2.504235 158.138031 290.000000
2.504235 158.610580 290.000000
2.504235 159.083130 290.000000
4.309310 37.386040 419.845703
4.309310 38.070175 419.845703
4.309310 38.754307 419.845703
4.308529 39.431290 419.769562
4.307570 40.106369 419.676117
4.307570 40.790226 419.676117
4.305561 41.454735 419.480347
4.305599 42.138653 419.484100
4.305599 42.822193 419.484100
4.305981 43.509594 419.521271
4.306236 44.195820 419.546143
4.306293 44.880051 419.551636
4.306293 45.563702 419.551636
4.306293 46.247360 419.551636
4.305925 46.927010 419.515869
4.305925 47.610607 419.515869
4.305623 48.290813 419.486420
4.303219 48.947014 419.252167
4.303219 49.630177 419.252167
4.302521 50.305191 419.184204
4.303203 50.996326 419.250671
4.303203 51.679493 419.250671
4.303203 52.362656 419.250671
4.301915 53.029942 419.125183
4.301915 53.712898 419.125183
4.300710 54.380627 419.007782
4.294817 54.987942 418.433624
4.294817 55.669773 418.433624
4.280734 56.166821 417.061493
4.267505 56.670746 415.772675
4.267505 57.348240 415.772675
4.254481 57.848648 414.503784
4.268790 58.720905 415.897858
4.268790 59.398609 415.897858
4.268790 60.076309 415.897858
4.073223 61.203941 396.844269
4.075387 61.883453 397.055115
4.075387 62.530449 397.055115
4.075387 63.177444 397.055115
4.058963 63.567226 395.454956
4.116944 65.128853 401.103882
4.116944 65.782448 401.103882
4.116944 66.436043 401.103882
4.094021 66.716080 398.870544
4.094021 67.366035 398.870544
4.000747 66.466385 389.783112
4.000747 67.101532 389.783112
4.000747 67.736679 389.783112
3.996455 68.298485 389.364990
3.993120 68.875420 389.040039
3.993120 69.509354 389.040039
3.947514 69.342163 384.596680
3.922518 69.525826 382.161469
3.922518 70.148552 382.161469
3.899469 70.355423 379.915863
3.876152 70.550087 377.644104
3.876152 71.165451 377.644104
3.862628 71.530373 376.326477
3.843643 71.789009 374.476837
3.843643 72.399208 374.476837
3.849019 73.111526 375.000580
3.849019 73.722588 375.000580
3.849019 74.333649 375.000580
3.837347 74.717453 373.863464
3.825108 75.086411 372.671051
3.825108 75.693672 372.671051
3.633468 72.478210 354.000000
3.623204 72.848679 353.000000
3.745927 75.910858 364.956635
3.745927 76.505554 364.956635
3.745927 77.100243 364.956635
3.738426 77.539345 364.225769
3.738426 78.132851 364.225769
3.729777 78.544228 363.383179
3.694273 78.383049 359.924103
3.694273 78.969543 359.924103
3.665802 78.942917 357.150269
3.613935 78.399681 352.096924
3.613935 78.973419 352.096924
3.590289 79.026688 349.793182
3.559386 78.911552 346.782379
3.559386 79.476631 346.782379
3.537677 79.553520 344.667297
3.511809 79.529335 342.147034
3.511809 80.086861 342.147034
3.487279 80.081085 339.757141
3.366603 77.844383 328.000000
3.366603 78.378860 328.000000
3.356339 78.672737 327.000000
3.356339 79.205582 327.000000
3.356339 79.738426 327.000000
3.356339 80.271263 327.000000
3.346075 80.557007 326.000000
3.346075 81.088219 326.000000
3.346075 81.619431 326.000000
3.346075 82.150642 326.000000
3.346075 82.681854 326.000000
3.346075 83.213066 326.000000
3.346075 83.744286 326.000000
3.346075 84.275497 326.000000
3.346075 84.806709 326.000000
3.346075 85.337921 326.000000
3.346075 85.869133 326.000000
3.346075 86.400345 326.000000
3.346075 86.931557 326.000000
3.346075 87.462769 326.000000
3.335811 87.724060 325.000000
3.335811 88.253647 325.000000
3.335811 88.783226 325.000000
3.325547 89.038002 324.000000
3.315283 89.289520 323.000000
3.315283 89.815849 323.000000
3.315283 90.342171 323.000000
3.305019 90.587166 322.000000
3.294755 90.828903 321.000000
3.294755 91.351967 321.000000
3.284491 91.588821 320.000000
3.274227 91.822418 319.000000
3.274227 92.342224 319.000000
3.263963 92.570923 318.000000
3.263963 93.089096 318.000000
3.263963 93.607277 318.000000
3.253699 93.829460 317.000000
3.253699 94.346008 317.000000
3.253699 94.862556 317.000000
3.253699 95.379105 317.000000
3.243435 95.593147 316.000000
3.243435 96.108063 316.000000
3.243435 96.622978 316.000000
3.233171 96.830498 315.000000
3.233171 97.343788 315.000000
3.222907 97.546417 314.000000
3.222907 98.058075 314.000000
3.222907 98.569733 314.000000
3.212643 98.765854 313.000000
3.212643 99.275879 313.000000
3.212643 99.785912 313.000000
3.202379 99.975502 312.000000
3.202379 100.483902 312.000000
3.202379 100.992302 312.000000
3.192115 101.175377 311.000000
3.192115 101.682152 311.000000
3.192115 102.188919 311.000000
3.181851 102.365479 310.000000
3.171587 102.538780 309.000000
3.161323 102.708824 308.000000
3.161323 103.210701 308.000000
3.161323 103.712585 308.000000
3.161323 104.214470 308.000000
3.161323 104.716354 308.000000
3.161323 105.218231 308.000000
3.161323 105.720116 308.000000
3.161323 106.222000 308.000000
3.151059 106.377373 307.000000
3.151059 106.877632 307.000000
3.151059 107.377884 307.000000
3.151059 107.878136 307.000000
3.140795 108.025360 306.000000
3.140795 108.523987 306.000000
3.140795 109.022606 306.000000
3.130530 109.163315 305.000000
3.130530 109.660309 305.000000
3.130530 110.157303 305.000000
3.130530 110.654297 305.000000
3.130530 111.151291 305.000000
3.130530 111.648285 305.000000
3.120266 111.777588 304.000000
3.120266 112.272949 304.000000
3.120266 112.768318 304.000000
3.120266 113.263680 304.000000
3.120266 113.759041 304.000000
3.110003 113.878571 303.000000
3.110003 114.372307 303.000000
3.110003 114.866035 303.000000
3.110003 115.359772 303.000000
3.110003 115.853508 303.000000
3.099738 115.963257 302.000000
3.099738 116.455360 302.000000
3.099738 116.947464 302.000000
3.099738 117.439575 302.000000
3.099738 117.931679 302.000000
3.099738 118.423782 302.000000
3.089474 118.522125 301.000000
3.089474 119.012604 301.000000
3.089474 119.503075 301.000000
3.089474 119.993553 301.000000
3.089474 120.484024 301.000000
3.079210 120.572609 300.000000
3.079210 121.061455 300.000000
3.079210 121.550301 300.000000
3.079210 122.039146 300.000000
3.079210 122.527992 300.000000
3.079210 123.016838 300.000000
3.079210 123.505684 300.000000
3.079210 123.994530 300.000000
3.079210 124.483376 300.000000
3.079210 124.972221 300.000000
3.079210 125.461067 300.000000
3.079210 125.949913 300.000000
3.079210 126.438759 300.000000
3.079210 126.927605 300.000000
3.079210 127.416451 300.000000
3.068946 127.478943 299.000000
3.068946 127.966164 299.000000
3.068946 128.453384 299.000000
3.068946 128.940598 299.000000
3.068946 129.427811 299.000000
3.068946 129.915024 299.000000
3.068946 130.402252 299.000000
3.068946 130.889465 299.000000
3.068946 131.376678 299.000000
3.068946 131.863892 299.000000
3.079210 132.793762 300.000000
3.079210 133.282608 300.000000
3.079210 133.771454 300.000000
3.079210 134.260300 300.000000
3.068946 134.299973 299.000000
3.068946 134.787201 299.000000
3.068946 135.274414 299.000000
3.068946 135.761627 299.000000
3.068946 136.248840 299.000000
3.058682 136.278748 298.000000
3.048418 136.305389 297.000000
3.048418 136.789352 297.000000
3.048418 137.273315 297.000000
3.048418 137.757263 297.000000
3.048418 138.241226 297.000000
3.048418 138.725189 297.000000
3.058682 139.677856 298.000000
3.058682 140.163452 298.000000
3.058682 140.649033 298.000000
3.058682 141.134628 298.000000
3.058682 141.620209 298.000000
3.058682 142.105804 298.000000
3.058682 142.591385 298.000000
3.058682 143.076965 298.000000
3.058682 143.562561 298.000000
3.058682 144.048141 298.000000
3.058682 144.533737 298.000000
3.058682 145.019318 298.000000
3.048418 145.016632 297.000000
3.048418 145.500595 297.000000
3.048418 145.984543 297.000000
3.048418 146.468506 297.000000
3.048418 146.952469 297.000000
3.048418 147.436417 297.000000
3.038154 147.422333 296.000000
3.038154 147.904663 296.000000
3.038154 148.386993 296.000000
3.027890 148.366379 295.000000
3.027890 148.847076 295.000000
3.027890 149.327774 295.000000
3.027890 149.808472 295.000000
3.017626 149.779724 294.000000
3.017626 150.258804 294.000000
3.017626 150.737869 294.000000
3.017626 151.216934 294.000000
3.017626 151.695999 294.000000
3.017626 152.175079 294.000000
3.007362 152.134903 293.000000
3.007362 152.612350 293.000000
3.007362 153.089783 293.000000
2.997098 153.043106 292.000000
2.997098 153.518921 292.000000
2.997098 153.994720 292.000000
2.997098 154.470535 292.000000
2.997098 154.946350 292.000000
2.997098 155.422165 292.000000
2.997098 155.897964 292.000000
2.986834 155.838257 291.000000
2.986834 156.312439 291.000000
2.986834 156.786606 291.000000
2.986834 157.260788 291.000000
2.986834 157.734970 291.000000
2.976570 157.665482 290.000000
2.976570 158.138031 290.000000
2.976570 158.610580 290.000000
2.976570 159.083130 290.000000
4.993131 37.386040 419.845703
4.993131 38.070175 419.845703
4.993131 38.754307 419.845703
4.992225 39.431290 419.769562
4.991114 40.106369 419.676117
4.991114 40.790226 419.676117
4.988786 41.454735 419.480347
4.988830 42.138653 419.484100
4.988830 42.822193 419.484100
4.989273 43.509594 419.521271
4.989568 44.195820 419.546143
4.989634 44.880051 419.551636
4.989634 45.563702 419.551636
4.989634 46.247360 419.551636
4.989208 46.927010 419.515869
4.989208 47.610607 419.515869
4.988858 48.290813 419.486420
4.986072 48.947014 419.252167
4.986072 49.630177 419.252167
4.985719 50.309784 419.222473
4.986054 50.996326 419.250671
4.986054 51.679493 419.250671
4.986054 52.362656 419.250671
4.985375 53.038593 419.193573
4.985375 53.721664 419.193573
4.984428 54.394402 419.113953
4.977484 55.000603 418.529999
4.977484 55.682594 418.529999
4.960841 56.176125 417.130615
4.944935 56.673538 415.793182
4.944935 57.351067 415.793182
4.929978 57.853077 414.535522
4.946659 58.726589 415.938110
4.946659 59.404354 415.938110
4.947015 60.086456 415.968109
4.947015 60.764271 415.968109
4.947015 61.442085 415.968109
4.819994 61.185295 405.287537
4.819994 61.845703 405.287537
4.819994 62.506115 405.287537
4.742047 62.145027 398.733429
4.742047 62.794758 398.733429
4.722087 63.177444 397.055115
4.703057 63.567226 395.454956
4.812557 65.706642 404.662231
4.812557 66.366028 404.662231
4.812557 67.025421 404.662231
4.797880 67.478386 403.428101
4.797880 68.135773 403.428101
4.779283 68.526497 401.864319
4.635603 67.101532 389.783112
4.635603 67.736679 389.783112
4.630630 68.298485 389.364990
4.626766 68.875420 389.040039
4.626766 69.509354 389.040039
4.573922 69.342163 384.596680
4.547528 69.565094 382.377319
4.547528 70.188179 382.377319
4.532589 70.578636 381.121216
4.516418 70.945648 379.761444
4.516418 71.564461 379.761444
4.617811 73.803787 388.287048
4.617811 74.436493 388.287048
4.617811 75.069206 388.287048
4.592635 75.289192 386.170135
4.580324 75.714943 385.134979
4.580324 76.342514 385.134979
4.569123 76.781868 384.193207
4.562570 77.296875 383.642090
4.562570 77.922012 383.642090
4.557250 78.455574 383.194824
4.557653 79.086975 383.228699
4.557653 79.711449 383.228699
4.557653 80.335907 383.228699
4.340347 77.100243 364.956635
4.331656 77.539345 364.225769
4.331656 78.132851 364.225769
4.321635 78.544228 363.383179
4.280497 78.383049 359.924103
4.280497 78.969543 359.924103
4.247508 78.942917 357.150269
4.187410 78.399681 352.096924
4.187410 78.973419 352.096924
4.160012 79.026688 349.793182
4.142848 79.268272 348.350006
4.142848 79.835907 348.350006
4.103477 79.639435 345.039520
4.069078 79.529335 342.147034
4.069078 80.086861 342.147034
4.040656 80.081085 339.757141
3.900831 77.844383 328.000000
3.900831 78.378860 328.000000
3.888938 78.672737 327.000000
3.888938 79.205582 327.000000
3.888938 79.738426 327.000000
3.877045 80.025795 326.000000
3.877045 80.557007 326.000000
3.877045 81.088219 326.000000
3.877045 81.619431 326.000000
3.877045 82.150642 326.000000
3.877045 82.681854 326.000000
3.877045 83.213066 326.000000
3.877045 83.744286 326.000000
3.877045 84.275497 326.000000
3.865152 84.546562 325.000000
3.865152 85.076149 325.000000
3.865152 85.605728 325.000000
3.865152 86.135315 325.000000
3.865152 86.664894 325.000000
3.865152 87.194481 325.000000
3.853259 87.454140 324.000000
3.853259 87.982094 324.000000
3.853259 88.510048 324.000000
3.841367 88.763199 323.000000
3.841367 89.289520 323.000000
3.841367 89.815849 323.000000
3.841367 90.342171 323.000000
3.829474 90.587166 322.000000
3.817581 90.828903 321.000000
3.817581 91.351967 321.000000
3.805688 91.588821 320.000000
3.793796 91.822418 319.000000
3.793796 92.342224 319.000000
3.781903 92.570923 318.000000
3.781903 93.089096 318.000000
3.781903 93.607277 318.000000
3.770010 93.829460 317.000000
3.770010 94.346008 317.000000
3.770010 94.862556 317.000000
3.770010 95.379105 317.000000
3.758117 95.593147 316.000000
3.758117 96.108063 316.000000
3.746224 96.317207 315.000000
3.734331 96.523094 314.000000
3.734331 97.034760 314.000000
3.734331 97.546417 314.000000
3.734331 98.058075 314.000000
3.734331 98.569733 314.000000
3.722439 98.765854 313.000000
3.722439 99.275879 313.000000
3.722439 99.785912 313.000000
3.710546 99.975502 312.000000
3.710546 100.483902 312.000000
3.710546 100.992302 312.000000
3.698653 101.175377 311.000000
3.686761 101.355194 310.000000
3.686761 101.860336 310.000000
3.686761 102.365479 310.000000
3.674868 102.538780 309.000000
3.662975 102.708824 308.000000
3.662975 103.210701 308.000000
3.662975 103.712585 308.000000
3.662975 104.214470 308.000000
3.662975 104.716354 308.000000
3.662975 105.218231 308.000000
3.651082 105.376869 307.000000
3.651082 105.877121 307.000000
3.651082 106.377373 307.000000
3.651082 106.877632 307.000000
3.651082 107.377884 307.000000
3.639189 107.526741 306.000000
3.639189 108.025360 306.000000
3.639189 108.523987 306.000000
3.639189 109.022606 306.000000
3.627296 109.163315 305.000000
3.627296 109.660309 305.000000
3.627296 110.157303 305.000000
3.627296 110.654297 305.000000
3.627296 111.151291 305.000000
3.627296 111.648285 305.000000
3.615404 111.777588 304.000000
3.615404 112.272949 304.000000
3.615404 112.768318 304.000000
3.615404 113.263680 304.000000
3.615404 113.759041 304.000000
3.603511 113.878571 303.000000
3.603511 114.372307 303.000000
3.603511 114.866035 303.000000
3.603511 115.359772 303.000000
3.603511 115.853508 303.000000
3.591619 115.963257 302.000000
3.591619 116.455360 302.000000
3.591619 116.947464 302.000000
3.591619 117.439575 302.000000
3.591619 117.931679 302.000000
3.591619 118.423782 302.000000
3.579726 118.522125 301.000000
3.579726 119.012604 301.000000
3.579726 119.503075 301.000000
3.579726 119.993553 301.000000
3.579726 120.484024 301.000000
3.567833 120.572609 300.000000
3.567833 121.061455 300.000000
3.567833 121.550301 300.000000
3.567833 122.039146 300.000000
3.567833 122.527992 300.000000
3.567833 123.016838 300.000000
3.567833 123.505684 300.000000
3.567833 123.994530 300.000000
3.567833 124.483376 300.000000
3.567833 124.972221 300.000000
3.567833 125.461067 300.000000
3.567833 125.949913 300.000000
3.567833 126.438759 300.000000
3.567833 126.927605 300.000000
3.567833 127.416451 300.000000
3.555940 127.478943 299.000000
3.555940 127.966164 299.000000
3.555940 128.453384 299.000000
3.555940 128.940598 299.000000
3.555940 129.427811 299.000000
3.555940 129.915024 299.000000
3.555940 130.402252 299.000000
3.555940 130.889465 299.000000
3.555940 131.376678 299.000000
3.555940 131.863892 299.000000
3.567833 132.793762 300.000000
3.567833 133.282608 300.000000
3.567833 133.771454 300.000000
3.567833 134.260300 300.000000
3.555940 134.299973 299.000000
3.555940 134.787201 299.000000
3.555940 135.274414 299.000000
3.555940 135.761627 299.000000
3.555940 136.248840 299.000000
3.555940 136.736069 299.000000
3.544047 136.764343 298.000000
3.544047 137.249924 298.000000
3.544047 137.735519 298.000000
3.544047 138.221100 298.000000
3.544047 138.706680 298.000000
3.544047 139.192276 298.000000
3.544047 139.677856 298.000000
3.544047 140.163452 298.000000
3.544047 140.649033 298.000000
3.544047 141.134628 298.000000
3.544047 141.620209 298.000000
3.544047 142.105804 298.000000
3.544047 142.591385 298.000000
3.544047 143.076965 298.000000
3.544047 143.562561 298.000000
3.544047 144.048141 298.000000
3.544047 144.533737 298.000000
3.544047 145.019318 298.000000
3.532154 145.016632 297.000000
3.532154 145.500595 297.000000
3.532154 145.984543 297.000000
3.532154 146.468506 297.000000
3.532154 146.952469 297.000000
3.532154 147.436417 297.000000
3.520262 147.422333 296.000000
3.520262 147.904663 296.000000
3.520262 148.386993 296.000000
3.508369 148.366379 295.000000
3.508369 148.847076 295.000000
3.508369 149.327774 295.000000
3.508369 149.808472 295.000000
3.508369 150.289169 295.000000
3.508369 150.769867 295.000000
3.496476 150.737869 294.000000
3.496476 151.216934 294.000000
3.496476 151.695999 294.000000
3.496476 152.175079 294.000000
3.484583 152.134903 293.000000
3.484583 152.612350 293.000000
3.484583 153.089783 293.000000
3.472691 153.043106 292.000000
3.472691 153.518921 292.000000
3.472691 153.994720 292.000000
3.472691 154.470535 292.000000
3.472691 154.946350 292.000000
3.472691 155.422165 292.000000
3.472691 155.897964 292.000000
3.460798 155.838257 291.000000
3.460798 156.312439 291.000000
3.460798 156.786606 291.000000
3.448905 156.720383 290.000000
3.448905 157.192932 290.000000
3.448905 157.665482 290.000000
3.448905 158.138031 290.000000
3.448905 158.610580 290.000000
3.448905 159.083130 290.000000
5.675664 38.061543 419.750519
5.675664 38.745522 419.750519
5.675664 39.429501 419.750519
5.674245 40.103451 419.645569
5.674245 40.787254 419.645569
5.671271 41.449329 419.425659
5.671283 42.132866 419.426514
5.671283 42.816315 419.426514
5.672038 43.505558 419.482361
5.672361 44.191616 419.506256
5.672440 44.875820 419.512085
5.672440 45.559410 419.512085
5.672440 46.243000 419.512085
5.671926 46.922340 419.474091
5.671926 47.605869 419.474091
5.671505 48.285805 419.442932
5.668863 48.946476 419.247559
5.668863 49.629635 419.247559
5.668524 50.309784 419.222473
5.668669 50.994202 419.233185
5.668669 51.677338 419.233185
5.668669 52.360474 419.233185
5.668133 53.038593 419.193573
5.668133 53.721664 419.193573
5.667057 54.394402 419.113953
5.659161 55.000603 418.529999
5.659161 55.682594 418.529999
5.640239 56.176125 417.130615
5.622155 56.673538 415.793182
5.622155 57.351067 415.793182
5.605149 57.853077 414.535522
5.624114 58.726589 415.938110
5.624114 59.404354 415.938110
5.624520 60.086456 415.968109
5.624520 60.764271 415.968109
5.624520 61.442085 415.968109
5.505911 61.473450 407.196259
5.505911 62.136967 407.196259
5.505911 62.800495 407.196259
5.420938 62.484577 400.912018
5.410935 63.021339 400.172180
5.410935 63.673416 400.172180
5.390995 64.088440 398.697449
5.471648 65.706642 404.662231
5.471648 66.366028 404.662231
5.471648 67.025421 404.662231
5.454960 67.478386 403.428101
5.454960 68.135773 403.428101
5.433815 68.526497 401.864319
5.334950 67.922600 394.552582
5.334950 68.565521 394.552582
5.269394 68.358017 389.704376
5.260412 68.875420 389.040039
5.260412 69.509354 389.040039
5.200331 69.342163 384.596680
5.170321 69.565094 382.377319
5.170321 70.188179 382.377319
5.153337 70.578636 381.121216
5.134951 70.945648 379.761444
5.134951 71.564461 379.761444
5.250230 73.803787 388.287048
5.250230 74.436493 388.287048
5.250230 75.069206 388.287048
5.221606 75.289192 386.170135
5.207609 75.714943 385.134979
5.207609 76.342514 385.134979
5.194875 76.781868 384.193207
5.187423 77.296875 383.642090
5.187423 77.922012 383.642090
5.181376 78.455574 383.194824
5.181833 79.086975 383.228699
5.181833 79.711449 383.228699
5.181833 80.335907 383.228699
4.934768 77.100243 364.956635
4.924885 77.539345 364.225769
4.924885 78.132851 364.225769
4.913492 78.544228 363.383179
4.866720 78.383049 359.924103
4.866720 78.969543 359.924103
4.829214 78.942917 357.150269
4.749602 78.213890 351.262512
4.749602 78.786270 351.262512
4.749602 79.358643 351.262512
4.710221 79.268272 348.350006
4.710221 79.835907 348.350006
4.669554 79.709351 345.342438
4.589077 78.888641 339.390656
4.589077 79.441673 339.390656
4.566674 79.604195 337.733856
4.421536 77.607056 327.000000
4.421536 78.139893 327.000000
4.421536 78.672737 327.000000
4.408015 78.963364 326.000000
4.408015 79.494576 326.000000
4.408015 80.025795 326.000000
4.408015 80.557007 326.000000
4.408015 81.088219 326.000000
4.408015 81.619431 326.000000
4.394493 81.898643 325.000000
4.394493 82.428230 325.000000
4.394493 82.957809 325.000000
4.380971 83.230507 324.000000
4.380971 83.758461 324.000000
4.380971 84.286415 324.000000
4.380971 84.814369 324.000000
4.380971 85.342323 324.000000
4.380971 85.870277 324.000000
4.380971 86.398232 324.000000
4.380971 86.926186 324.000000
4.380971 87.454140 324.000000
4.367450 87.710548 323.000000
4.367450 88.236877 323.000000
4.367450 88.763199 323.000000
4.367450 89.289520 323.000000
4.353929 89.537781 322.000000
4.353929 90.062469 322.000000
4.340407 90.305840 321.000000
4.326886 90.545952 320.000000
4.326886 91.067390 320.000000
4.313364 91.302605 319.000000
4.299843 91.534569 318.000000
4.299843 92.052742 318.000000
4.299843 92.570923 318.000000
4.286321 92.796364 317.000000
4.286321 93.312912 317.000000
4.286321 93.829460 317.000000
4.286321 94.346008 317.000000
4.286321 94.862556 317.000000
4.272799 95.078224 316.000000
4.272799 95.593147 316.000000
4.272799 96.108063 316.000000
4.259278 96.317207 315.000000
4.245756 96.523094 314.000000
4.245756 97.034760 314.000000
4.245756 97.546417 314.000000
4.245756 98.058075 314.000000
4.245756 98.569733 314.000000
4.232235 98.765854 313.000000
4.232235 99.275879 313.000000
4.232235 99.785912 313.000000
4.218713 99.975502 312.000000
4.218713 100.483902 312.000000
4.218713 100.992302 312.000000
4.205192 101.175377 311.000000
4.191670 101.355194 310.000000
4.191670 101.860336 310.000000
4.191670 102.365479 310.000000
4.178149 102.538780 309.000000
4.164628 102.708824 308.000000
4.164628 103.210701 308.000000
4.164628 103.712585 308.000000
4.164628 104.214470 308.000000
4.164628 104.716354 308.000000
4.164628 105.218231 308.000000
4.151106 105.376869 307.000000
4.151106 105.877121 307.000000
4.151106 106.377373 307.000000
4.151106 106.877632 307.000000
4.151106 107.377884 307.000000
4.137584 107.526741 306.000000
4.137584 108.025360 306.000000
4.137584 108.523987 306.000000
4.137584 109.022606 306.000000
4.124063 109.163315 305.000000
4.124063 109.660309 305.000000
4.124063 110.157303 305.000000
4.124063 110.654297 305.000000
4.124063 111.151291 305.000000
4.124063 111.648285 305.000000
4.110541 111.777588 304.000000
4.110541 112.272949 304.000000
4.110541 112.768318 304.000000
4.110541 113.263680 304.000000
4.110541 113.759041 304.000000
4.110541 114.254410 304.000000
4.097020 114.372307 303.000000
4.097020 114.866035 303.000000
4.097020 115.359772 303.000000
4.097020 115.853508 303.000000
4.097020 116.347244 303.000000
4.097020 116.840981 303.000000
4.083498 116.947464 302.000000
4.083498 117.439575 302.000000
4.083498 117.931679 302.000000
4.083498 118.423782 302.000000
4.083498 118.915886 302.000000
4.083498 119.407990 302.000000
4.069977 119.503075 301.000000
4.069977 119.993553 301.000000
4.069977 120.484024 301.000000
4.069977 120.974503 301.000000
4.069977 121.464981 301.000000
4.069977 121.955452 301.000000
4.056455 122.039146 300.000000
4.056455 122.527992 300.000000
4.056455 123.016838 300.000000
4.056455 123.505684 300.000000
4.056455 123.994530 300.000000
4.056455 124.483376 300.000000
4.056455 124.972221 300.000000
4.056455 125.461067 300.000000
4.056455 125.949913 300.000000
4.056455 126.438759 300.000000
4.056455 126.927605 300.000000
4.056455 127.416451 300.000000
4.056455 127.905296 300.000000
4.042934 127.966164 299.000000
4.042934 128.453384 299.000000
4.042934 128.940598 299.000000
4.042934 129.427811 299.000000
4.042934 129.915024 299.000000
4.042934 130.402252 299.000000
4.042934 130.889465 299.000000
4.056455 131.816071 300.000000
4.056455 132.304916 300.000000
4.056455 132.793762 300.000000
4.056455 133.282608 300.000000
4.056455 133.771454 300.000000
4.056455 134.260300 300.000000
4.056455 134.749146 300.000000
4.056455 135.237991 300.000000
4.056455 135.726837 300.000000
4.042934 135.761627 299.000000
4.042934 136.248840 299.000000
4.042934 136.736069 299.000000
4.029412 136.764343 298.000000
4.029412 137.249924 298.000000
4.029412 137.735519 298.000000
4.029412 138.221100 298.000000
4.029412 138.706680 298.000000
4.029412 139.192276 298.000000
4.029412 139.677856 298.000000
4.029412 140.163452 298.000000
4.029412 140.649033 298.000000
4.029412 141.134628 298.000000
4.029412 141.620209 298.000000
4.029412 142.105804 298.000000
4.029412 142.591385 298.000000
4.029412 143.076965 298.000000
4.029412 143.562561 298.000000
4.029412 144.048141 298.000000
4.029412 144.533737 298.000000
4.029412 145.019318 298.000000
4.015891 145.016632 297.000000
4.015891 145.500595 297.000000
4.015891 145.984543 297.000000
4.015891 146.468506 297.000000
4.015891 146.952469 297.000000
4.015891 147.436417 297.000000
4.002369 147.422333 296.000000
4.002369 147.904663 296.000000
4.002369 148.386993 296.000000
3.988848 148.366379 295.000000
3.988848 148.847076 295.000000
3.988848 149.327774 295.000000
3.988848 149.808472 295.000000
3.988848 150.289169 295.000000
3.988848 150.769867 295.000000
3.975326 150.737869 294.000000
3.975326 151.216934 294.000000
3.975326 151.695999 294.000000
3.975326 152.175079 294.000000
3.961804 152.134903 293.000000
3.961804 152.612350 293.000000
3.961804 153.089783 293.000000
3.948283 153.043106 292.000000
3.948283 153.518921 292.000000
3.948283 153.994720 292.000000
3.948283 154.470535 292.000000
3.948283 154.946350 292.000000
3.948283 155.422165 292.000000
3.948283 155.897964 292.000000
3.934762 155.838257 291.000000
3.934762 156.312439 291.000000
3.934762 156.786606 291.000000
3.921240 156.720383 290.000000
3.921240 157.192932 290.000000
3.921240 157.665482 290.000000
3.921240 158.138031 290.000000
3.921240 158.610580 290.000000
3.921240 159.083130 290.000000
6.359329 38.061543 419.750519
6.359329 38.745522 419.750519
6.359329 39.429501 419.750519
6.357673 40.103031 419.641205
6.357673 40.786831 419.641205
6.354681 41.451115 419.443726
6.354695 42.134689 419.444672
6.354695 42.818169 419.444672
6.355100 43.504417 419.471344
6.355207 44.188686 419.478455
6.355356 44.873276 419.488281
6.355356 45.556824 419.488281
6.355356 46.240376 419.488281
6.355162 46.922497 419.475494
6.355162 47.606026 419.475494
6.355014 48.288429 419.465698
6.352760 48.954578 419.316956
6.352760 49.637848 419.316956
6.352181 50.316525 419.278687
6.352370 51.001259 419.291199
6.352370 51.684486 419.291199
6.352370 52.367718 419.291199
6.351906 53.047077 419.260590
6.351906 53.730259 419.260590
6.353282 54.425217 419.351379
6.353282 55.108543 419.351379
6.353282 55.791870 419.351379
6.353090 56.473492 419.338684
6.302731 56.703735 416.014709
6.302731 57.381626 416.014709
6.283808 57.885201 414.765717
6.305979 58.767677 416.229126
6.305979 59.445919 416.229126
6.307477 60.138439 416.327972
6.324466 60.980648 417.449341
6.324466 61.660877 417.449341
6.324466 62.341106 417.449341
6.321675 62.993530 417.265167
6.321675 63.673458 417.265167
6.169129 62.800495 407.196259
6.073921 62.484577 400.912018
6.062712 63.021339 400.172180
6.062712 63.673416 400.172180
6.217272 65.965378 410.373993
6.217272 66.634079 410.373993
6.217272 67.302780 410.373993
6.210681 67.899414 409.938934
6.203368 68.486671 409.456238
6.203368 69.153870 409.456238
6.088348 68.526497 401.864319
5.977574 67.922600 394.552582
5.977574 68.565521 394.552582
5.904122 68.358017 389.704376
5.880037 68.711594 388.114655
5.880037 69.344017 388.114655
5.812094 69.167877 383.630005
5.793115 69.565094 382.377319
5.793115 70.188179 382.377319
5.774085 70.578636 381.121216
5.885405 72.572342 388.468933
5.885405 73.205353 388.468933
5.885405 73.838356 388.468933
5.882649 74.436493 388.287048
5.882649 75.069206 388.287048
5.850578 75.289192 386.170135
5.834895 75.714943 385.134979
5.834895 76.342514 385.134979
5.820626 76.781868 384.193207
5.812277 77.296875 383.642090
5.812277 77.922012 383.642090
5.805501 78.455574 383.194824
5.806014 79.086975 383.228699
5.806014 79.711449 383.228699
5.806014 80.335907 383.228699
5.492516 76.588882 362.536102
5.545335 77.921837 366.022461
5.545335 78.518265 366.022461
5.545335 79.114700 366.022461
5.481961 78.800163 361.839447
5.481961 79.389778 361.839447
5.423806 79.130928 358.000885
5.370737 78.934319 354.498016
5.370737 79.511978 354.498016
5.321718 79.358643 351.262512
5.277593 79.268272 348.350006
5.277593 79.835907 348.350006
5.232027 79.709351 345.342438
4.954135 76.008530 327.000000
4.954135 76.541367 327.000000
4.954135 77.074211 327.000000
4.954135 77.607056 327.000000
4.954135 78.139893 327.000000
4.954135 78.672737 327.000000
4.938984 78.963364 326.000000
4.938984 79.494576 326.000000
4.938984 80.025795 326.000000
4.938984 80.557007 326.000000
4.938984 81.088219 326.000000
4.938984 81.619431 326.000000
4.923834 81.898643 325.000000
4.923834 82.428230 325.000000
4.923834 82.957809 325.000000
4.908684 83.230507 324.000000
4.908684 83.758461 324.000000
4.908684 84.286415 324.000000
4.908684 84.814369 324.000000
4.908684 85.342323 324.000000
4.908684 85.870277 324.000000
4.908684 86.398232 324.000000
4.908684 86.926186 324.000000
4.908684 87.454140 324.000000
4.893534 87.710548 323.000000
4.893534 88.236877 323.000000
4.893534 88.763199 323.000000
4.878383 89.013084 322.000000
4.878383 89.537781 322.000000
4.878383 90.062469 322.000000
4.863233 90.305840 321.000000
4.848083 90.545952 320.000000
4.848083 91.067390 320.000000
4.832932 91.302605 319.000000
4.817782 91.534569 318.000000
4.817782 92.052742 318.000000
4.802632 92.279816 317.000000
4.802632 92.796364 317.000000
4.802632 93.312912 317.000000
4.802632 93.829460 317.000000
4.787482 94.048393 316.000000
4.787482 94.563309 316.000000
4.787482 95.078224 316.000000
4.772332 95.290634 315.000000
4.772332 95.803917 315.000000
4.772332 96.317207 315.000000
4.757181 96.523094 314.000000
4.757181 97.034760 314.000000
4.757181 97.546417 314.000000
4.757181 98.058075 314.000000
4.757181 98.569733 314.000000
4.742031 98.765854 313.000000
4.726881 98.958702 312.000000
4.726881 99.467102 312.000000
4.726881 99.975502 312.000000
4.711730 100.161835 311.000000
4.711730 100.668610 311.000000
4.711730 101.175377 311.000000
4.696580 101.355194 310.000000
4.696580 101.860336 310.000000
4.696580 102.365479 310.000000
4.681430 102.538780 309.000000
