-23.398443 102.219299 295.000000
-23.398443 102.699997 295.000000
-23.398443 103.180702 295.000000
-23.319126 103.309998 294.000000
-23.319126 103.789070 294.000000
-23.319126 104.268143 294.000000
-23.239809 104.390923 293.000000
-23.160492 104.510452 292.000000
-23.160492 104.986267 292.000000
-23.160492 105.462074 292.000000
-23.160492 105.937889 292.000000
-23.160492 106.413696 292.000000
-23.081175 106.523445 291.000000
-23.081175 106.997627 291.000000
-23.081175 107.471809 291.000000
-23.081175 107.945992 291.000000
-23.001858 108.047592 290.000000
-23.001858 108.520142 290.000000
-23.001858 108.992691 290.000000
-23.001858 109.465240 290.000000
-23.001858 109.937798 290.000000
-23.051857 116.806862 290.630371
-23.051857 117.280441 290.630371
-23.051857 117.754028 290.630371
-23.051846 118.227547 290.630219
-23.051424 118.698952 290.624908
-23.051424 119.172516 290.624908
-23.050625 119.641937 290.614838
-23.051876 120.122017 290.630615
-23.051876 120.595596 290.630615
-23.052242 121.071091 290.635223
-23.052242 121.544685 290.635223
-23.052242 122.018265 290.635223
-23.054356 122.503075 290.661865
-23.054356 122.976707 290.661865
-23.054356 123.450340 290.661865
-23.053551 123.919647 290.651733
-23.053398 124.392441 290.649811
-23.053398 124.866051 290.649811
-23.053398 125.339661 290.649811
-23.041515 137.109222 290.500000
-23.041515 137.582581 290.500000
-23.041515 138.055954 290.500000
-23.041515 138.529312 290.500000
-23.049448 139.997589 290.600006
-23.077785 140.643814 290.957275
-23.077785 141.117920 290.957275
-23.090666 141.671051 291.119659
-23.091852 142.152740 291.134613
-23.091852 142.627136 291.134613
-23.091852 143.101532 291.134613
-23.083570 143.524445 291.030212
-23.083570 143.998672 291.030212
-23.073656 144.410858 290.905212
-23.073656 144.884888 290.905212
-23.062204 145.286758 290.760834
-23.062204 145.760559 290.760834
-32.784340 74.022987 422.000000
-32.784340 74.710632 422.000000
-32.784340 75.398277 422.000000
-32.706650 75.905617 421.000000
-32.706650 76.591637 421.000000
-32.706650 77.277649 421.000000
-32.551273 77.593292 419.000000
-32.395897 77.902412 417.000000
-32.395897 78.581909 417.000000
-32.318211 79.071335 416.000000
-32.318211 79.749199 416.000000
-32.318211 80.427063 416.000000
-32.162834 80.715004 414.000000
-31.075205 84.503456 400.000000
-31.152893 85.368141 401.000000
-31.152893 86.021568 401.000000
-31.152893 86.674988 401.000000
-31.075205 87.110634 400.000000
-31.075205 87.762436 400.000000
-30.764454 87.530090 396.000000
-30.764454 88.175369 396.000000
-30.764454 88.820641 396.000000
-30.686764 89.239998 395.000000
-30.531387 89.428535 393.000000
-30.531387 90.068924 393.000000
-30.376011 90.247688 391.000000
-30.058784 89.935677 386.916656
-30.058784 90.566147 386.916656
-29.942715 90.844482 385.422607
-29.848410 91.184425 384.208710
-29.848410 91.810486 384.208710
-29.688463 91.941216 382.149872
-29.527681 92.062637 380.080292
-29.527681 92.681969 380.080292
-29.372305 92.810349 378.080292
-28.977629 92.171051 373.000000
-28.977629 92.778847 373.000000
-28.744562 92.635551 370.000000
-28.589186 92.734467 368.000000
-28.589186 93.334122 368.000000
-28.511499 93.678513 367.000000
-28.511499 94.276535 367.000000
-28.511499 94.874557 367.000000
-28.433813 95.212433 366.000000
-28.356123 95.547050 365.000000
-28.278437 95.878418 364.000000
-28.278437 96.471550 364.000000
-28.123060 96.531357 362.000000
-27.967684 96.584656 360.000000
-27.967684 97.171272 360.000000
-27.889996 97.486336 359.000000
-27.889996 98.071320 359.000000
-27.889996 98.656303 359.000000
-27.812307 98.964859 358.000000
-27.734619 99.270149 357.000000
-27.734619 99.851875 357.000000
-27.734619 100.433601 357.000000
-27.656933 100.732368 356.000000
-27.656933 101.312469 356.000000
-27.579243 101.606346 355.000000
-26.385838 97.763092 339.638489
-26.385838 98.316528 339.638489
-26.181978 98.106079 337.014404
-25.894587 97.572334 333.315094
-25.894587 98.115463 333.315094
-25.749256 98.104889 331.444397
-25.418663 97.378471 327.188995
-25.418663 97.911621 327.188995
-24.519482 94.962311 315.614746
-24.097408 93.833084 310.181824
-24.097408 94.338524 310.181824
-24.256588 95.470467 312.230774
-24.256588 95.979240 312.230774
-24.256588 96.488022 312.230774
-24.232683 96.901199 311.923065
-23.539467 94.622917 303.000000
-23.539467 95.116653 303.000000
-23.539467 95.610390 303.000000
-23.461779 95.786949 302.000000
-23.461779 96.279053 302.000000
-23.461779 96.771164 302.000000
-23.384090 96.941200 301.000000
-23.384090 97.431679 301.000000
-23.384090 97.922150 301.000000
-23.306402 98.085670 300.000000
-23.306402 98.574516 300.000000
-23.306402 99.063370 300.000000
-23.228714 99.220375 299.000000
-23.228714 99.707596 299.000000
-23.151026 99.859711 298.000000
-23.073338 100.008568 297.000000
-23.073338 100.492523 297.000000
-23.073338 100.976479 297.000000
-22.995651 101.118820 296.000000
-22.917963 101.257904 295.000000
-22.917963 101.738602 295.000000
-22.917963 102.219299 295.000000
-22.917963 102.699997 295.000000
-22.917963 103.180702 295.000000
-22.917963 103.661400 295.000000
-22.840275 103.789070 294.000000
-22.840275 104.268143 294.000000
-22.840275 104.747208 294.000000
-22.762587 104.868362 293.000000
-22.762587 105.345802 293.000000
-22.684900 105.462074 292.000000
-22.684900 105.937889 292.000000
-22.684900 106.413696 292.000000
-22.684900 106.889511 292.000000
-22.607212 106.997627 291.000000
-22.607212 107.471809 291.000000
-22.607212 107.945992 291.000000
-22.607212 108.420166 291.000000
-22.607212 108.894348 291.000000
-22.529524 108.992691 290.000000
-22.529524 109.465240 290.000000
-22.529524 109.937798 290.000000
-22.529524 110.410347 290.000000
-22.578484 117.280380 290.630219
-22.578484 117.753960 290.630219
-22.578484 118.227547 290.630219
-22.578070 118.698952 290.624908
-22.578070 119.172516 290.624908
-22.577288 119.641937 290.614838
-22.578514 120.122017 290.630615
-22.578514 120.595596 290.630615
-22.578873 121.071091 290.635223
-22.578873 121.544685 290.635223
-22.578873 122.018265 290.635223
-22.580650 122.501495 290.658112
-22.580650 122.975121 290.658112
-22.580650 123.448753 290.658112
-22.579937 123.918449 290.648926
-22.580006 124.392441 290.649811
-22.580006 124.866051 290.649811
-22.580006 125.339661 290.649811
-22.568367 137.109222 290.500000
-22.568367 137.582581 290.500000
-22.568367 138.055954 290.500000
-22.568367 138.529312 290.500000
-22.561430 138.959946 290.410706
-22.561430 139.433167 290.410706
-22.576136 139.997589 290.600006
-22.590059 140.557739 290.779236
-22.590059 141.031570 290.779236
-22.598267 141.556808 290.884888
-22.603317 142.062546 290.949890
-22.603317 142.536636 290.949890
-22.603317 143.010742 290.949890
-22.594810 143.430832 290.840393
-22.594810 143.904770 290.840393
-22.593470 144.370117 290.823120
-22.588631 144.812973 290.760834
-22.588631 145.286758 290.760834
-22.588631 145.760559 290.760834
-22.574821 146.144943 290.583069
-30.423710 84.503456 400.000000
-30.499767 85.368141 401.000000
-30.499767 86.021568 401.000000
-30.499767 86.674988 401.000000
-30.423710 87.110634 400.000000
-30.423710 87.762436 400.000000
-30.119471 87.530090 396.000000
-30.119471 88.175369 396.000000
-30.119471 88.820641 396.000000
-30.043411 89.239998 395.000000
-29.891293 89.428535 393.000000
-29.891293 90.068924 393.000000
-29.494093 89.503952 387.777771
-29.350426 89.696777 385.888885
-29.350426 90.325577 385.888885
-29.239912 90.611908 384.435883
-29.146433 90.946655 383.206848
-29.146433 91.571083 383.206848
-29.064972 91.937843 382.135834
-28.908630 92.062637 380.080292
-28.908630 92.681969 380.080292
-28.756510 92.810349 378.080292
-28.370108 92.171051 373.000000
-28.370108 92.778847 373.000000
-28.294046 93.136276 372.000000
-28.065870 92.986458 369.000000
-28.065870 93.587738 369.000000
-27.913752 93.678513 367.000000
-27.913752 94.276535 367.000000
-27.913752 94.874557 367.000000
-27.837694 95.212433 366.000000
-27.761633 95.547050 365.000000
-27.685575 95.878418 364.000000
-27.685575 96.471550 364.000000
-27.533457 96.531357 362.000000
-27.457396 96.852951 361.000000
-27.457396 97.441193 361.000000
-27.305277 97.486336 359.000000
-27.305277 98.071320 359.000000
-27.305277 98.656303 359.000000
-27.229219 98.964859 358.000000
-27.153158 99.270149 357.000000
-27.153158 99.851875 357.000000
-27.153158 100.433601 357.000000
-27.077101 100.732368 356.000000
-27.077101 101.312469 356.000000
-27.001040 101.606346 355.000000
-25.832655 97.763092 339.638489
-25.832655 98.316528 339.638489
-25.633070 98.106079 337.014404
-25.619663 98.603653 336.838165
-25.619663 99.152527 336.838165
-25.471855 99.126175 334.894806
-24.885756 97.378471 327.188995
-24.885756 97.911621 327.188995
-24.266203 95.993904 319.043335
-23.867186 94.926781 313.797211
-23.867186 95.438110 313.797211
-23.821667 95.766434 313.198730
-23.748045 95.979240 312.230774
-23.748045 96.488022 312.230774
-23.724642 96.901199 311.923065
-23.045958 94.622917 303.000000
-23.045958 95.116653 303.000000
-23.045958 95.610390 303.000000
-23.045958 96.104118 303.000000
-23.045958 96.597855 303.000000
-22.969898 96.771164 302.000000
-22.969898 97.263268 302.000000
-22.969898 97.755371 302.000000
-22.969898 98.247475 302.000000
-22.893839 98.412628 301.000000
-22.893839 98.903107 301.000000
-22.817780 99.063370 300.000000
-22.817780 99.552216 300.000000
-22.817780 100.041061 300.000000
-22.665661 99.859711 298.000000
-22.589602 100.008568 297.000000
-22.589602 100.492523 297.000000
-22.589602 100.976479 297.000000
-22.589602 101.460434 297.000000
-22.513544 101.601143 296.000000
-22.513544 102.083473 296.000000
-22.513544 102.565804 296.000000
-22.437485 102.699997 295.000000
-22.437485 103.180702 295.000000
-22.437485 103.661400 295.000000
-22.361425 103.789070 294.000000
-22.361425 104.268143 294.000000
-22.361425 104.747208 294.000000
-22.285366 104.868362 293.000000
-22.285366 105.345802 293.000000
-22.209307 105.462074 292.000000
-22.209307 105.937889 292.000000
-22.209307 106.413696 292.000000
-22.209307 106.889511 292.000000
-22.133247 106.997627 291.000000
-22.133247 107.471809 291.000000
-22.133247 107.945992 291.000000
-22.133247 108.420166 291.000000
-22.133247 108.894348 291.000000
-22.057188 108.992691 290.000000
-22.057188 109.465240 290.000000
-22.057188 109.937798 290.000000
-22.057188 110.410347 290.000000
-22.105122 117.280380 290.630219
-22.105122 117.753960 290.630219
-22.105122 118.227547 290.630219
-22.104717 118.698952 290.624908
-22.104717 119.172516 290.624908
-22.103952 119.641937 290.614838
-22.105152 120.122017 290.630615
-22.105152 120.595596 290.630615
-22.105503 121.071091 290.635223
-22.105503 121.544685 290.635223
-22.105503 122.018265 290.635223
-22.107243 122.501495 290.658112
-22.107243 122.975121 290.658112
-22.107243 123.448753 290.658112
-22.106544 123.918449 290.648926
-22.106611 124.392441 290.649811
-22.106611 124.866051 290.649811
-22.106611 125.339661 290.649811
-22.095217 137.109222 290.500000
-22.095217 137.582581 290.500000
-22.095217 138.055954 290.500000
-22.095217 138.529312 290.500000
-22.088425 138.959946 290.410706
-22.088425 139.433167 290.410706
-22.102825 139.997589 290.600006
-22.116455 140.557739 290.779236
-22.116455 141.031570 290.779236
-22.124491 141.556808 290.884888
-22.129436 142.062546 290.949890
-22.129436 142.536636 290.949890
-22.129436 143.010742 290.949890
-22.121109 143.430832 290.840393
-22.121109 143.904770 290.840393
-22.119795 144.370117 290.823120
-22.115057 144.812973 290.760834
-22.115057 145.286758 290.760834
-22.115057 145.760559 290.760834
-22.101810 146.146759 290.586670
-22.101810 146.620270 290.586670
-22.101810 147.093765 290.586670
-22.093288 147.510391 290.474640
-29.846642 85.368141 401.000000
-29.846642 86.021568 401.000000
-29.846642 86.674988 401.000000
-29.772213 87.110634 400.000000
-29.772213 87.762436 400.000000
-29.474489 87.530090 396.000000
-29.474489 88.175369 396.000000
-29.474489 88.820641 396.000000
-29.400057 89.239998 395.000000
-29.251196 89.428535 393.000000
-29.251196 90.068924 393.000000
-28.477222 88.309181 382.601379
-28.477222 88.932625 382.601379
-28.477222 89.556068 382.601379
-27.977730 88.597763 375.890533
-27.916386 89.014664 375.066345
-27.916386 89.625824 375.066345
-27.862869 90.064003 374.347321
-27.810081 90.502213 373.638092
-27.810081 91.111046 373.638092
-27.762587 91.563248 373.000000
-27.762587 92.171051 373.000000
-27.762587 92.778847 373.000000
-27.688154 93.136276 372.000000
-27.464865 92.986458 369.000000
-27.464865 93.587738 369.000000
-27.316004 93.678513 367.000000
-27.316004 94.276535 367.000000
-27.316004 94.874557 367.000000
-27.241573 95.212433 366.000000
-27.167143 95.547050 365.000000
-27.092712 95.878418 364.000000
-27.092712 96.471550 364.000000
-26.943851 96.531357 362.000000
-26.869419 96.852951 361.000000
-26.869419 97.441193 361.000000
-26.794991 97.757889 360.000000
-26.720558 98.071320 359.000000
-26.720558 98.656303 359.000000
-26.646130 98.964859 358.000000
-26.646130 99.548218 358.000000
-26.646130 100.131569 358.000000
-26.571699 100.433601 357.000000
-26.497269 100.732368 356.000000
-26.497269 101.312469 356.000000
-26.422838 101.606346 355.000000
-26.348406 101.896973 354.000000
-26.348406 102.473816 354.000000
-26.273975 102.759544 353.000000
-25.071043 98.603653 336.838165
-25.071043 99.152527 336.838165
-24.926397 99.126175 334.894806
-24.555464 98.188660 329.911194
-24.555464 98.726250 329.911194
-23.746563 95.993904 319.043335
-23.605965 95.942345 317.154358
-23.605965 96.459145 317.154358
-23.556103 96.771103 316.484436
-23.484058 96.989265 315.516479
-23.484058 97.503395 315.516479
-23.450521 97.877548 315.065918
-23.182247 97.265350 311.461548
-23.182247 97.772873 311.461548
-22.552450 95.610390 303.000000
-22.552450 96.104118 303.000000
-22.552450 96.597855 303.000000
-22.478020 96.771164 302.000000
-22.478020 97.263268 302.000000
-22.478020 97.755371 302.000000
-22.478020 98.247475 302.000000
-22.403589 98.412628 301.000000
-22.403589 98.903107 301.000000
-22.329157 99.063370 300.000000
-22.329157 99.552216 300.000000
-22.329157 100.041061 300.000000
-22.329157 100.529907 300.000000
-22.180296 100.345299 298.000000
-22.180296 100.830879 298.000000
-22.105865 100.976479 297.000000
-22.105865 101.460434 297.000000
-22.105865 101.944397 297.000000
-22.105865 102.428352 297.000000
-22.031437 102.565804 296.000000
-22.031437 103.048134 296.000000
-22.031437 103.530457 296.000000
-21.957006 103.661400 295.000000
-21.957006 104.142097 295.000000
-21.957006 104.622795 295.000000
-21.882576 104.747208 294.000000
-21.882576 105.226280 294.000000
-21.882576 105.705345 294.000000
-21.808146 105.823242 293.000000
-21.733715 105.937889 292.000000
-21.733715 106.413696 292.000000
-21.733715 106.889511 292.000000
-21.733715 107.365318 292.000000
-21.733715 107.841125 292.000000
-21.659285 107.945992 291.000000
-21.659285 108.420166 291.000000
-21.659285 108.894348 291.000000
-21.659285 109.368530 291.000000
-21.584852 109.465240 290.000000
-21.584852 109.937798 290.000000
-21.584852 110.410347 290.000000
-21.621849 118.173378 290.497070
-21.622345 118.649452 290.503723
-21.622345 119.122818 290.503723
-21.622345 119.596199 290.503723
-21.624941 120.083992 290.538605
-21.624941 120.557419 290.538605
-21.624941 121.030846 290.538605
-21.623489 121.496117 290.519104
-21.623489 121.969521 290.519104
-21.629702 122.478088 290.602570
-21.629702 122.951622 290.602570
-21.629702 123.425163 290.602570
-21.606117 138.427109 290.285706
-21.615421 138.959946 290.410706
-21.615421 139.433167 290.410706
-21.616829 139.915497 290.429626
-21.633148 140.494736 290.648865
-21.633148 140.968338 290.648865
-21.640049 141.487061 290.741577
-21.644403 141.989395 290.800079
-21.644403 142.463242 290.800079
-21.644403 142.937103 290.800079
-21.641836 143.393951 290.765594
-21.641836 143.867737 290.765594
-21.640087 144.329880 290.742096
-21.635868 144.775406 290.685394
-21.634176 145.237717 290.662689
-21.634176 145.711349 290.662689
-21.628519 146.146759 290.586670
-21.628519 146.620270 290.586670
-21.628519 147.093765 290.586670
-21.620182 147.510391 290.474640
-28.531681 87.264458 391.909088
-28.531681 87.903069 391.909088
-28.531681 88.541687 391.909088
-28.302586 88.464218 388.762238
-28.302586 89.097702 388.762238
-27.854063 88.309181 382.601379
-27.854063 88.932625 382.601379
-27.854063 89.556068 382.601379
-27.750359 89.843765 381.176910
-27.644625 90.120193 379.724518
-27.644625 90.738945 379.724518
-27.437265 90.672447 376.876282
-27.377842 91.088852 376.060028
-27.377842 91.701637 376.060028
-27.155066 91.563248 373.000000
-27.155066 92.171051 373.000000
-27.155066 92.778847 373.000000
-27.082262 93.136276 372.000000
-26.863859 92.986458 369.000000
-26.863859 93.587738 369.000000
-26.791056 93.933769 368.000000
-26.718256 94.276535 367.000000
-26.718256 94.874557 367.000000
-26.645452 95.212433 366.000000
-26.572651 95.547050 365.000000
-26.427048 95.615013 363.000000
-26.427048 96.206520 363.000000
-26.354246 96.531357 362.000000
-26.281445 96.852951 361.000000
-26.281445 97.441193 361.000000
-26.208643 97.757889 360.000000
-26.135841 98.071320 359.000000
-26.135841 98.656303 359.000000
-26.063040 98.964859 358.000000
-26.063040 99.548218 358.000000
-26.063040 100.131569 358.000000
-25.990238 100.433601 357.000000
-25.917437 100.732368 356.000000
-25.917437 101.312469 356.000000
-25.844635 101.606346 355.000000
-25.771832 101.896973 354.000000
-25.771832 102.473816 354.000000
-25.699030 102.759544 353.000000
-25.699030 103.334755 353.000000
-25.699030 103.909966 353.000000
-25.626228 104.189178 352.000000
-24.018124 98.188660 329.911194
-24.018124 98.726250 329.911194
-23.455036 96.936661 322.176666
-23.089403 95.942345 317.154358
-23.089403 96.459145 317.154358
-23.040632 96.771103 316.484436
-22.970163 96.989265 315.516479
-22.970163 97.503395 315.516479
-22.937361 97.877548 315.065918
-22.674957 97.265350 311.461548
-22.674957 97.772873 311.461548
-22.635754 98.110481 310.923065
-22.058941 96.104118 303.000000
-22.058941 96.597855 303.000000
-22.058941 97.091591 303.000000
-21.986139 97.263268 302.000000
-21.986139 97.755371 302.000000
-21.986139 98.247475 302.000000
-21.986139 98.739578 302.000000
-21.986139 99.231689 302.000000
-21.913338 99.393578 301.000000
-21.840536 99.552216 300.000000
-21.840536 100.041061 300.000000
-21.840536 100.529907 300.000000
-21.694931 100.345299 298.000000
-21.694931 100.830879 298.000000
-21.622129 100.976479 297.000000
-21.622129 101.460434 297.000000
-21.622129 101.944397 297.000000
-21.622129 102.428352 297.000000
-21.549330 102.565804 296.000000
-21.549330 103.048134 296.000000
-21.549330 103.530457 296.000000
-21.476528 103.661400 295.000000
-21.476528 104.142097 295.000000
-21.476528 104.622795 295.000000
-21.403725 104.747208 294.000000
-21.403725 105.226280 294.000000
-21.403725 105.705345 294.000000
-21.330923 105.823242 293.000000
-21.330923 106.300682 293.000000
-21.330923 106.778122 293.000000
-21.258121 106.889511 292.000000
-21.258121 107.365318 292.000000
-21.258121 107.841125 292.000000
-21.258121 108.316940 292.000000
-21.258121 108.792747 292.000000
-21.258121 109.268562 292.000000
-21.185320 109.368530 291.000000
-21.185320 109.842712 291.000000
-21.185320 110.316895 291.000000
-21.112518 110.410347 290.000000
-21.112518 110.882896 290.000000
-21.112518 111.355446 290.000000
-21.112518 111.828003 290.000000
-21.142998 118.614716 290.418671
-21.142998 119.087952 290.418671
-21.142998 119.561180 290.418671
-21.146179 120.052483 290.462372
-21.146179 120.525780 290.462372
-21.146179 120.999084 290.462372
-21.143715 121.458244 290.428528
-21.143715 121.931480 290.428528
-21.143715 122.404732 290.428528
-21.137590 138.928223 290.344391
-21.137590 139.401337 290.344391
-21.137590 139.874451 290.344391
-21.169203 141.978912 290.778625
-21.169203 142.452744 290.778625
-21.169203 142.926544 290.778625
-21.165373 143.374435 290.726013
-21.165373 143.848160 290.726013
-21.162416 144.301743 290.685394
-21.162416 144.775406 290.685394
-21.160763 145.237717 290.662689
-21.160763 145.711349 290.662689
-21.155228 146.146759 290.586670
-21.155228 146.620270 290.586670
-21.155228 147.093765 290.586670
-21.147074 147.510391 290.474640
-21.143902 147.961533 290.431091
-21.143902 148.434784 290.431091
-29.465639 81.389610 414.000000
-29.465639 82.064217 414.000000
-29.465639 82.738823 414.000000
-27.971006 86.866982 393.000000
-27.971006 87.507370 393.000000
-27.971006 88.147758 393.000000
-27.786146 88.201347 390.402679
-27.589857 88.209930 387.644745
-27.589857 88.841591 387.644745
-27.380396 88.793976 384.701752
-27.294403 89.140007 383.493561
-27.294403 89.764900 383.493561
-27.129522 89.843765 381.176910
-27.026152 90.120193 379.724518
-27.026152 90.738945 379.724518
-26.823433 90.672447 376.876282
-26.765335 91.088852 376.060028
-26.765335 91.701637 376.060028
-26.547546 91.563248 373.000000
-26.547546 92.171051 373.000000
-26.547546 92.778847 373.000000
-26.476372 93.136276 372.000000
-26.262854 92.986458 369.000000
-26.262854 93.587738 369.000000
-26.191681 93.933769 368.000000
-26.120506 94.276535 367.000000
-26.120506 94.874557 367.000000
-26.049334 95.212433 366.000000
-25.978161 95.547050 365.000000
-25.906988 95.878418 364.000000
-25.906988 96.471550 364.000000
-25.764641 96.531357 362.000000
-25.693468 96.852951 361.000000
-25.693468 97.441193 361.000000
-25.622297 97.757889 360.000000
-25.551123 98.071320 359.000000
-25.551123 98.656303 359.000000
-25.551123 99.241295 359.000000
-25.479950 99.548218 358.000000
-25.479950 100.131569 358.000000
-25.408777 100.433601 357.000000
-25.337605 100.732368 356.000000
-25.337605 101.312469 356.000000
-25.266432 101.606346 355.000000
-25.195257 101.896973 354.000000
-25.195257 102.473816 354.000000
-25.124084 102.759544 353.000000
-25.124084 103.334755 353.000000
-25.124084 103.909966 353.000000
-25.052912 104.189178 352.000000
-23.979338 100.273445 336.916016
-23.979338 100.822441 336.916016
-23.139364 97.820503 325.114166
-22.791103 96.870041 320.221008
-22.791103 97.391838 320.221008
-22.743423 97.708794 319.551086
-22.669786 97.911461 318.516479
-22.669786 98.430473 318.516479
-22.632975 98.788818 317.999268
-22.396435 98.269127 314.675812
-22.396435 98.781883 314.675812
-22.129341 98.110481 310.923065
-21.636606 96.421295 304.000000
-21.636606 96.916664 304.000000
-21.565432 97.091591 303.000000
-21.565432 97.585327 303.000000
-21.565432 98.079063 303.000000
-21.494259 98.247475 302.000000
-21.494259 98.739578 302.000000
-21.494259 99.231689 302.000000
-21.494259 99.723793 302.000000
-21.423086 99.884056 301.000000
-21.423086 100.374527 301.000000
-21.351913 100.529907 300.000000
-21.351913 101.018753 300.000000
-21.351913 101.507599 300.000000
-21.209566 101.316467 298.000000
-21.138393 101.460434 297.000000
-21.138393 101.944397 297.000000
-21.138393 102.428352 297.000000
-21.138393 102.912308 297.000000
-21.067223 103.048134 296.000000
-21.067223 103.530457 296.000000
-21.067223 104.012787 296.000000
-20.996048 104.142097 295.000000
-20.996048 104.622795 295.000000
-20.924875 104.747208 294.000000
-20.924875 105.226280 294.000000
-20.924875 105.705345 294.000000
-20.853703 105.823242 293.000000
-20.853703 106.300682 293.000000
-20.853703 106.778122 293.000000
-20.782530 106.889511 292.000000
-20.782530 107.365318 292.000000
-20.782530 107.841125 292.000000
-20.782530 108.316940 292.000000
-20.782530 108.792747 292.000000
-20.782530 109.268562 292.000000
-20.711355 109.368530 291.000000
-20.711355 109.842712 291.000000
-20.711355 110.316895 291.000000
-20.640182 110.410347 290.000000
-20.640182 110.882896 290.000000
-20.640182 111.355446 290.000000
-20.640182 111.828003 290.000000
-20.640182 112.300552 290.000000
-20.640182 112.773102 290.000000
-20.667959 118.129929 290.390259
-20.669981 118.614716 290.418671
-20.669981 119.087952 290.418671
-20.669981 119.561180 290.418671
-20.673092 120.052483 290.462372
-20.673092 120.525780 290.462372
-20.673092 120.999084 290.462372
-20.670683 121.458244 290.428528
-20.670683 121.931480 290.428528
-20.670683 122.404732 290.428528
-20.695601 141.978912 290.778625
-20.695601 142.452744 290.778625
-20.695601 142.926544 290.778625
-20.691856 143.374435 290.726013
-20.691856 143.848160 290.726013
-20.688293 144.297043 290.675964
-20.688293 144.770706 290.675964
-20.685986 145.228149 290.643524
-20.685986 145.701752 290.643524
-20.678743 146.124176 290.541779
-20.678419 146.595322 290.537231
-20.678419 147.068741 290.537231
-20.670864 147.488281 290.431091
-20.670864 147.961533 290.431091
-20.670864 148.434784 290.431091
-20.663319 148.853668 290.325073
-20.663319 149.326752 290.325073
-20.663319 149.799835 290.325073
-28.791342 81.389610 414.000000
-28.791342 82.064217 414.000000
-28.791342 82.738823 414.000000
-27.330910 86.866982 393.000000
-27.330910 87.507370 393.000000
-27.330910 88.147758 393.000000
-27.157127 88.223587 390.501129
-27.003349 88.356728 388.289856
-27.003349 88.989433 388.289856
-26.830372 89.048058 385.802582
-26.759512 89.439880 384.783661
-26.759512 90.066879 384.783661
-26.625862 90.240913 382.861877
-26.521084 90.507210 381.355225
-26.521084 91.128624 381.355225
-26.430012 91.434975 380.045685
-26.152832 91.088852 376.060028
-26.152832 91.701637 376.060028
-26.009569 91.808731 374.000000
-25.940025 92.171051 373.000000
-25.940025 92.778847 373.000000
-25.870481 93.136276 372.000000
-25.661848 92.986458 369.000000
-25.661848 93.587738 369.000000
-25.592302 93.933769 368.000000
-25.522758 94.276535 367.000000
-25.522758 94.874557 367.000000
-25.453215 95.212433 366.000000
-25.383671 95.547050 365.000000
-25.314125 95.878418 364.000000
-25.314125 96.471550 364.000000
-25.175037 96.531357 362.000000
-25.105492 96.852951 361.000000
-25.105492 97.441193 361.000000
-25.105492 98.029434 361.000000
-25.035950 98.344498 360.000000
-25.035950 98.931114 360.000000
-24.966406 99.241295 359.000000
-24.896860 99.548218 358.000000
-24.896860 100.131569 358.000000
-24.896860 100.714928 358.000000
-24.757772 100.732368 356.000000
-24.757772 101.312469 356.000000
-24.618683 101.320137 354.000000
-24.618683 101.896973 354.000000
-24.618683 102.473816 354.000000
-24.549139 102.759544 353.000000
-24.549139 103.334755 353.000000
-24.549139 103.909966 353.000000
-24.479595 104.189178 352.000000
-23.430590 100.273445 336.916016
-23.430590 100.822441 336.916016
-22.609837 97.820503 325.114166
-22.269547 96.870041 320.221008
-22.269547 97.391838 320.221008
-22.222958 97.708794 319.551086
-22.151007 97.911461 318.516479
-22.151007 98.430473 318.516479
-22.115038 98.788818 317.999268
-22.083271 99.164345 317.542480
-22.083271 99.681778 317.542480
-21.841496 99.102196 314.065918
-21.141468 96.421295 304.000000
-21.141468 96.916664 304.000000
-21.071924 97.091591 303.000000
-21.071924 97.585327 303.000000
-21.071924 98.079063 303.000000
-21.002378 98.247475 302.000000
-21.002378 98.739578 302.000000
-21.002378 99.231689 302.000000
-21.002378 99.723793 302.000000
-20.932835 99.884056 301.000000
-20.932835 100.374527 301.000000
-20.932835 100.865005 301.000000
-20.863291 101.018753 300.000000
-20.863291 101.507599 300.000000
-20.793745 101.656464 299.000000
-20.793745 102.143677 299.000000
-20.654657 101.944397 297.000000
-20.654657 102.428352 297.000000
-20.654657 102.912308 297.000000
-20.654657 103.396271 297.000000
-20.654657 103.880226 297.000000
-20.585114 104.012787 296.000000
-20.585114 104.495117 296.000000
-20.585114 104.977448 296.000000
-20.515570 105.103493 295.000000
-20.446026 105.226280 294.000000
-20.446026 105.705345 294.000000
-20.446026 106.184418 294.000000
-20.376482 106.300682 293.000000
-20.376482 106.778122 293.000000
-20.376482 107.255569 293.000000
-20.306936 107.365318 292.000000
-20.306936 107.841125 292.000000
-20.306936 108.316940 292.000000
-20.306936 108.792747 292.000000
-20.306936 109.268562 292.000000
-20.306936 109.744370 292.000000
-20.237392 109.842712 291.000000
-20.237392 110.316895 291.000000
-20.237392 110.791077 291.000000
-20.167849 110.882896 290.000000
-20.167849 111.355446 290.000000
-20.167849 111.828003 290.000000
-20.167849 112.300552 290.000000
-20.167849 112.773102 290.000000
-20.194988 118.129929 290.390259
-20.194988 118.603119 290.390259
-20.194988 119.076302 290.390259
-20.192411 119.534241 290.353210
-20.191153 119.999878 290.335114
-20.191153 120.472977 290.335114
-20.192930 120.956734 290.360687
-20.192930 121.429871 290.360687
-20.192930 121.903008 290.360687
-20.218338 142.900696 290.726013
-20.218338 143.374435 290.726013
-20.218338 143.848160 290.726013
-20.214857 144.297043 290.675964
-20.214857 144.770706 290.675964
-20.212603 145.228149 290.643524
-20.212603 145.701752 290.643524
-20.205524 146.124176 290.541779
-20.205208 146.595322 290.537231
-20.205208 147.068741 290.537231
-20.197826 147.488281 290.431091
-20.197826 147.961533 290.431091
-20.197826 148.434784 290.431091
-20.190454 148.853668 290.325073
-20.190454 149.326752 290.325073
-20.190454 149.799835 290.325073
-28.117043 81.389610 414.000000
-28.117043 82.064217 414.000000
-28.117043 82.738823 414.000000
-27.108011 84.972778 399.142853
-27.108011 85.623177 399.142853
-27.108011 86.273575 399.142853
-26.997648 86.570084 397.517853
-26.997648 87.217834 397.517853
-26.776800 87.146828 394.266083
-26.690815 87.507370 393.000000
-26.690815 88.147758 393.000000
-26.521103 88.223587 390.501129
-26.370922 88.356728 388.289856
-26.370922 88.989433 388.289856
-26.201998 89.048058 385.802582
-26.132797 89.439880 384.783661
-26.132797 90.066879 384.783661
-26.002279 90.240913 382.861877
-25.961922 90.723755 382.267639
-25.961922 91.346649 382.267639
-25.839870 91.537193 380.470551
-25.400421 90.589874 374.000000
-25.400421 91.199303 374.000000
-25.400421 91.808731 374.000000
-25.332504 92.171051 373.000000
-25.332504 92.778847 373.000000
-25.264589 93.136276 372.000000
-25.128757 93.238457 370.000000
-25.128757 93.841370 370.000000
-25.060843 94.189026 369.000000
-24.925011 94.276535 367.000000
-24.925011 94.874557 367.000000
-24.789179 94.952293 365.000000
-24.789179 95.547050 365.000000
-24.721264 95.878418 364.000000
-24.721264 96.471550 364.000000
-24.585432 96.531357 362.000000
-24.517517 96.852951 361.000000
-24.517517 97.441193 361.000000
-24.517517 98.029434 361.000000
-24.449602 98.344498 360.000000
-24.449602 98.931114 360.000000
-24.381687 99.241295 359.000000
-24.313772 99.548218 358.000000
-24.313772 100.131569 358.000000
-24.313772 100.714928 358.000000
-24.177940 100.732368 356.000000
-24.177940 101.312469 356.000000
-24.042109 101.320137 354.000000
-24.042109 101.896973 354.000000
-24.042109 102.473816 354.000000
-23.974194 102.759544 353.000000
-23.906277 103.042023 352.000000
-23.906277 103.615601 352.000000
-23.906277 104.189178 352.000000
-23.838362 104.465141 351.000000
-23.838362 105.037094 351.000000
-22.080311 97.820503 325.114166
-21.947491 97.758659 323.158508
-21.947491 98.285240 323.158508
-21.897747 98.587875 322.426086
-21.818993 98.756798 321.266479
-21.818993 99.280304 321.266479
-21.783867 99.643127 320.749268
-21.566076 99.164345 317.542480
-21.566076 99.681778 317.542480
-21.329964 99.102196 314.065918
-20.940632 97.795731 308.333344
-20.940632 98.298157 308.333344
-20.578415 97.091591 303.000000
-20.578415 97.585327 303.000000
-20.578415 98.079063 303.000000
-20.578415 98.572792 303.000000
-20.510500 98.739578 302.000000
-20.510500 99.231689 302.000000
-20.510500 99.723793 302.000000
-20.510500 100.215897 302.000000
-20.510500 100.708000 302.000000
-20.442583 100.865005 301.000000
-20.374668 101.018753 300.000000
-20.374668 101.507599 300.000000
-20.306751 101.656464 299.000000
-20.306751 102.143677 299.000000
-20.170921 101.944397 297.000000
-20.170921 102.428352 297.000000
-20.170921 102.912308 297.000000
-20.170921 103.396271 297.000000
-20.170921 103.880226 297.000000
-20.103006 104.012787 296.000000
-20.103006 104.495117 296.000000
-20.103006 104.977448 296.000000
-20.103006 105.459770 296.000000
-20.035091 105.584190 295.000000
-20.035091 106.064888 295.000000
-19.967175 106.184418 294.000000
-19.967175 106.663483 294.000000
-19.967175 107.142563 294.000000
-19.899260 107.255569 293.000000
-19.899260 107.733009 293.000000
-19.899260 108.210449 293.000000
-19.831345 108.316940 292.000000
-19.831345 108.792747 292.000000
-19.831345 109.268562 292.000000
-19.831345 109.744370 292.000000
-19.831345 110.220177 292.000000
-19.831345 110.695992 292.000000
-19.763428 110.791077 291.000000
-19.763428 111.265251 291.000000
-19.763428 111.739433 291.000000
-19.695513 111.828003 290.000000
-19.695513 112.300552 290.000000
-19.695513 112.773102 290.000000
-19.695513 113.245651 290.000000
-19.736450 117.269302 290.602753
-19.736450 117.742836 290.602753
-19.736450 118.216370 290.602753
-19.730122 118.651848 290.509583
-19.730122 119.125229 290.509583
-19.719501 119.534241 290.353210
-19.734936 143.302658 290.580475
-19.744268 143.844147 290.717896
-19.744268 144.317871 290.717896
-19.744268 144.791580 290.717896
-19.740864 145.240250 290.667755
-19.740864 145.713898 290.667755
-19.729757 146.105301 290.504242
-19.728765 146.571289 290.489624
-19.728765 147.044647 290.489624
-19.722582 147.471756 290.398590
-19.719393 147.921021 290.351593
-19.719393 148.394135 290.351593
-19.717590 148.853668 290.325073
-19.722082 149.360779 290.391205
-19.722082 149.833954 290.391205
-19.722082 150.307144 290.391205
-19.722082 150.780334 290.391205
-19.722082 151.253525 290.391205
-26.597588 82.806038 401.250000
-26.597588 83.459869 401.250000
-26.597588 84.113701 401.250000
-26.526958 84.542435 400.184509
-26.526958 85.194534 400.184509
-26.526958 85.846634 400.184509
-26.457909 86.273575 399.142853
-26.376406 86.656204 397.913269
-26.376406 87.304588 397.913269
-26.200438 87.366219 395.258636
-26.093882 87.652351 393.651123
-26.093882 88.293800 393.651123
-25.970581 88.515015 391.791046
-25.841526 88.710396 389.844116
-25.841526 89.345650 389.844116
-25.689796 89.452568 387.555115
-25.627523 89.865715 386.615662
-25.627523 90.495697 386.615662
-25.480040 90.601265 384.390747
-25.339306 90.723755 382.267639
-25.339306 91.346649 382.267639
-25.220182 91.537193 380.470551
-24.791271 90.589874 374.000000
-24.791271 91.199303 374.000000
-24.791271 91.808731 374.000000
-24.724983 92.171051 373.000000
-24.724983 92.778847 373.000000
-24.658697 93.136276 372.000000
-24.526123 93.238457 370.000000
-24.526123 93.841370 370.000000
-24.459837 94.189026 369.000000
-24.327263 94.276535 367.000000
-24.327263 94.874557 367.000000
-24.194689 94.952293 365.000000
-24.194689 95.547050 365.000000
-24.128403 95.878418 364.000000
-24.128403 96.471550 364.000000
-23.995829 96.531357 362.000000
-23.995829 97.121231 362.000000
-23.995829 97.711105 362.000000
-23.929541 98.029434 361.000000
-23.863256 98.344498 360.000000
-23.863256 98.931114 360.000000
-23.796968 99.241295 359.000000
-23.730682 99.548218 358.000000
-23.730682 100.131569 358.000000
-23.730682 100.714928 358.000000
-23.598108 100.732368 356.000000
-23.598108 101.312469 356.000000
-23.465534 101.320137 354.000000
-23.465534 101.896973 354.000000
-23.465534 102.473816 354.000000
-23.399248 102.759544 353.000000
-23.332960 103.042023 352.000000
-23.332960 103.615601 352.000000
-23.332960 104.189178 352.000000
-23.266674 104.465141 351.000000
-23.266674 105.037094 351.000000
-22.157343 100.573708 334.264679
-21.600515 98.577225 325.864410
-21.600515 99.108215 325.864410
-21.548065 99.397263 325.073151
-21.467299 99.552422 323.854706
-21.467299 100.080132 323.854706
-21.429115 100.428909 323.278687
-21.227026 100.003616 320.229980
-21.227026 100.525429 320.229980
-21.012875 100.027802 316.999268
-20.438437 97.795731 308.333344
-20.438437 98.298157 308.333344
-20.217480 97.732460 305.000000
-20.084906 97.585327 303.000000
-20.084906 98.079063 303.000000
-20.084906 98.572792 303.000000
-20.084906 99.066528 303.000000
-20.084906 99.560265 303.000000
-20.018620 99.723793 302.000000
-20.018620 100.215897 302.000000
-20.018620 100.708000 302.000000
-19.952332 100.865005 301.000000
-19.886045 101.018753 300.000000
-19.886045 101.507599 300.000000
-19.886045 101.996445 300.000000
-19.819759 102.143677 299.000000
-19.819759 102.630890 299.000000
-19.819759 103.118111 299.000000
-19.687185 102.912308 297.000000
-19.687185 103.396271 297.000000
-19.687185 103.880226 297.000000
-19.687185 104.364182 297.000000
-19.620899 104.495117 296.000000
-19.620899 104.977448 296.000000
-19.620899 105.459770 296.000000
-19.554613 105.584190 295.000000
-19.554613 106.064888 295.000000
-19.488325 106.184418 294.000000
-19.488325 106.663483 294.000000
-19.488325 107.142563 294.000000
-19.422039 107.255569 293.000000
-19.422039 107.733009 293.000000
-19.422039 108.210449 293.000000
-19.355751 108.316940 292.000000
-19.355751 108.792747 292.000000
-19.355751 109.268562 292.000000
-19.355751 109.744370 292.000000
-19.355751 110.220177 292.000000
-19.355751 110.695992 292.000000
-19.289465 110.791077 291.000000
-19.289465 111.265251 291.000000
-19.289465 111.739433 291.000000
-19.223177 111.828003 290.000000
-19.223177 112.300552 290.000000
-19.223177 112.773102 290.000000
-19.223177 113.245651 290.000000
-19.223177 113.718208 290.000000
-19.223177 114.190758 290.000000
-19.276365 117.349846 290.802368
-19.276365 117.823715 290.802368
-19.276365 118.297577 290.802368
-19.271011 118.738449 290.721619
-19.271011 119.212173 290.721619
-19.270765 143.844147 290.717896
-19.270765 144.317871 290.717896
-19.270765 144.791580 290.717896
-19.267441 145.240250 290.667755
-19.267441 145.713898 290.667755
-19.259720 146.128952 290.551270
-19.258947 146.596527 290.539612
-19.258947 147.069962 290.539612
-19.250990 147.482437 290.419586
-19.246483 147.921021 290.351593
-19.246483 148.394135 290.351593
-19.249109 149.360779 290.391205
-19.249109 149.833954 290.391205
-19.249109 150.307144 290.391205
-19.249109 150.780334 290.391205
-19.249109 151.253525 290.391205
-25.944054 82.806038 401.250000
-25.944054 83.459869 401.250000
-25.944054 84.113701 401.250000
-25.875160 84.542435 400.184509
-25.875160 85.194534 400.184509
-25.875160 85.846634 400.184509
-25.807810 86.273575 399.142853
-25.728306 86.656204 397.913269
-25.728306 87.304588 397.913269
-25.556664 87.366219 395.258636
-25.452724 87.652351 393.651123
-25.452724 88.293800 393.651123
-25.349066 88.573051 392.047943
-25.349066 89.211891 392.047943
-25.349066 89.850731 392.047943
-25.160976 89.818130 389.138947
-25.143803 90.390495 388.873352
-25.143803 91.024155 388.873352
-24.919209 90.839096 385.399780
-24.782492 90.965271 383.285309
-24.782492 91.589828 383.285309
-24.659462 91.756607 381.382538
-24.523659 91.869316 379.282196
-24.523659 92.487350 379.282196
-24.117464 91.563248 373.000000
-24.117464 92.171051 373.000000
-24.117464 92.778847 373.000000
-24.052805 93.136276 372.000000
-23.923489 93.238457 370.000000
-23.923489 93.841370 370.000000
-23.858831 94.189026 369.000000
-23.729515 94.276535 367.000000
-23.729515 94.874557 367.000000
-23.600199 94.952293 365.000000
-23.600199 95.547050 365.000000
-23.535540 95.878418 364.000000
-23.535540 96.471550 364.000000
-23.406223 96.531357 362.000000
-23.406223 97.121231 362.000000
-23.406223 97.711105 362.000000
-23.341566 98.029434 361.000000
-23.276909 98.344498 360.000000
-23.276909 98.931114 360.000000
-23.212250 99.241295 359.000000
-23.147593 99.548218 358.000000
-23.147593 100.131569 358.000000
-23.147593 100.714928 358.000000
-23.018276 100.732368 356.000000
-23.018276 101.312469 356.000000
-22.888960 101.320137 354.000000
-22.888960 101.896973 354.000000
-22.888960 102.473816 354.000000
-22.824301 102.759544 353.000000
-22.759644 103.042023 352.000000
-22.759644 103.615601 352.000000
-22.694984 103.893188 351.000000
-22.694984 104.465141 351.000000
-22.694984 105.037094 351.000000
-21.612913 100.573708 334.264679
-21.069767 98.577225 325.864410
-21.069767 99.108215 325.864410
-21.018604 99.397263 325.073151
-20.939821 99.552422 323.854706
-20.939821 100.080132 323.854706
-20.902578 100.428909 323.278687
-20.705456 100.003616 320.229980
-20.705456 100.525429 320.229980
-20.670332 100.875824 319.686768
-20.150110 98.844841 311.641022
-20.150110 99.352661 311.641022
-19.720715 97.732460 305.000000
-19.591398 97.585327 303.000000
-19.591398 98.079063 303.000000
-19.591398 98.572792 303.000000
-19.591398 99.066528 303.000000
-19.591398 99.560265 303.000000
-19.526739 99.723793 302.000000
-19.526739 100.215897 302.000000
-19.526739 100.708000 302.000000
-19.462082 100.865005 301.000000
-19.462082 101.355484 301.000000
-19.397423 101.507599 300.000000
-19.397423 101.996445 300.000000
-19.397423 102.485291 300.000000
-19.332766 102.630890 299.000000
-19.332766 103.118111 299.000000
-19.332766 103.605324 299.000000
-19.268106 103.744408 298.000000
-19.268106 104.229996 298.000000
-19.203449 104.364182 297.000000
-19.203449 104.848145 297.000000
-19.203449 105.332100 297.000000
-19.138792 105.459770 296.000000
-19.074133 105.584190 295.000000
-19.074133 106.064888 295.000000
-19.074133 106.545593 295.000000
-19.009476 106.663483 294.000000
-19.009476 107.142563 294.000000
-19.009476 107.621628 294.000000
-18.944817 107.733009 293.000000
-18.944817 108.210449 293.000000
-18.944817 108.687889 293.000000
-18.880159 108.792747 292.000000
-18.880159 109.268562 292.000000
-18.880159 109.744370 292.000000
-18.880159 110.220177 292.000000
-18.880159 110.695992 292.000000
-18.880159 111.171799 292.000000
-18.815500 111.265251 291.000000
-18.815500 111.739433 291.000000
-18.815500 112.213615 291.000000
-18.750843 112.300552 290.000000
-18.750843 112.773102 290.000000
-18.750843 113.245651 290.000000
-18.750843 113.718208 290.000000
-18.750843 114.190758 290.000000
-18.802723 117.349846 290.802368
-18.802723 117.823715 290.802368
-18.802723 118.297577 290.802368
-18.797501 118.738449 290.721619
-18.797501 119.212173 290.721619
-18.797260 143.844147 290.717896
-18.797260 144.317871 290.717896
-18.797260 144.791580 290.717896
-18.794018 145.240250 290.667755
-18.794018 145.713898 290.667755
-18.786486 146.128952 290.551270
-18.785734 146.596527 290.539612
-18.785734 147.069962 290.539612
-18.777971 147.482437 290.419586
-18.773575 147.921021 290.351593
-18.773575 148.394135 290.351593
-18.776138 149.360779 290.391205
-18.776138 149.833954 290.391205
-18.776138 150.307144 290.391205
-18.776138 150.780334 290.391205
-18.776138 151.253525 290.391205
-25.663445 80.046227 407.166656
-25.663445 80.709694 407.166656
-25.663445 81.373169 407.166656
-25.579407 81.767998 405.833344
-25.526882 82.260040 405.000000
-25.526882 82.919983 405.000000
-25.418829 83.226151 403.285706
-25.355551 83.674469 402.281738
-25.355551 84.329979 402.281738
-25.312908 84.842560 401.605164
-25.312908 85.496971 401.605164
-25.312908 86.151382 401.605164
-25.234545 86.537071 400.361908
-25.194960 87.052681 399.733856
-25.194960 87.704041 399.733856
-25.135759 88.147797 398.794617
-25.030691 88.426445 397.127625
-25.030691 89.073555 397.127625
-24.864981 89.126701 394.498535
-24.710522 89.211891 392.047943
-24.710522 89.850731 392.047943
-24.527170 89.818130 389.138947
-24.510429 90.390495 388.873352
-24.510429 91.024155 388.873352
-24.291492 90.839096 385.399780
-24.158218 90.965271 383.285309
-24.158218 91.589828 383.285309
-24.083326 91.928520 382.097107
-23.943739 92.014709 379.882446
-23.943739 92.633728 379.882446
-23.801289 92.697952 377.622406
-23.509943 92.171051 373.000000
-23.509943 92.778847 373.000000
-23.383884 92.885918 371.000000
-23.320854 93.238457 370.000000
-23.320854 93.841370 370.000000
-23.257826 94.189026 369.000000
-23.131765 94.276535 367.000000
-23.131765 94.874557 367.000000
-23.005707 94.952293 365.000000
-23.005707 95.547050 365.000000
-22.942678 95.878418 364.000000
-22.942678 96.471550 364.000000
-22.816620 96.531357 362.000000
-22.816620 97.121231 362.000000
-22.816620 97.711105 362.000000
-22.753590 98.029434 361.000000
-22.690561 98.344498 360.000000
-22.690561 98.931114 360.000000
-22.627533 99.241295 359.000000
-22.564503 99.548218 358.000000
-22.564503 100.131569 358.000000
-22.564503 100.714928 358.000000
-22.438444 100.732368 356.000000
-22.438444 101.312469 356.000000
-22.312386 101.320137 354.000000
-22.312386 101.896973 354.000000
-22.312386 102.473816 354.000000
-22.249355 102.759544 353.000000
-22.186327 103.042023 352.000000
-22.186327 103.615601 352.000000
-22.123297 103.893188 351.000000
-22.123297 104.465141 351.000000
-22.123297 105.037094 351.000000
-21.068481 100.573708 334.264679
-20.696590 99.333496 328.364410
-20.696590 99.868561 328.364410
-20.646719 100.161682 327.573151
-20.562916 100.286758 326.243591
-20.562916 100.818367 326.243591
-20.523108 101.153770 325.612000
-20.339603 100.775154 322.700592
-20.339603 101.300995 322.700592
-20.149645 100.875824 319.686768
-19.642527 98.844841 311.641022
-19.642527 99.352661 311.641022
-19.439299 98.827278 308.416656
-19.392025 99.088295 307.666656
-19.392025 99.589630 307.666656
-19.178108 98.986847 304.272736
-19.137999 99.274590 303.636353
-19.137999 99.769363 303.636353
-19.034859 99.723793 302.000000
-19.034859 100.215897 302.000000
-19.034859 100.708000 302.000000
-18.971830 100.865005 301.000000
-18.971830 101.355484 301.000000
-18.908800 101.507599 300.000000
-18.908800 101.996445 300.000000
-18.908800 102.485291 300.000000
-18.845772 102.630890 299.000000
-18.845772 103.118111 299.000000
-18.845772 103.605324 299.000000
-18.782742 103.744408 298.000000
-18.782742 104.229996 298.000000
-18.719711 104.364182 297.000000
-18.719711 104.848145 297.000000
-18.719711 105.332100 297.000000
-18.656685 105.459770 296.000000
-18.656685 105.942101 296.000000
-18.656685 106.424431 296.000000
-18.593655 106.545593 295.000000
-18.593655 107.026283 295.000000
-18.593655 107.506981 295.000000
-18.530626 107.621628 294.000000
-18.530626 108.100700 294.000000
-18.530626 108.579773 294.000000
-18.467596 108.687889 293.000000
-18.467596 109.165329 293.000000
-18.467596 109.642769 293.000000
-18.404566 109.744370 292.000000
-18.404566 110.220177 292.000000
-18.404566 110.695992 292.000000
-18.404566 111.171799 292.000000
-18.404566 111.647614 292.000000
-18.404566 112.123421 292.000000
-18.341537 112.213615 291.000000
-18.341537 112.687798 291.000000
-18.341537 113.161980 291.000000
-18.278507 113.245651 290.000000
-18.278507 113.718208 290.000000
-18.278507 114.190758 290.000000
-18.278507 114.663307 290.000000
-18.278507 115.135857 290.000000
-18.278507 115.608414 290.000000
-18.278507 116.080963 290.000000
-18.343628 116.968750 291.033173
-18.343628 117.442986 291.033173
-18.343628 117.917229 291.033173
-18.335739 118.340553 290.908020
-18.326309 118.753464 290.758392
-18.326309 119.227257 290.758392
-18.320068 144.762451 290.659393
-18.320068 145.236084 290.659393
-18.320068 145.709702 290.659393
-18.313253 146.128952 290.551270
-18.312519 146.596527 290.539612
-18.312519 147.069962 290.539612
-18.305185 147.484283 290.423248
-25.000275 80.046227 407.166656
-25.000275 80.709694 407.166656
-25.000275 81.373169 407.166656
-24.918407 81.767998 405.833344
-24.867241 82.260040 405.000000
-24.867241 82.919983 405.000000
-24.780657 83.288910 403.589844
-24.745970 83.829056 403.024933
-24.745970 84.485779 403.024933
-24.713606 85.031143 402.497803
-24.713606 85.687004 402.497803
-24.713606 86.342873 402.497803
-24.637426 86.730576 401.257141
-24.584475 87.196602 400.394745
-24.584475 87.849045 400.394745
-24.505215 88.216156 399.103882
-24.450850 88.669334 398.218445
-24.450850 89.318222 398.218445
-24.274048 89.316582 395.338989
-24.143036 89.475235 393.205231
-24.143036 90.115959 393.205231
-24.143036 90.756676 393.205231
-23.986946 90.806503 390.663086
-23.986946 91.443085 390.663086
-23.835388 91.497879 388.194763
-23.583956 91.158577 384.099792
-23.583956 91.784462 384.099792
-23.460989 91.928520 382.097107
-23.325008 92.014709 379.882446
-23.325008 92.633728 379.882446
-23.186239 92.697952 377.622406
-22.982821 92.494614 374.309418
-22.982821 93.104546 374.309418
-22.982821 93.714478 374.309418
-22.867483 93.851051 372.430969
