-43.348900 89.205544 356.300049
-43.348900 89.786125 356.300049
-43.348900 90.366714 356.300049
-43.134399 90.497269 354.536987
-43.134399 91.074982 354.536987
-43.134399 91.652702 354.536987
-43.134399 92.230408 354.536987
-43.018852 92.559517 353.587280
-43.018852 93.135689 353.587280
-42.822987 93.285179 351.977386
-42.426571 92.989861 348.719086
-42.363831 93.419739 348.203400
-42.363831 93.987129 348.203400
-42.322205 94.461617 347.861267
-42.253765 94.874779 347.298737
-42.253765 95.440697 347.298737
-42.253765 96.006622 347.298737
-41.821198 95.583885 343.743317
-41.821198 96.144012 343.743317
-41.821198 96.704140 343.743317
-41.793129 97.198982 343.512604
-41.793129 97.758736 343.512604
-41.660133 98.005615 342.419464
-41.660133 98.563576 342.419464
-41.660133 99.121544 342.419464
-41.055016 98.781517 337.445770
-41.055016 99.331383 337.445770
-41.055016 99.881248 337.445770
-40.664043 99.474693 334.232239
-40.664043 100.019325 334.232239
-40.152950 99.299995 330.031372
-39.659435 98.610680 325.975006
-39.659435 99.141853 325.975006
-39.772297 99.956673 326.902679
-39.772297 100.489365 326.902679
-39.772297 101.022049 326.902679
-39.529049 100.933617 324.903320
-39.529049 101.463043 324.903320
-39.529049 101.992462 324.903320
-39.388435 102.157204 323.747589
-39.335495 102.546730 323.312439
-39.335495 103.073563 323.312439
-39.031437 102.799576 320.813263
-38.522415 101.974884 316.629456
-38.522415 102.490829 316.629456
-38.348789 102.542503 315.202362
-38.209320 102.681320 314.056000
-38.209320 103.193069 314.056000
-38.009319 103.161987 312.412109
-37.944180 103.493401 311.876740
-38.614468 105.838791 317.386047
-38.614468 106.355965 317.386047
-38.614468 106.873138 317.386047
-38.523006 107.135971 316.634308
-38.523006 107.651917 316.634308
-38.436462 107.924858 315.922974
-38.346561 108.186005 315.184021
-38.346561 108.699600 315.184021
-38.278072 109.018143 314.621124
-37.585239 107.548294 308.926453
-37.585239 108.051689 308.926453
-37.536903 108.415474 308.529175
-37.494839 108.796158 308.183441
-37.494839 109.298347 308.183441
-37.493492 109.796577 308.172363
-37.504482 110.331078 308.262695
-37.504482 110.833389 308.262695
-37.504482 111.335693 308.262695
-37.437817 111.639206 307.714752
-37.437817 112.140633 307.714752
-35.434654 121.801796 291.250031
-35.434654 122.276390 291.250031
-35.434654 122.750977 291.250031
-35.404232 123.119774 291.000000
-35.404232 123.593956 291.000000
-35.404232 124.068138 291.000000
-35.367283 124.412338 290.696289
-35.367283 124.886024 290.696289
-35.367760 125.361404 290.700226
-35.370632 125.845306 290.723816
-35.370632 126.319046 290.723816
-35.370632 126.792763 290.723816
-35.233829 18.963373 293.528931
-35.233829 19.441677 293.528931
-35.233829 19.919977 293.528931
-35.214470 20.387072 293.367645
-35.214470 20.865110 293.367645
-35.204624 21.337181 293.285614
-35.183220 25.145126 293.107300
-35.183220 25.622740 293.107300
-35.183220 26.100355 293.107300
-35.120171 26.530340 292.582031
-35.120171 27.007097 292.582031
-35.075043 27.448544 292.206085
-34.950069 29.248541 291.164948
-34.950069 29.722992 291.164948
-34.961205 30.207062 291.257721
-34.961205 30.681662 291.257721
-34.961205 31.156263 291.257721
-34.924057 31.597256 290.948242
-34.846123 38.149284 290.298981
-34.846123 38.622322 290.298981
-34.853672 39.103828 290.361877
-34.853989 39.577328 290.364502
-34.853989 40.050476 290.364502
-34.854931 40.524719 290.372375
-34.868126 41.013393 290.482269
-34.868126 41.486729 290.482269
-34.885208 41.980625 290.624603
-34.885208 42.454197 290.624603
-34.885208 42.927765 290.624603
-34.876667 43.390705 290.553436
-34.887760 43.878117 290.645874
-34.887760 44.351719 290.645874
-34.887760 44.825321 290.645874
-34.878887 45.287403 290.571930
-34.878887 45.760883 290.571930
-34.878887 46.234367 290.571930
-34.878887 46.707851 290.571930
-34.878887 47.181335 290.571930
-34.878887 47.654819 290.571930
-34.878887 48.128304 290.571930
-34.878887 48.601784 290.571930
-34.879963 49.076782 290.580902
-34.937923 49.632618 291.063751
-34.937923 50.106903 291.063751
-34.937923 50.581188 291.063751
-34.928608 51.041859 290.986145
-34.928608 51.516018 290.986145
-35.010773 52.112476 291.670654
-35.019501 52.600861 291.743378
-35.019501 53.076256 291.743378
-35.019501 53.551643 291.743378
-34.936916 53.899628 291.055389
-35.203758 54.789196 293.278381
-35.203758 55.267086 293.278381
-35.203758 55.744980 293.278381
-35.091263 56.043213 292.341217
-35.091263 56.519585 292.341217
-35.242832 57.242134 293.603943
-35.242832 57.720562 293.603943
-35.242832 58.198982 293.603943
-35.046551 58.350597 291.968719
-35.052673 58.836639 292.019714
-35.052673 59.312481 292.019714
-35.058037 59.797470 292.064392
-35.062691 60.281395 292.103210
-35.062691 60.757370 292.103210
-35.076118 61.256790 292.215027
-36.570148 64.362411 304.661652
-36.570148 64.858856 304.661652
-37.444191 66.917320 311.943207
-42.476826 76.487862 353.869476
-42.964375 77.949043 357.931213
-42.964375 78.532288 357.931213
-42.964375 79.115532 357.931213
-42.954285 79.680054 357.847137
-42.954285 80.263161 357.847137
-39.291840 73.953011 327.335724
-37.433334 70.963196 311.852753
-37.433334 71.471352 311.852753
-40.466175 77.811264 337.118958
-42.489990 82.279617 353.979156
-42.489990 82.856422 353.979156
-42.489990 83.433228 353.979156
-42.653278 84.332878 355.339478
-42.653278 84.911896 355.339478
-42.653278 85.490921 355.339478
-40.644794 82.017029 338.607025
-40.644794 82.568779 338.607025
-42.843842 89.362518 356.927032
-42.843842 89.944122 356.927032
-42.843842 90.525734 356.927032
-42.655792 90.707458 355.360413
-42.556950 91.074982 354.536987
-42.556950 91.652702 354.536987
-42.751465 92.651970 356.157471
-42.751465 93.232323 356.157471
-42.751465 93.812683 356.157471
-42.392601 93.600677 353.167816
-42.242100 93.841812 351.914001
-42.575874 95.161278 354.694641
-42.575874 95.739243 354.694641
-42.575874 96.317215 354.694641
-42.575874 96.895187 354.694641
-42.575874 97.473160 354.694641
-41.688107 96.006622 347.298737
-41.261330 95.583885 343.743317
-41.261330 96.144012 343.743317
-41.261330 96.704140 343.743317
-41.233635 97.198982 343.512604
-41.233635 97.758736 343.512604
-41.102421 98.005615 342.419464
-41.102421 98.563576 342.419464
-41.102421 99.121544 342.419464
-40.494362 98.204880 337.353790
-40.505402 98.781517 337.445770
-40.505402 99.331383 337.445770
-40.505402 99.881248 337.445770
-40.119663 99.474693 334.232239
-40.119663 100.019325 334.232239
-39.782318 99.718353 331.421844
-39.450317 99.421700 328.655975
-39.450317 99.957245 328.655975
-39.390156 100.339539 328.154785
-39.438160 100.997200 328.554718
-39.438160 101.532578 328.554718
-39.438160 102.067947 328.554718
-38.999863 101.463043 324.903320
-38.999863 101.992462 324.903320
-38.861137 102.157204 323.747589
-38.808903 102.546730 323.312439
-38.808903 103.073563 323.312439
-38.508911 102.799576 320.813263
-38.204231 102.504852 318.274994
-38.204231 103.023476 318.274994
-38.048130 103.119041 316.974548
-37.905746 103.247719 315.788361
-37.905746 103.762283 315.788361
-37.668480 103.624146 313.811707
-37.627308 104.021683 313.468719
-38.246159 106.251709 318.624298
-38.246159 106.770905 318.624298
-38.246159 107.290092 318.624298
-38.169315 107.592682 317.984131
-38.169315 108.110832 317.984131
-38.094994 108.417458 317.364929
-38.013363 108.701180 316.684906
-38.013363 109.217216 316.684906
-37.949711 109.549492 316.154602
-37.924259 109.990852 315.942566
-37.924259 110.505669 315.942566
-37.306438 109.211868 310.795563
-37.258438 109.577156 310.395721
-37.258438 110.082947 310.395721
-37.279972 110.652641 310.575104
-37.320675 111.280075 310.914185
-37.320675 111.786705 310.914185
-37.320675 112.293335 310.914185
-37.262890 112.625328 310.432800
-37.262890 113.131172 310.432800
-37.224545 113.520073 310.113342
-34.960281 121.801796 291.250031
-34.960281 122.276390 291.250031
-34.960281 122.750977 291.250031
-34.930267 123.119774 291.000000
-34.930267 123.593956 291.000000
-34.930267 124.068138 291.000000
-34.893814 124.412338 290.696289
-34.893814 124.886024 290.696289
-34.894287 125.361404 290.700226
-34.897118 125.845306 290.723816
-34.897118 126.319046 290.723816
-34.897118 126.792763 290.723816
-34.735542 19.908398 293.358276
-34.735542 20.386419 293.358276
-34.735542 20.864443 293.358276
-34.733559 21.341251 293.341553
-34.733559 21.819246 293.341553
-34.733559 22.297243 293.341553
-34.705822 25.145126 293.107300
-34.705822 25.622740 293.107300
-34.705822 26.100355 293.107300
-34.643627 26.530340 292.582031
-34.643627 27.007097 292.582031
-34.486820 30.207062 291.257721
-34.486820 30.681662 291.257721
-34.486820 31.156263 291.257721
-34.395004 41.013393 290.482269
-34.395004 41.486729 290.482269
-34.412674 41.981628 290.631531
-34.412846 42.455414 290.632935
-34.412846 42.928997 290.632935
-34.412846 43.402580 290.632935
-34.415379 43.879395 290.654358
-34.415379 44.353012 290.654358
-34.424839 44.838955 290.734253
-34.424839 45.312702 290.734253
-34.424839 45.786449 290.734253
-34.414951 46.246910 290.650757
-34.414951 46.720520 290.650757
-34.414951 47.194138 290.650757
-34.447239 47.712467 290.923431
-34.447239 48.186523 290.923431
-34.447239 48.660580 290.923431
-34.481312 49.183235 291.211182
-34.481312 49.657757 291.211182
-34.481312 50.132282 291.211182
-34.473984 50.596054 291.149292
-34.465679 51.058174 291.079163
-34.465679 51.532482 291.079163
-34.546677 52.129021 291.763245
-34.555439 52.617779 291.837219
-34.555439 53.093327 291.837219
-34.555439 53.568867 291.837219
-34.475475 53.919353 291.161896
-34.726082 54.789196 293.278381
-34.726082 55.267086 293.278381
-34.726082 55.744980 293.278381
-34.617577 56.047199 292.362000
-34.617577 56.523602 292.362000
-34.773216 57.256271 293.676453
-34.773216 57.734814 293.676453
-34.773216 58.213352 293.676453
-34.571011 58.350597 291.968719
-34.571011 58.826359 291.968719
-34.571011 59.302116 291.968719
-36.739365 65.549652 310.281525
-36.739365 66.055252 310.281525
-36.739365 66.560852 310.281525
-40.554951 74.031677 342.505981
-42.381397 77.949043 357.931213
-42.381397 78.532288 357.931213
-42.381397 79.115532 357.931213
-42.371445 79.680054 357.847137
-42.371445 80.263161 357.847137
-38.758694 73.953011 327.335724
-36.925407 70.963196 311.852753
-36.925407 71.471352 311.852753
-39.917091 77.811264 337.118958
-40.128918 78.776436 338.907928
-40.128918 79.328674 338.907928
-40.179882 79.982368 339.338318
-40.289974 80.755989 340.268127
-40.289974 81.310455 340.268127
-40.289974 81.864906 340.268127
-40.093288 82.017029 338.607025
-40.093288 82.568779 338.607025
-39.151920 81.168915 330.656738
-40.452358 84.421646 341.639526
-40.452358 84.978348 341.639526
-42.262497 89.362518 356.927032
-42.262497 89.944122 356.927032
-42.262497 90.525734 356.927032
-42.077000 90.707458 355.360413
-40.363453 87.568947 340.888672
-40.363453 88.124420 340.888672
-42.171375 92.651970 356.157471
-42.171375 93.232323 356.157471
-42.171375 93.812683 356.157471
-41.817383 93.600677 353.167816
-41.668922 93.841812 351.914001
-41.998165 95.161278 354.694641
-41.998165 95.739243 354.694641
-41.998165 96.317215 354.694641
-41.998165 96.895187 354.694641
-41.998165 97.473160 354.694641
-41.122444 96.006622 347.298737
-40.701458 95.583885 343.743317
-40.701458 96.144012 343.743317
-40.701458 96.704140 343.743317
-40.674145 97.198982 343.512604
-40.674145 97.758736 343.512604
-40.544704 98.005615 342.419464
-40.544704 98.563576 342.419464
-40.544704 99.121544 342.419464
-39.944901 98.204880 337.353790
-39.955788 98.781517 337.445770
-39.955788 99.331383 337.445770
-39.955788 99.881248 337.445770
-39.575287 99.474693 334.232239
-39.575287 100.019325 334.232239
-39.392090 100.098434 332.685059
-39.390156 100.635590 332.668701
-39.390156 101.177673 332.668701
-38.855675 100.339539 328.154785
-38.903030 100.997200 328.554718
-38.903030 101.532578 328.554718
-38.903030 102.067947 328.554718
-38.485188 101.501305 325.025848
-38.485188 102.030930 325.025848
-38.384571 102.292419 324.176086
-38.383278 102.817192 324.165161
-38.383278 103.345421 324.165161
-38.125500 103.176033 321.988098
-37.685844 102.504852 318.274994
-37.685844 103.023476 318.274994
-37.531860 103.119041 316.974548
-37.391411 103.247719 315.788361
-37.391411 103.762283 315.788361
-37.157364 103.624146 313.811707
-37.116749 104.021683 313.468719
-37.727203 106.251709 318.624298
-37.727203 106.770905 318.624298
-37.727203 107.290092 318.624298
-37.651402 107.592682 317.984131
-37.651402 108.110832 317.984131
-37.578087 108.417458 317.364929
-37.497566 108.701180 316.684906
-37.497566 109.217216 316.684906
-37.434776 109.549492 316.154602
-37.409668 109.990852 315.942566
-37.409668 110.505669 315.942566
-36.800228 109.211868 310.795563
-36.752888 109.577156 310.395721
-36.752888 110.082947 310.395721
-36.774128 110.652641 310.575104
-36.814278 111.280075 310.914185
-36.814278 111.786705 310.914185
-36.814278 112.293335 310.914185
-36.757278 112.625328 310.432800
-36.757278 113.131172 310.432800
-36.719452 113.520073 310.113342
-37.113644 116.271004 313.442505
-37.113644 116.781746 313.442505
-37.113644 117.292496 313.442505
-36.581097 116.112877 308.944885
-36.413960 116.083481 307.533325
-36.413960 116.584602 307.533325
-34.485912 121.801796 291.250031
-34.485912 122.276390 291.250031
-34.485912 122.750977 291.250031
-34.456303 123.119774 291.000000
-34.456303 123.593956 291.000000
-34.456303 124.068138 291.000000
-34.420345 124.412338 290.696289
-34.420345 124.886024 290.696289
-34.420811 125.361404 290.700226
-34.423603 125.845306 290.723816
-34.423603 126.319046 290.723816
-34.423603 126.792763 290.723816
-34.401924 127.186340 290.540710
-34.401924 127.659782 290.540710
-34.401924 128.133209 290.540710
-34.257736 19.908398 293.358276
-34.257736 20.386419 293.358276
-34.257736 20.864443 293.358276
-34.255783 21.341251 293.341553
-34.255783 21.819246 293.341553
-34.255783 22.297243 293.341553
-34.228428 25.145126 293.107300
-34.228428 25.622740 293.107300
-34.228428 26.100355 293.107300
-34.167088 26.530340 292.582031
-34.167088 27.007097 292.582031
-34.012436 30.207062 291.257721
-34.012436 30.681662 291.257721
-34.012436 31.156263 291.257721
-33.921883 41.013393 290.482269
-33.921883 41.486729 290.482269
-33.939312 41.981628 290.631531
-33.939480 42.455414 290.632935
-33.939480 42.928997 290.632935
-33.939480 43.402580 290.632935
-33.941978 43.879395 290.654358
-33.941978 44.353012 290.654358
-33.951309 44.838955 290.734253
-33.951309 45.312702 290.734253
-33.951309 45.786449 290.734253
-33.941559 46.246910 290.650757
-33.941559 46.720520 290.650757
-33.941559 47.194138 290.650757
-33.973400 47.712467 290.923431
-33.973400 48.186523 290.923431
-33.973400 48.660580 290.923431
-34.007004 49.183235 291.211182
-34.007004 49.657757 291.211182
-34.007004 50.132282 291.211182
-33.999775 50.596054 291.149292
-33.991585 51.058174 291.079163
-33.991585 51.532482 291.079163
-34.071472 52.129021 291.763245
-34.080109 52.617779 291.837219
-34.080109 53.093327 291.837219
-34.080109 53.568867 291.837219
-34.001251 53.919353 291.161896
-34.248409 54.789196 293.278381
-34.248409 55.267086 293.278381
-34.248409 55.744980 293.278381
-34.141396 56.047199 292.362000
-34.141396 56.523602 292.362000
-34.294895 57.256271 293.676453
-34.294895 57.734814 293.676453
-34.294895 58.213352 293.676453
-34.095467 58.350597 291.968719
-34.095467 58.826359 291.968719
-34.095467 59.302116 291.968719
-36.233997 65.549652 310.281525
-36.233997 66.055252 310.281525
-36.233997 66.560852 310.281525
-35.730709 66.134911 305.971741
-41.798424 77.949043 357.931213
-41.798424 78.532288 357.931213
-41.798424 79.115532 357.931213
-41.788605 79.680054 357.847137
-41.788605 80.263161 357.847137
-38.225548 73.953011 327.335724
-37.659161 73.382736 322.485596
-37.659161 73.908218 322.485596
-39.368011 77.811264 337.118958
-39.576923 78.776436 338.907928
-39.576923 79.328674 338.907928
-39.627182 79.982368 339.338318
-39.735764 80.755989 340.268127
-39.735764 81.310455 340.268127
-39.735764 81.864906 340.268127
-39.541786 82.017029 338.607025
-39.541786 82.568779 338.607025
-38.613369 81.168915 330.656738
-39.895916 84.421646 341.639526
-39.895916 84.978348 341.639526
-41.681156 89.362518 356.927032
-41.681156 89.944122 356.927032
-41.681156 90.525734 356.927032
-41.498211 90.707458 355.360413
-39.808231 87.568947 340.888672
-39.808231 88.124420 340.888672
-41.591290 92.651970 356.157471
-41.591290 93.232323 356.157471
-41.591290 93.812683 356.157471
-41.242165 93.600677 353.167816
-41.095745 93.841812 351.914001
-41.420464 95.161278 354.694641
-41.420464 95.739243 354.694641
-41.420464 96.317215 354.694641
-41.420464 96.895187 354.694641
-41.420464 97.473160 354.694641
-39.639080 93.834213 339.440186
-39.639080 94.387329 339.440186
-39.639080 94.940445 339.440186
-39.531326 95.233971 338.517456
-39.538502 95.802956 338.578888
-39.538502 96.354668 338.578888
-39.538502 96.906380 338.578888
-39.492142 97.343826 338.181915
-39.492142 97.894882 338.181915
-39.395435 98.204880 337.353790
-39.315498 98.554214 336.669281
-39.315498 99.102814 336.669281
-39.184505 99.319389 335.547546
-38.995972 99.385658 333.933075
-38.995972 99.929794 333.933075
-38.850231 100.098434 332.685059
-38.848320 100.635590 332.668701
-38.848320 101.177673 332.668701
-38.321198 100.339539 328.154785
-38.367901 100.997200 328.554718
-38.367901 101.532578 328.554718
-38.367901 102.067947 328.554718
-38.223808 102.217995 327.320831
-38.223808 102.751358 327.320831
-38.263397 103.391693 327.659821
-38.263397 103.925613 327.659821
-38.263397 104.459526 327.659821
-38.014050 104.309250 325.524597
-37.591423 103.674110 321.905518
-37.591423 104.198654 321.905518
-37.429596 104.272377 320.519775
-37.293217 104.412819 319.351898
-37.293217 104.933197 319.351898
-37.035458 104.724724 317.144653
-37.771896 107.334206 323.450989
-37.771896 107.861267 323.450989
-37.771896 108.388329 323.450989
-37.692535 108.686539 322.771393
-37.630394 109.032448 322.239258
-37.630394 109.557526 322.239258
-37.571053 109.909027 321.731110
-37.501820 110.229782 321.138245
-37.501820 110.753075 321.138245
-37.450592 111.124367 320.699585
-37.437202 111.607025 320.584930
-37.437202 112.129417 320.584930
-37.451603 112.695129 320.708221
-37.451603 113.217712 320.708221
-37.451603 113.740303 320.708221
-36.919003 112.637955 316.147430
-36.964008 113.291054 316.532806
-36.964008 113.806831 316.532806
-36.964008 114.322632 316.532806
-36.935223 114.748985 316.286316
-36.935223 115.264374 316.286316
-36.942959 115.804001 316.352539
-36.942959 116.319489 316.352539
-36.942959 116.834984 316.352539
-36.892147 117.189079 315.917450
-36.603130 116.781746 313.442505
-36.603130 117.292496 313.442505
-36.077908 116.112877 308.944885
-35.913067 116.083481 307.533325
-35.913067 116.584602 307.533325
-36.061424 118.575806 308.803772
-36.061424 119.078987 308.803772
-36.061424 119.582184 308.803772
-33.865566 122.224129 290.000000
-33.982342 123.119774 291.000000
-33.982342 123.593956 291.000000
-33.982342 124.068138 291.000000
-33.933945 124.364929 290.585541
-33.933945 124.838440 290.585541
-33.932983 125.781898 290.577332
-33.932983 126.255394 290.577332
-33.932983 126.728882 290.577332
-33.928707 127.186340 290.540710
-33.928707 127.659782 290.540710
-33.928707 128.133209 290.540710
-33.881351 128.427139 290.135193
-33.881351 128.899902 290.135193
-33.770458 20.380701 293.276001
-33.770458 20.858591 293.276001
-33.778008 21.341251 293.341553
-33.784168 21.823227 293.395081
-33.784168 22.301311 293.395081
-33.784168 22.779396 293.395081
-33.504475 30.176817 290.966095
-33.504475 30.650944 290.966095
-33.504475 31.125067 290.966095
-33.465950 41.981628 290.631531
-33.466114 42.455414 290.632935
-33.466114 42.928997 290.632935
-33.466114 43.402580 290.632935
-33.468578 43.879395 290.654358
-33.468578 44.353012 290.654358
-33.477779 44.838955 290.734253
-33.477779 45.312702 290.734253
-33.477779 45.786449 290.734253
-33.468163 46.246910 290.650757
-33.468163 46.720520 290.650757
-33.468163 47.194138 290.650757
-33.499561 47.712467 290.923431
-33.499561 48.186523 290.923431
-33.499561 48.660580 290.923431
-33.532696 49.183235 291.211182
-33.532696 49.657757 291.211182
-33.532696 50.132282 291.211182
-33.525566 50.596054 291.149292
-33.517494 51.058174 291.079163
-33.517494 51.532482 291.079163
-33.603508 52.140255 291.826141
-33.614788 52.633446 291.924103
-33.614788 53.109135 291.924103
-33.614788 53.584820 291.924103
-33.529243 53.922924 291.181183
-33.666252 54.619682 292.371033
-33.666252 55.096100 292.371033
-33.666252 55.572514 292.371033
-33.665211 56.047199 292.362000
-33.665211 56.523602 292.362000
-33.816570 57.256271 293.676453
-33.816570 57.734814 293.676453
-33.816570 58.213352 293.676453
-33.600971 58.317703 291.804108
-35.728630 65.549652 310.281525
-35.728630 66.055252 310.281525
-35.728630 66.560852 310.281525
-35.232361 66.134911 305.971741
-35.232361 66.633484 305.971741
-37.133915 73.382736 322.485596
-37.133915 73.908218 322.485596
-38.201008 76.572662 331.752655
-38.562550 77.843063 334.892426
-38.562550 78.388763 334.892426
-38.707973 79.232140 336.155365
-38.849194 80.070961 337.381744
-38.849194 80.620720 337.381744
-38.849194 81.170479 337.381744
-38.258110 80.476883 332.248535
-38.258110 81.018272 332.248535
-38.228081 81.495651 331.987762
-39.339474 84.421646 341.639526
-39.339474 84.978348 341.639526
-39.604122 86.110458 343.937836
-39.604122 86.670898 343.937836
-39.604122 87.231346 343.937836
-38.495350 85.333931 334.308807
-38.524780 85.944344 334.564423
-38.524780 86.489517 334.564423
-38.524780 87.034683 334.564423
-39.518444 89.838783 343.193787
-39.518444 90.398010 343.193787
-39.518444 90.957245 343.193787
-39.473785 91.413055 342.805969
-39.473785 91.971657 342.805969
-39.465271 92.510284 342.731995
-39.465271 93.068764 342.731995
-38.705750 91.825356 336.136017
-38.705750 92.373085 336.136017
-38.705750 92.920815 336.136017
-38.549221 93.090553 334.776672
-38.549221 93.636070 334.776672
-38.608784 94.327110 335.293945
-38.608784 94.873466 335.293945
-38.608784 95.419823 335.293945
-38.584564 95.905975 335.083588
-38.584564 96.451988 335.083588
-38.584564 96.998001 335.083588
-38.511620 97.359619 334.450134
-38.469433 97.797340 334.083740
-38.469433 98.341728 334.083740
-38.554218 99.104057 334.820068
-38.554218 99.649643 334.820068
-38.554218 100.195229 334.820068
-38.546265 100.720032 334.751007
-38.530319 101.223618 334.612518
-38.530319 101.768860 334.612518
-38.528854 102.310219 334.599792
-38.027645 101.517433 330.247101
-38.027645 102.055565 330.247101
-38.027645 102.593704 330.247101
-37.779556 102.459007 328.092590
-37.779556 102.993629 328.092590
-37.729721 103.391693 327.659821
-37.729721 103.925613 327.659821
-37.729721 104.459526 327.659821
-37.483852 104.309250 325.524597
-37.067120 103.674110 321.905518
-37.067120 104.198654 321.905518
-36.907555 104.272377 320.519775
-36.845531 104.618561 319.981171
-36.845531 105.139969 319.981171
-36.845531 105.661377 319.981171
-37.245079 107.334206 323.450989
-37.245079 107.861267 323.450989
-37.245079 108.388329 323.450989
-37.166824 108.686539 322.771393
-37.105549 109.032448 322.239258
-37.105549 109.557526 322.239258
-37.047039 109.909027 321.731110
-36.978771 110.229782 321.138245
-36.978771 110.753075 321.138245
-36.928257 111.124367 320.699585
-36.915054 111.607025 320.584930
-36.915054 112.129417 320.584930
-36.929253 112.695129 320.708221
-36.929253 113.217712 320.708221
-36.929253 113.740303 320.708221
-36.807503 113.886185 319.650879
-36.895588 114.680847 320.415863
-36.895588 115.202965 320.415863
-36.895588 115.725075 320.415863
-36.939075 116.384209 320.793549
-36.939075 116.906944 320.793549
-37.016106 117.674553 321.462494
-37.016106 118.198364 321.462494
-37.016106 118.722183 321.462494
-36.988190 119.156075 321.220062
-36.655655 118.603546 318.332214
-36.655655 119.122261 318.332214
-36.002056 117.507690 312.656097
-35.932350 117.788651 312.050720
-35.932350 118.297127 312.050720
-35.932350 118.805618 312.050720
-35.558468 118.575806 308.803772
-35.558468 119.078987 308.803772
-35.558468 119.582184 308.803772
-33.393230 122.224129 290.000000
-33.508377 123.119774 291.000000
-33.508377 123.593956 291.000000
-33.508377 124.068138 291.000000
-33.460655 124.364929 290.585541
-33.460655 124.838440 290.585541
-33.459709 125.781898 290.577332
-33.459709 126.255394 290.577332
-33.459709 126.728882 290.577332
-33.455490 127.186340 290.540710
-33.455490 127.659782 290.540710
-33.455490 128.133209 290.540710
-33.408798 128.427139 290.135193
-33.408798 128.899902 290.135193
-33.300228 21.341251 293.341553
-33.306305 21.823227 293.395081
-33.306305 22.301311 293.395081
-33.306305 22.779396 293.395081
-33.306305 23.257479 293.395081
-32.991833 41.980671 290.624908
-32.991833 42.454239 290.624908
-32.991833 42.927811 290.624908
-32.991283 43.400658 290.620056
-32.993305 43.876907 290.637878
-32.993305 44.350498 290.637878
-32.993305 44.824089 290.637878
-32.989075 45.291870 290.600616
-32.989075 45.765404 290.600616
-32.990543 46.240990 290.613556
-32.990543 46.714542 290.613556
-32.990543 47.188095 290.613556
-33.006634 47.684887 290.755280
-33.006634 48.158672 290.755280
-33.006634 48.632450 290.755280
-33.050720 49.646240 291.143646
-33.050720 50.120655 291.143646
-33.050720 50.595070 291.143646
-33.043064 51.057655 291.076202
-33.043064 51.531963 291.076202
-33.128201 52.140255 291.826141
-33.139317 52.633446 291.924103
-33.139317 53.109135 291.924103
-33.139317 53.584820 291.924103
-33.054981 53.922924 291.181183
-33.190052 54.619682 292.371033
-33.190052 55.096100 292.371033
-33.190052 55.572514 292.371033
-37.423687 75.016449 329.665070
-37.423687 75.553635 329.665070
-37.660667 76.572662 331.752655
-38.017097 77.843063 334.892426
-38.017097 78.388763 334.892426
-38.160465 79.232140 336.155365
-38.299686 80.070961 337.381744
-38.299686 80.620720 337.381744
-38.299686 81.170479 337.381744
-37.716961 80.476883 332.248535
-37.716961 81.018272 332.248535
-37.687359 81.495651 331.987762
-38.193485 83.138344 336.446228
-38.193485 83.686577 336.446228
-38.452888 84.806923 338.731323
-38.452888 85.358879 338.731323
-38.452888 85.910835 338.731323
-37.950844 85.333931 334.308807
-37.979862 85.944344 334.564423
-37.979862 86.489517 334.564423
-37.979862 87.034683 334.564423
-38.120735 87.904694 335.805359
-38.120735 88.451881 335.805359
-38.245033 89.289284 336.900330
-38.245033 89.838249 336.900330
-38.245033 90.387230 336.900330
-38.237885 90.919205 336.837341
-38.087288 91.107834 335.510742
-38.158268 91.825356 336.136017
-38.158268 92.373085 336.136017
-38.158268 92.920815 336.136017
-38.003956 93.090553 334.776672
-38.003956 93.636070 334.776672
-38.062679 94.327110 335.293945
-38.062679 94.873466 335.293945
-38.062679 95.419823 335.293945
-38.038799 95.905975 335.083588
-38.038799 96.451988 335.083588
-38.038799 96.998001 335.083588
-37.966888 97.359619 334.450134
-37.925297 97.797340 334.083740
-37.925297 98.341728 334.083740
-38.008884 99.104057 334.820068
-38.008884 99.649643 334.820068
-38.008884 100.195229 334.820068
-38.001045 100.720032 334.751007
-37.985325 101.223618 334.612518
-37.985325 101.768860 334.612518
-37.983875 102.310219 334.599792
-37.672161 102.011360 331.853912
-37.672161 102.552116 331.853912
-37.672161 103.092865 331.853912
-37.408947 102.909523 329.535217
-37.408947 103.446495 329.535217
-37.354385 103.831810 329.054596
-37.354385 104.367996 329.054596
-37.354385 104.904190 329.054596
-37.330635 105.373344 328.845398
-36.913975 104.727104 325.175018
-36.913975 105.256966 325.175018
-36.748085 105.311432 323.713684
-36.608883 105.438011 322.487488
-36.608883 105.963501 322.487488
-36.324368 105.661377 319.981171
-36.997238 108.149712 325.908508
-36.997238 108.680771 325.908508
-36.997238 109.211845 325.908508
-36.929745 109.542709 325.313965
-36.801197 109.689644 324.181549
-36.801197 110.217888 324.181549
-36.801197 110.746132 324.181549
-36.745876 111.107117 323.694244
-36.745876 111.634575 323.694244
-36.687401 111.983543 323.179138
-36.664745 112.440674 322.979553
-36.664745 112.966972 322.979553
-36.661163 113.482170 322.947998
-36.694839 114.113152 323.244690
-36.694839 114.639870 323.244690
-36.694839 115.166588 323.244690
-36.373711 114.680847 320.415863
-36.373711 115.202965 320.415863
-36.373711 115.725075 320.415863
-36.416588 116.384209 320.793549
-36.416588 116.906944 320.793549
-36.492527 117.674553 321.462494
-36.492527 118.198364 321.462494
-36.492527 118.722183 321.462494
-36.465004 119.156075 321.220062
-36.137177 118.603546 318.332214
-36.137177 119.122261 318.332214
-35.594723 117.845062 313.553741
-35.557053 118.230736 313.221924
-35.557053 118.741127 313.221924
-35.557053 119.251526 313.221924
-35.490707 119.538452 312.637482
-35.490707 120.047882 312.637482
-35.417465 120.308525 311.992279
-35.205910 120.095253 310.128693
-35.140923 120.377983 309.556213
-35.140923 120.882401 309.556213
-32.920895 122.696678 290.000000
-32.920895 123.169235 290.000000
-32.920895 123.641785 290.000000
-32.951588 127.067993 290.270355
-32.951588 127.540977 290.270355
-32.951588 128.013977 290.270355
-32.936241 128.427139 290.135193
-32.936241 128.899902 290.135193
-32.936241 129.372681 290.135193
-32.936241 129.845459 290.135193
-32.936241 130.318222 290.135193
-32.932404 130.775757 290.101379
-32.822453 21.341251 293.341553
-32.828442 21.823227 293.395081
-32.828442 22.301311 293.395081
-32.828442 22.779396 293.395081
-32.828442 23.257479 293.395081
-32.518482 41.980671 290.624908
-32.518482 42.454239 290.624908
-32.518482 42.927811 290.624908
-32.517937 43.400658 290.620056
-32.519932 43.876907 290.637878
-32.519932 44.350498 290.637878
-32.519932 44.824089 290.637878
-32.515762 45.291870 290.600616
-32.515762 45.765404 290.600616
-32.517212 46.240990 290.613556
-32.517212 46.714542 290.613556
-32.517212 47.188095 290.613556
-32.533070 47.684887 290.755280
-32.533070 48.158672 290.755280
-32.533070 48.632450 290.755280
-32.576523 49.646240 291.143646
-32.576523 50.120655 291.143646
-32.576523 50.595070 291.143646
-32.568977 51.057655 291.076202
-32.568977 51.531963 291.076202
-32.652889 52.140255 291.826141
-32.663849 52.633446 291.924103
-32.663849 53.109135 291.924103
-32.663849 53.584820 291.924103
-32.580723 53.922924 291.181183
-32.713856 54.619682 292.371033
-32.713856 55.096100 292.371033
-32.713856 55.572514 292.371033
-36.886745 75.016449 329.665070
-36.886745 75.553635 329.665070
-37.528908 77.415482 335.404205
-38.003681 78.948303 339.647369
-38.003681 79.501762 339.647369
-38.146072 80.355156 340.919952
-38.187473 80.998497 341.289948
-38.187473 81.554626 341.289948
-38.187473 82.110756 341.289948
-37.554440 81.296516 335.632416
-37.554440 81.843430 335.632416
-37.554440 82.390335 335.632416
-37.985340 83.888863 339.483429
-37.985340 84.442039 339.483429
-38.195709 85.465942 341.363556
-38.195709 86.022194 341.363556
-38.195709 86.578445 341.363556
-38.131573 86.988373 340.790344
-38.131573 87.543686 340.790344
-38.131573 88.099007 340.790344
-37.935005 88.197311 339.033600
-37.928139 88.733696 338.972229
-37.928139 89.286049 338.972229
-38.048756 90.124092 340.050201
-38.056087 90.695679 340.115723
-38.098923 91.352592 340.498535
-38.098923 91.907425 340.498535
-38.098923 92.462265 340.498535
-38.037300 92.866661 339.947815
-38.037300 93.420601 339.947815
-38.033817 93.965935 339.916687
-37.915619 94.226089 338.860321
-37.915619 94.778252 338.860321
-37.841923 95.145134 338.201691
-37.821098 95.643562 338.015564
-37.821098 96.194351 338.015564
-37.772221 96.620125 337.578735
-37.772221 97.170204 337.578735
-37.772221 97.720284 337.578735
-37.705990 98.098061 336.986847
-37.660095 98.527100 336.576660
-37.660095 99.075546 336.576660
-37.809666 100.019661 337.913391
-37.809666 100.570282 337.913391
-37.809666 101.120903 337.913391
-37.786903 101.610329 337.709961
-37.762211 102.093864 337.489288
-37.762211 102.643799 337.489288
-37.746868 103.151810 337.352173
-37.131660 102.011360 331.853912
-37.131660 102.552116 331.853912
-37.131660 103.092865 331.853912
-36.872219 102.909523 329.535217
-36.872219 103.446495 329.535217
-36.818439 103.831810 329.054596
-36.818439 104.367996 329.054596
-36.818439 104.904190 329.054596
-36.795033 105.373344 328.845398
-36.477829 104.996178 326.010498
-36.477829 105.527412 326.010498
-36.355679 105.703484 324.918793
-36.250980 105.927002 323.983093
-36.083637 105.963501 322.487488
-35.989349 106.210739 321.644836
-36.466419 108.149712 325.908508
-36.466419 108.680771 325.908508
-36.466419 109.211845 325.908508
-36.399895 109.542709 325.313965
-36.273190 109.689644 324.181549
-36.273190 110.217888 324.181549
-36.273190 110.746132 324.181549
-36.218658 111.107117 323.694244
-36.218658 111.634575 323.694244
-36.161026 111.983543 323.179138
-36.138691 112.440674 322.979553
-36.138691 112.966972 322.979553
-36.135162 113.482170 322.947998
-36.168362 114.113152 323.244690
-36.168362 114.639870 323.244690
-36.168362 115.166588 323.244690
-36.031914 115.256859 322.025238
-36.031914 115.781593 322.025238
-35.851837 115.725075 320.415863
-35.894100 116.384209 320.793549
-35.894100 116.906944 320.793549
-35.968948 117.674553 321.462494
-35.968948 118.198364 321.462494
-35.968948 118.722183 321.462494
-35.941822 119.156075 321.220062
-35.618694 118.603546 318.332214
-35.618694 119.122261 318.332214
-35.084026 117.845062 313.553741
-35.046898 118.230736 313.221924
-35.046898 118.741127 313.221924
-35.046898 119.251526 313.221924
-34.981503 119.538452 312.637482
-34.981503 120.047882 312.637482
-34.909309 120.308525 311.992279
-34.700790 120.095253 310.128693
-34.636734 120.377983 309.556213
-34.636734 120.882401 309.556213
-34.573124 121.163895 308.987701
-32.463684 127.954376 290.135193
-32.463684 128.427139 290.135193
-32.463684 128.899902 290.135193
-32.463684 129.372681 290.135193
-32.463684 129.845459 290.135193
-32.463684 130.318222 290.135193
-32.459904 130.775757 290.101379
-32.454231 131.225540 290.050690
-32.350574 21.823227 293.395081
-32.350574 22.301311 293.395081
-32.350574 22.779396 293.395081
-32.350574 23.257479 293.395081
-32.350574 23.735563 293.395081
-32.350574 24.213646 293.395081
-32.350574 24.691730 293.395081
-32.037113 43.390526 290.552216
-32.044407 43.873962 290.618378
-32.044407 44.347523 290.618378
-32.044407 44.821083 290.618378
-32.041779 45.290920 290.594513
-32.041779 45.764442 290.594513
-32.044178 46.241425 290.616272
-32.044178 46.714981 290.616272
-32.044178 47.188534 290.616272
-32.041901 47.658707 290.595642
-32.085751 50.568947 290.993317
-32.094891 51.057655 291.076202
-32.094891 51.531963 291.076202
-32.173637 52.133865 291.790375
-32.173637 52.609337 291.790375
-32.173637 53.084801 291.790375
-32.167793 53.550545 291.737366
-36.349808 75.016449 329.665070
-36.349808 75.553635 329.665070
-36.982620 77.415482 335.404205
-37.450485 78.948303 339.647369
-37.450485 79.501762 339.647369
-37.590801 80.355156 340.919952
-37.631599 80.998497 341.289948
-37.631599 81.554626 341.289948
-37.631599 82.110756 341.289948
-37.007782 81.296516 335.632416
-37.007782 81.843430 335.632416
-37.007782 82.390335 335.632416
-37.600060 84.264580 341.003906
-37.600060 84.820236 341.003906
-37.639713 85.465942 341.363556
-37.674892 86.102592 341.682587
-37.674892 86.659355 341.682587
-37.676727 87.220367 341.699219
-37.676727 87.777161 341.699219
-37.676727 88.333954 341.699219
-37.652241 88.832985 341.477173
-37.578342 89.213974 340.806946
-37.578342 89.769318 340.806946
-37.578342 90.324654 340.806946
-37.580002 90.884010 340.821991
-37.628731 91.557938 341.263916
-37.628731 92.114021 341.263916
-37.647816 92.717117 341.437042
-37.647816 93.273483 341.437042
-37.647816 93.829857 341.437042
-37.577694 94.210419 340.801086
-37.464600 94.480537 339.775391
-37.464600 95.034195 339.775391
-37.464600 95.587852 339.775391
-37.455162 96.117294 339.689789
-37.455162 96.670815 339.689789
-37.301037 96.824272 338.292023
-37.301037 97.375519 338.292023
-37.301037 97.926758 338.292023
-37.231346 98.293999 337.659943
-37.186306 98.724640 337.251465
-37.186306 99.274185 337.251465
-37.259289 100.019661 337.913391
-37.259289 100.570282 337.913391
-37.259289 101.120903 337.913391
-37.236858 101.610329 337.709961
-37.212791 102.094582 337.491669
-37.212791 102.644524 337.491669
-37.197411 103.151810 337.352173
-36.591156 102.011360 331.853912
-36.591156 102.552116 331.853912
-36.591156 103.092865 331.853912
-36.335491 102.909523 329.535217
-36.335491 103.446495 329.535217
-36.282497 103.831810 329.054596
-36.282497 104.367996 329.054596
-36.282497 104.904190 329.054596
-36.259426 105.373344 328.845398
-35.946846 104.996178 326.010498
-35.946846 105.527412 326.010498
-35.826469 105.703484 324.918793
-35.723297 105.927002 323.983093
-35.558388 105.963501 322.487488
-35.466995 106.215286 321.658630
-35.935600 108.149712 325.908508
-35.935600 108.680771 325.908508
-35.935600 109.211845 325.908508
-35.870041 109.542709 325.313965
-35.745178 109.689644 324.181549
-35.745178 110.217888 324.181549
-35.745178 110.746132 324.181549
-35.691448 111.107117 323.694244
-35.691448 111.634575 323.694244
-35.634651 111.983543 323.179138
-35.612644 112.440674 322.979553
-35.612644 112.966972 322.979553
-35.609165 113.482170 322.947998
-35.641880 114.113152 323.244690
-35.641880 114.639870 323.244690
-35.641880 115.166588 323.244690
-35.507420 115.256859 322.025238
-35.507420 115.781593 322.025238
-35.381100 115.892563 320.879608
-35.315536 116.199715 320.285004
-35.315536 116.721619 320.285004
-35.409683 117.556084 321.138885
-35.409683 118.079376 321.138885
-35.409683 118.602669 321.138885
-35.384739 119.042030 320.912628
-35.070328 118.502556 318.061157
-35.070328 119.020836 318.061157
-34.573326 117.845062 313.553741
-34.645157 118.601883 314.205170
-34.645157 119.113869 314.205170
-34.645157 119.625870 314.205170
-34.960339 121.230820 317.063660
-34.960339 121.747467 317.063660
-34.960339 122.264114 317.063660
-34.326683 120.555367 311.316864
-34.283363 120.909874 310.923981
-34.283363 121.416512 310.923981
-34.069862 121.163895 308.987701
-31.991131 127.954376 290.135193
-31.991131 128.427139 290.135193
-31.991131 128.899902 290.135193
-31.991131 129.372681 290.135193
-31.991131 129.845459 290.135193
-31.991131 130.318222 290.135193
-31.987402 130.775757 290.101379
-31.981813 131.225540 290.050690
-31.872709 22.301311 293.395081
-31.872709 22.779396 293.395081
-31.872709 23.257479 293.395081
-31.872709 23.735563 293.395081
-31.872709 24.213646 293.395081
-31.872709 24.691730 293.395081
-31.841450 25.145126 293.107300
-31.841450 25.622740 293.107300
-31.841450 26.100355 293.107300
-31.570837 46.241425 290.616272
-31.570837 46.714981 290.616272
-31.570837 47.188534 290.616272
-31.613028 51.045101 291.004639
-31.613028 51.519291 291.004639
-31.698383 52.133865 291.790375
-31.698383 52.609337 291.790375
-31.698383 53.084801 291.790375
-36.436333 77.415482 335.404205
-36.897285 78.948303 339.647369
-36.897285 79.501762 339.647369
-37.315548 80.962700 343.497559
-37.315548 81.522430 343.497559
-37.315548 82.082153 343.497559
-37.075726 82.110756 341.289948
-36.461124 81.296516 335.632416
-36.461124 81.843430 335.632416
-36.461124 82.390335 335.632416
-37.044651 84.264580 341.003906
-37.044651 84.820236 341.003906
-37.289452 85.940094 343.257355
-37.289452 86.499420 343.257355
-37.289452 87.058754 343.257355
-37.120186 87.220367 341.699219
-37.120186 87.777161 341.699219
-37.120186 88.333954 341.699219
-37.096066 88.832985 341.477173
-37.023254 89.213974 340.806946
-37.023254 89.769318 340.806946
-37.023254 90.324654 340.806946
-37.024891 90.884010 340.821991
-37.072895 91.557938 341.263916
-37.072895 92.114021 341.263916
-37.091705 92.717117 341.437042
-37.091705 93.273483 341.437042
-37.091705 93.829857 341.437042
-37.022617 94.210419 340.801086
-36.911194 94.480537 339.775391
-36.911194 95.034195 339.775391
-36.911194 95.587852 339.775391
-36.901894 96.117294 339.689789
-36.901894 96.670815 339.689789
-36.750050 96.824272 338.292023
-36.750050 97.375519 338.292023
-36.750050 97.926758 338.292023
-36.681385 98.293999 337.659943
-36.637009 98.724640 337.251465
-36.637009 99.274185 337.251465
-36.708920 100.019661 337.913391
-36.708920 100.570282 337.913391
-36.708920 101.120903 337.913391
-36.686817 101.610329 337.709961
-36.663101 102.094582 337.491669
-36.663101 102.644524 337.491669
-36.647949 103.151810 337.352173
-36.017487 101.917519 331.548615
-36.017487 102.457764 331.548615
-36.017487 102.998024 331.548615
-35.747711 102.762772 329.065308
-35.747711 103.298981 329.065308
-35.656750 103.570969 328.227966
-35.656750 104.105812 328.227966
-35.656750 104.640656 328.227966
-35.618217 105.061844 327.873260
-35.415855 104.996178 326.010498
-35.415855 105.527412 326.010498
-35.297260 105.703484 324.918793
-35.195614 105.927002 323.983093
-34.943096 105.691154 321.658630
-34.943096 106.215286 321.658630
-34.946625 106.750214 321.691132
-34.970863 107.348808 321.914246
-34.970863 107.873360 321.914246
-34.970863 108.397919 321.914246
-34.914371 108.746521 321.394226
-34.914371 109.270226 321.394226
-35.107971 110.402733 323.176331
-35.107971 110.929352 323.176331
-35.107971 111.455956 323.176331
-35.056946 111.819817 322.706635
-35.021053 112.230652 322.376251
-35.021053 112.755959 322.376251
-34.993431 113.191910 322.121979
-34.979164 113.670441 321.990662
-34.979164 114.195122 321.990662
-34.982922 114.732132 322.025238
-34.982922 115.256859 322.025238
-34.982922 115.781593 322.025238
-34.858467 115.892563 320.879608
-34.793873 116.199715 320.285004
-34.793873 116.721619 320.285004
-34.886631 117.556084 321.138885
-34.886631 118.079376 321.138885
-34.886631 118.602669 321.138885
-34.862057 119.042030 320.912628
-34.552288 118.502556 318.061157
-34.552288 119.020836 318.061157
-34.114258 118.023682 314.028992
-34.133396 118.601883 314.205170
-34.133396 119.113869 314.205170
-34.133396 119.625870 314.205170
-34.443928 121.230820 317.063660
-34.443928 121.747467 317.063660
-34.443928 122.264114 317.063660
-34.026398 121.292435 313.220245
-34.026398 121.802834 313.220245
-34.026398 122.313217 313.220245
-33.815254 122.061432 311.276611
-33.870682 122.769577 311.786835
-33.870682 123.277618 311.786835
-34.179398 124.913918 314.628601
-34.185909 125.450500 314.688568
-34.185909 125.963280 314.688568
-34.198837 126.523888 314.807556
-34.198837 127.036858 314.807556
-34.198837 127.549843 314.807556
-34.161232 127.921989 314.461395
-34.122585 128.289108 314.105652
-34.122585 128.800949 314.105652
-31.509396 129.807632 290.050690
-31.509396 130.280273 290.050690
-31.509396 130.752899 290.050690
-31.509396 131.225540 290.050690
-31.509396 131.698166 290.050690
-31.509396 132.170807 290.050690
-31.509396 132.643448 290.050690
-31.394846 22.301311 293.395081
-31.394846 22.779396 293.395081
-31.394846 23.257479 293.395081
-31.394846 23.735563 293.395081
-31.394846 24.213646 293.395081
-31.394846 24.691730 293.395081
-31.364052 25.145126 293.107300
-31.364052 25.622740 293.107300
-31.364052 26.100355 293.107300
-31.061552 39.092850 290.280334
-31.061552 39.565857 290.280334
-31.061552 40.038864 290.280334
-31.063309 40.514164 290.296753
-31.063309 40.987198 290.296753
-31.063309 41.460236 290.296753
-31.097500 46.241425 290.616272
-31.097500 46.714981 290.616272
-31.097500 47.188534 290.616272
-31.139053 51.045101 291.004639
-31.139053 51.519291 291.004639
-31.223135 52.133865 291.790375
-31.223135 52.609337 291.790375
-31.223135 53.084801 291.790375
-36.756077 80.962700 343.497559
-36.756077 81.522430 343.497559
-36.756077 82.082153 343.497559
-35.867447 80.643890 335.192993
-35.888901 81.238647 335.393494
-35.888901 81.785164 335.393494
-35.888901 82.331688 335.393494
-36.750629 84.868195 343.446625
-36.750629 85.427834 343.446625
-37.040840 86.666504 346.158752
-37.040840 87.230560 346.158752
-37.040840 87.794624 346.158752
-36.807358 87.801727 343.976776
-36.850941 88.466858 344.384064
-36.850941 89.028030 344.384064
-36.850941 89.589195 344.384064
-36.801151 90.028564 343.918762
-36.801151 90.588974 343.918762
-36.743473 91.006531 343.379761
-36.729259 91.530647 343.246948
-36.729259 92.089966 343.246948
-36.719021 92.623451 343.151245
-36.719021 93.182610 343.151245
-36.699856 93.692841 342.972107
-36.699856 94.251709 342.972107
-36.636002 94.645607 342.375366
-36.523773 94.911873 341.326569
-36.523773 95.468056 341.326569
-36.512817 95.995445 341.224182
-36.498112 96.512589 341.086792
-36.498112 97.068382 341.086792
-36.435268 97.456078 340.499481
-36.431820 98.001648 340.467255
-36.431820 98.556427 340.467255
-36.256317 98.633766 338.827118
-36.203362 99.041016 338.332245
-36.203362 99.592323 338.332245
-36.074432 99.786987 337.127319
-35.938847 99.959229 335.860260
-35.938847 100.506508 335.860260
-36.113415 101.544647 337.491669
-36.113415 102.094582 337.491669
-36.113415 102.644524 337.491669
-35.556541 101.603180 332.287476
-35.477478 101.917519 331.548615
-35.477478 102.457764 331.548615
-35.477478 102.998024 331.548615
-35.211750 102.762772 329.065308
-35.211750 103.298981 329.065308
-35.150265 103.653877 328.490692
-35.150265 104.189140 328.490692
-35.150265 104.724419 328.490692
-35.106400 105.128334 328.080780
-34.900604 105.043533 326.157532
-34.900604 105.575005 326.157532
-34.777637 105.732613 325.008362
-34.666672 105.923172 323.971375
-34.435368 105.740807 321.809753
-34.435368 106.265190 321.809753
-34.437408 106.795914 321.828827
-34.458393 107.385712 322.024902
-34.458393 107.910446 322.024902
-34.458393 108.435181 322.024902
-34.400566 108.777077 321.484528
-34.400566 109.300934 321.484528
-34.380154 109.759621 321.293762
-34.380154 110.283157 321.293762
-34.380154 110.806709 321.293762
-34.306072 111.090355 320.601440
-34.380695 111.855560 321.298828
-34.380695 112.379112 321.298828
-34.380695 112.902657 321.298828
-34.354477 113.339722 321.053802
-34.354477 113.862862 321.053802
-34.350555 114.372963 321.017151
-34.343693 114.873093 320.953003
-34.343693 115.396080 320.953003
-34.335838 115.892563 320.879608
-34.235138 116.074013 319.938538
-34.235138 116.595345 319.938538
-34.281796 117.276306 320.374573
-34.281796 117.798340 320.374573
-34.281796 118.320389 320.374573
-34.249832 118.731628 320.075867
-33.961559 118.249451 317.381836
-33.961559 118.766624 317.381836
-33.602783 118.023682 314.028992
-34.056526 120.135963 318.269348
-34.056526 120.654587 318.269348
-34.056526 121.173203 318.269348
-34.029697 121.595963 318.018646
-34.001301 122.012260 317.753235
-34.001301 122.530029 317.753235
-33.989063 123.003517 317.638885
-33.516243 121.802834 313.220245
-33.516243 122.313217 313.220245
-33.308266 122.061432 311.276611
-33.362862 122.769577 311.786835
-33.362862 123.277618 311.786835
-33.666946 124.913918 314.628601
-33.673363 125.450500 314.688568
-33.673363 125.963280 314.688568
-33.686092 126.523888 314.807556
-33.686092 127.036858 314.807556
-33.686092 127.549843 314.807556
-33.649052 127.921989 314.461395
-33.610989 128.289108 314.105652
-33.610989 128.800949 314.105652
-31.036978 130.280273 290.050690
-31.036978 130.752899 290.050690
-31.036978 131.225540 290.050690
-31.036978 131.698166 290.050690
-31.036978 132.170807 290.050690
-31.036978 132.643448 290.050690
-31.036978 133.116074 290.050690
-31.036978 133.588715 290.050690
-31.036978 134.061340 290.050690
-30.886656 25.145126 293.107300
-30.886656 25.622740 293.107300
-30.886656 26.100355 293.107300
-30.826302 26.526033 292.534546
-30.826302 27.002716 292.534546
-30.795988 27.452375 292.246887
-30.765102 27.900579 291.953796
-30.765102 28.376312 291.953796
-30.749807 28.837706 291.808655
-30.588758 39.092850 290.280334
-30.588758 39.565857 290.280334
-30.588758 40.038864 290.280334
-30.590490 40.514164 290.296753
-30.590490 40.987198 290.296753
-30.590490 41.460236 290.296753
-36.196613 80.962700 343.497559
-36.196613 81.522430 343.497559
-36.196613 82.082153 343.497559
-36.191242 84.868195 343.446625
-36.191242 85.427834 343.446625
-36.477039 86.666504 346.158752
-36.477039 87.230560 346.158752
