-70.859734 79.566124 296.566833
-70.859734 80.049377 296.566833
-70.075203 79.641006 293.283386
-70.075203 80.118912 293.283386
-92.074219 38.343723 388.000000
-92.074219 38.975964 388.000000
-92.074219 39.608204 388.000000
-91.995117 40.205872 387.666656
-91.963478 40.823524 387.533325
-91.911491 41.431572 387.314270
-91.911491 42.062695 387.314270
-92.786133 43.100101 391.000000
-92.786133 43.737228 391.000000
-92.786133 44.374359 391.000000
-92.161095 44.708275 388.366089
-92.161095 45.341114 388.366089
-92.161095 45.973953 388.366089
-92.074219 46.562855 388.000000
-92.074219 47.195095 388.000000
-92.074219 47.827339 388.000000
-91.836914 48.334682 387.000000
-91.836914 48.965294 387.000000
-91.836914 49.595905 387.000000
-91.599602 50.096733 386.000000
-91.599602 50.725716 386.000000
-91.599602 51.354698 386.000000
-91.599602 51.983681 386.000000
-91.362305 52.476357 385.000000
-91.362305 53.103710 385.000000
-91.125000 53.591503 384.000000
-90.650391 57.047169 382.000000
-90.650391 57.669632 382.000000
-90.858093 58.425659 382.875275
-90.858093 59.049549 382.875275
-90.858093 59.673439 382.875275
-90.839630 60.285076 382.797455
-90.839630 60.908836 382.797455
-90.754158 61.474709 382.437286
-90.733963 62.084061 382.352173
-90.733963 62.707104 382.352173
-90.722092 63.321854 382.302155
-90.704559 63.932453 382.228271
-90.704559 64.555283 382.228271
-90.549911 65.067001 381.576599
-90.549911 65.688774 381.576599
-90.549911 66.310547 381.576599
-90.549911 66.932327 381.576599
-90.539864 67.546608 381.534271
-90.539864 68.168312 381.534271
-90.540390 68.790413 381.536469
-90.553116 69.421875 381.590118
-90.553116 70.043678 381.590118
-90.567131 70.676407 381.649139
-90.567131 71.298294 381.649139
-90.567131 71.920189 381.649139
-90.558861 72.535461 381.614319
-90.552795 73.152397 381.588745
-90.552795 73.774185 381.588745
-90.549072 74.392929 381.573059
-88.595047 73.395889 373.338806
-88.595047 74.004242 373.338806
-86.694557 73.012054 365.330170
-85.050209 72.211235 358.400909
-85.050209 72.795242 358.400909
-80.158272 69.158607 337.786316
-80.301430 69.833519 338.389587
-80.301430 70.384926 338.389587
-80.301430 70.936325 338.389587
-80.093628 71.302727 337.513885
-80.093628 71.852707 337.513885
-79.479492 71.847519 334.925934
-78.828575 71.800392 332.182983
-78.828575 72.341682 332.182983
-78.137260 72.243790 329.269775
-69.292961 64.542389 292.000000
-69.292961 65.018204 292.000000
-69.292961 65.494011 292.000000
-69.292961 65.969818 292.000000
-69.292961 66.445633 292.000000
-69.055664 66.692253 291.000000
-69.055664 67.166435 291.000000
-69.055664 67.640617 291.000000
-68.818359 67.880730 290.000000
-68.818359 68.353279 290.000000
-68.818359 68.825829 290.000000
-69.337799 74.582626 292.188934
-70.376701 76.183365 296.566833
-70.376701 76.666618 296.566833
-70.376701 77.149864 296.566833
-70.376701 78.599625 296.566833
-70.376701 79.082870 296.566833
-70.376701 79.566124 296.566833
-70.376701 80.049377 296.566833
-69.597519 79.641006 293.283386
-69.597519 80.118912 293.283386
-91.913612 37.270370 390.000000
-91.913612 37.905869 390.000000
-91.913612 38.541370 390.000000
-91.725082 39.096508 389.200012
-91.725082 39.730705 389.200012
-91.639786 40.327366 388.838104
-91.620140 40.952194 388.754761
-91.555222 41.556194 388.479279
-91.555222 42.189217 388.479279
-92.149292 43.100101 391.000000
-92.149292 43.737228 391.000000
-92.149292 44.374359 391.000000
-91.528542 44.708275 388.366089
-91.677940 45.415119 389.000000
-91.677940 46.048992 389.000000
-91.677940 46.682861 389.000000
-91.442268 47.195095 388.000000
-91.442268 47.827339 388.000000
-91.206589 48.334682 387.000000
-91.206589 48.965294 387.000000
-91.206589 49.595905 387.000000
-90.970909 50.096733 386.000000
-90.970909 50.725716 386.000000
-90.970909 51.354698 386.000000
-90.970909 51.983681 386.000000
-90.735237 52.476357 385.000000
-90.735237 53.103710 385.000000
-90.499565 53.591503 384.000000
-90.263885 54.076035 383.000000
-90.263885 54.700127 383.000000
-90.263885 55.324223 383.000000
-90.028214 55.802238 382.000000
-90.028214 56.424706 382.000000
-90.028214 57.047169 382.000000
-90.028214 57.669632 382.000000
-90.028214 58.292095 382.000000
-90.028214 58.914562 382.000000
-89.792534 59.381168 381.000000
-89.792534 60.002003 381.000000
-89.792534 60.622837 381.000000
-90.027557 61.403965 381.997223
-90.027557 62.026428 381.997223
-90.027557 62.648888 381.997223
-89.997581 63.250278 381.870026
-89.968269 63.851730 381.745667
-89.968269 64.473778 381.745667
-89.928429 65.067001 381.576599
-89.928429 65.688774 381.576599
-89.928429 66.310547 381.576599
-89.928429 66.932327 381.576599
-89.918449 67.546608 381.534271
-89.918449 68.168312 381.534271
-89.918968 68.790413 381.536469
-89.931610 69.421875 381.590118
-89.931610 70.043678 381.590118
-89.945518 70.676407 381.649139
-89.945518 71.298294 381.649139
-89.945518 71.920189 381.649139
-89.937317 72.535461 381.614319
-89.931290 73.152397 381.588745
-89.931290 73.774185 381.588745
-89.927589 74.392929 381.573059
-87.986977 73.395889 373.338806
-87.986977 74.004242 373.338806
-86.099525 73.012054 365.330170
-84.466476 72.211235 358.400909
-84.466476 72.795242 358.400909
-79.608109 69.158607 337.786316
-79.608109 69.709023 337.786316
-79.608109 70.259445 337.786316
-79.543900 70.752754 337.513885
-79.543900 71.302727 337.513885
-79.543900 71.852707 337.513885
-78.933983 71.847519 334.925934
-78.287537 71.800392 332.182983
-78.287537 72.341682 332.182983
-77.600967 72.243790 329.269775
-68.817375 64.542389 292.000000
-68.817375 65.018204 292.000000
-68.817375 65.494011 292.000000
-68.817375 65.969818 292.000000
-68.817375 66.445633 292.000000
-68.817375 66.921440 292.000000
-68.581703 67.166435 291.000000
-68.581703 67.640617 291.000000
-68.581703 68.114799 291.000000
-68.346024 68.353279 290.000000
-68.346024 68.825829 290.000000
-68.861900 74.582626 292.188934
-68.861900 75.058754 292.188934
-68.861900 75.534866 292.188934
-69.893661 78.599625 296.566833
-69.893661 79.082870 296.566833
-69.893661 79.566124 296.566833
-69.506760 79.606247 294.925110
-69.700211 80.309723 295.745972
-69.700211 80.791641 295.745972
-69.700211 81.273552 295.745972
-91.278404 37.270370 390.000000
-91.278404 37.905869 390.000000
-91.278404 38.541370 390.000000
-91.091171 39.096508 389.200012
-91.091171 39.730705 389.200012
-91.006470 40.327366 388.838104
-90.986961 40.952194 388.754761
-90.922485 41.556194 388.479279
-90.922485 42.189217 388.479279
-90.874130 42.799465 388.272675
-90.819992 43.406273 388.041351
-90.819992 44.038582 388.041351
-91.512451 45.011490 391.000000
-91.512451 45.648617 391.000000
-91.512451 46.285748 391.000000
-91.044365 46.682861 389.000000
-90.810310 47.195095 388.000000
-90.810310 47.827339 388.000000
-90.576263 48.334682 387.000000
-90.576263 48.965294 387.000000
-90.576263 49.595905 387.000000
-90.342216 50.096733 386.000000
-90.342216 50.725716 386.000000
-90.342216 51.354698 386.000000
-90.342216 51.983681 386.000000
-90.108177 52.476357 385.000000
-90.108177 53.103710 385.000000
-89.874123 53.591503 384.000000
-89.640076 54.076035 383.000000
-89.640076 54.700127 383.000000
-89.640076 55.324223 383.000000
-89.406036 55.802238 382.000000
-89.406036 56.424706 382.000000
-89.406036 57.047169 382.000000
-89.406036 57.669632 382.000000
-89.406036 58.292095 382.000000
-89.406036 58.914562 382.000000
-89.171982 59.381168 381.000000
-89.171982 60.002003 381.000000
-89.171982 60.622837 381.000000
-89.405380 61.403965 381.997223
-89.405380 62.026428 381.997223
-89.405380 62.648888 381.997223
-89.375610 63.250278 381.870026
-89.346504 63.851730 381.745667
-89.346504 64.473778 381.745667
-89.306938 65.067001 381.576599
-89.306938 65.688774 381.576599
-89.306938 66.310547 381.576599
-89.306938 66.932327 381.576599
-89.297028 67.546608 381.534271
-89.297028 68.168312 381.534271
-89.297546 68.790413 381.536469
-89.310097 69.421875 381.590118
-89.310097 70.043678 381.590118
-89.323914 70.676407 381.649139
-89.323914 71.298294 381.649139
-89.323914 71.920189 381.649139
-89.315765 72.535461 381.614319
-89.309776 73.152397 381.588745
-89.309776 73.774185 381.588745
-89.306107 74.392929 381.573059
-88.694801 74.501221 378.961182
-88.694801 75.118729 378.961182
-86.864983 74.173759 371.143005
-83.882729 72.211235 358.400909
-83.882729 72.795242 358.400909
-79.057938 69.158607 337.786316
-79.057938 69.709023 337.786316
-79.057938 70.259445 337.786316
-78.994179 70.752754 337.513885
-78.994179 71.302727 337.513885
-78.994179 71.852707 337.513885
-78.388474 71.847519 334.925934
-76.315315 70.478668 326.068054
-76.315315 71.009995 326.068054
-75.455421 70.735214 322.394043
-68.341782 64.542389 292.000000
-68.341782 65.018204 292.000000
-68.341782 65.494011 292.000000
-68.341782 65.969818 292.000000
-68.341782 66.445633 292.000000
-68.341782 66.921440 292.000000
-68.341782 67.397255 292.000000
-68.341782 67.873062 292.000000
-68.107735 68.114799 291.000000
-67.873688 68.353279 290.000000
-67.873688 68.825829 290.000000
-67.873688 69.298378 290.000000
-69.410637 78.599625 296.566833
-69.410637 79.082870 296.566833
-69.410637 79.566124 296.566833
-69.026398 79.606247 294.925110
-69.314575 80.421181 296.156403
-69.314575 80.903763 296.156403
-69.362610 81.442741 296.361633
-69.362610 81.925659 296.361633
-69.362610 82.408577 296.361633
-90.875618 36.728806 391.000000
-90.875618 37.365932 391.000000
-90.875618 38.003063 391.000000
-90.736160 38.580898 390.399994
-90.573479 39.146732 389.700012
-90.573479 39.781746 389.700012
-90.494560 40.381542 389.360474
-90.491211 41.014481 389.346039
-90.426399 41.619087 389.067200
-90.426399 42.253067 389.067200
-90.375481 42.862896 388.848114
-90.875618 43.737228 391.000000
-90.875618 44.374359 391.000000
-90.875618 45.011490 391.000000
-90.875618 45.648617 391.000000
-90.875618 46.285748 391.000000
-90.410782 46.682861 389.000000
-90.178360 47.195095 388.000000
-90.178360 47.827339 388.000000
-89.945946 48.334682 387.000000
-89.945946 48.965294 387.000000
-89.945946 49.595905 387.000000
-89.713524 50.096733 386.000000
-89.713524 50.725716 386.000000
-89.713524 51.354698 386.000000
-89.481110 51.849007 385.000000
-89.481110 52.476357 385.000000
-89.481110 53.103710 385.000000
-89.248688 53.591503 384.000000
-89.016266 54.076035 383.000000
-89.016266 54.700127 383.000000
-89.016266 55.324223 383.000000
-88.783852 55.802238 382.000000
-88.783852 56.424706 382.000000
-88.783852 57.047169 382.000000
-88.783852 57.669632 382.000000
-88.783852 58.292095 382.000000
-88.551437 58.760334 381.000000
-88.551437 59.381168 381.000000
-88.551437 60.002003 381.000000
-88.551437 60.622837 381.000000
-88.551437 61.243671 381.000000
-88.551437 61.864506 381.000000
-88.551437 62.485340 381.000000
-88.644402 63.172424 381.399994
-88.644402 63.793915 381.399994
-88.644402 64.415398 381.399994
-88.607208 65.009598 381.239990
-88.589554 65.617744 381.164001
-88.589554 66.238846 381.164001
-88.570114 66.845284 381.080383
-88.548744 67.449966 380.988434
-88.548744 68.070786 380.988434
-88.548477 68.691391 380.987274
-88.548180 69.311974 380.986023
-88.548180 69.932793 380.986023
-88.547859 70.553337 380.984619
-88.547493 71.173866 380.983063
-88.547493 71.794662 380.983063
-88.569916 72.433815 381.079529
-88.569916 73.054771 381.079529
-88.569916 73.675735 381.079529
-88.562469 74.290451 381.047485
-88.077576 74.501221 378.961182
-88.077576 75.118729 378.961182
-86.260490 74.173759 371.143005
-78.092606 67.697861 336.000000
-78.092606 68.245369 336.000000
-78.092606 68.792877 336.000000
-78.065620 69.316422 335.883911
-78.065620 69.863739 335.883911
-77.250854 69.676193 332.378326
-77.219215 70.189034 332.242188
-77.219215 70.730423 332.242188
-76.448944 70.560860 328.928009
-75.784233 70.478668 326.068054
-75.784233 71.009995 326.068054
-74.580170 70.404671 320.887482
-74.164452 70.532188 319.098816
-74.164452 71.052162 319.098816
-67.866188 65.494011 292.000000
-67.866188 65.969818 292.000000
-67.866188 66.445633 292.000000
-67.866188 66.921440 292.000000
-67.866188 67.397255 292.000000
-67.866188 67.873062 292.000000
-67.633774 68.114799 291.000000
-67.633774 68.588982 291.000000
-67.633774 69.063164 291.000000
-67.401352 69.298378 290.000000
-68.927605 77.633118 296.566833
-68.927605 78.116371 296.566833
-68.927605 78.599625 296.566833
-68.927605 79.082870 296.566833
-68.927605 79.566124 296.566833
-68.546043 79.606247 294.925110
-68.832214 80.421181 296.156403
-68.832214 80.903763 296.156403
-68.879913 81.442741 296.361633
-68.879913 81.925659 296.361633
-68.879913 82.408577 296.361633
-90.238777 36.728806 391.000000
-90.238777 37.365932 391.000000
-90.238777 38.003063 391.000000
-90.120087 38.589371 390.485718
-90.056976 39.198189 390.212250
-90.056976 39.834038 390.212250
-89.974594 40.432865 389.855316
-89.914696 41.040787 389.595764
-89.850861 41.646038 389.319153
-89.850861 42.280430 389.319153
-89.784401 42.883080 389.031219
-90.238777 43.737228 391.000000
-90.238777 44.374359 391.000000
-90.238777 45.011490 391.000000
-90.238777 45.648617 391.000000
-90.238777 46.285748 391.000000
-89.777199 46.682861 389.000000
-89.546410 47.195095 388.000000
-89.546410 47.827339 388.000000
-89.315620 48.334682 387.000000
-89.315620 48.965294 387.000000
-89.315620 49.595905 387.000000
-89.084831 50.096733 386.000000
-89.084831 50.725716 386.000000
-89.084831 51.354698 386.000000
-88.854042 51.849007 385.000000
-88.623253 52.340057 384.000000
-88.623253 52.965778 384.000000
-88.392464 53.451939 383.000000
-88.392464 54.076035 383.000000
-88.392464 54.700127 383.000000
-88.392464 55.324223 383.000000
-88.161674 55.802238 382.000000
-88.161674 56.424706 382.000000
-88.161674 57.047169 382.000000
-88.161674 57.669632 382.000000
-88.161674 58.292095 382.000000
-87.930885 58.760334 381.000000
-87.930885 59.381168 381.000000
-87.930885 60.002003 381.000000
-87.930885 60.622837 381.000000
-87.930885 61.243671 381.000000
-87.700089 61.702129 380.000000
-87.700089 62.321335 380.000000
-87.469299 62.774906 379.000000
-87.238518 63.225224 378.000000
-87.238518 63.841171 378.000000
-87.238518 64.457115 378.000000
-87.653931 65.382935 379.799988
-87.653931 66.001808 379.799988
-87.653931 66.620689 379.799988
-87.603157 67.200615 379.579987
-87.603157 67.819145 379.579987
-87.570381 68.412064 379.437988
-87.534340 69.001938 379.281799
-87.534340 69.619965 379.281799
-87.494682 70.206184 379.109985
-87.451057 70.788628 378.920959
-87.451057 71.406075 378.920959
-87.426163 72.003014 378.813080
-87.440178 72.631927 378.873810
-87.440178 73.249298 378.873810
-87.460342 73.883698 378.961182
-87.460342 74.501221 378.961182
-87.460342 75.118729 378.961182
-85.655991 74.173759 371.143005
-77.545349 67.697861 336.000000
-77.545349 68.245369 336.000000
-78.402443 69.553230 339.713745
-78.402443 70.106789 339.713745
-78.402443 70.660355 339.713745
-77.632652 70.514709 336.378326
-77.588409 71.022331 336.186615
-77.588409 71.570137 336.186615
-77.043030 71.611023 333.823486
-76.186440 71.352745 330.111938
-76.186440 71.890656 330.111938
-75.490852 71.767288 327.097992
-73.911354 70.787544 320.254089
-73.911354 71.309395 320.254089
-73.911354 71.831245 320.254089
-67.390594 65.969818 292.000000
-67.390594 66.445633 292.000000
-67.390594 66.921440 292.000000
-67.390594 67.397255 292.000000
-67.390594 67.873062 292.000000
-67.390594 68.348869 292.000000
-67.159813 68.588982 291.000000
-67.159813 69.063164 291.000000
-66.929016 69.298378 290.000000
-68.444572 77.633118 296.566833
-68.444572 78.116371 296.566833
-68.444572 78.599625 296.566833
-68.349854 80.421181 296.156403
-68.349854 80.903763 296.156403
-68.397217 81.442741 296.361633
-68.397217 81.925659 296.361633
-68.397217 82.408577 296.361633
-68.397217 82.891495 296.361633
-68.397217 83.374413 296.361633
-68.397217 83.857330 296.361633
-89.601944 36.728806 391.000000
-89.601944 37.365932 391.000000
-89.601944 38.003063 391.000000
-89.484085 38.589371 390.485718
-89.421417 39.198189 390.212250
-89.421417 39.834038 390.212250
-89.339622 40.432865 389.855316
-89.280144 41.040787 389.595764
-89.216759 41.646038 389.319153
-89.216759 42.280430 389.319153
-89.601944 43.100101 391.000000
-89.601944 43.737228 391.000000
-89.601944 44.374359 391.000000
-89.601944 45.011490 391.000000
-89.601944 45.648617 391.000000
-89.601944 46.285748 391.000000
-89.143623 46.682861 389.000000
-88.914459 47.195095 388.000000
-88.914459 47.827339 388.000000
-88.685295 48.334682 387.000000
-88.685295 48.965294 387.000000
-88.685295 49.595905 387.000000
-88.456131 50.096733 386.000000
-88.456131 50.725716 386.000000
-88.456131 51.354698 386.000000
-88.226974 51.849007 385.000000
-87.997818 52.340057 384.000000
-87.997818 52.965778 384.000000
-87.768654 53.451939 383.000000
-87.768654 54.076035 383.000000
-87.768654 54.700127 383.000000
-87.768654 55.324223 383.000000
-87.539497 55.802238 382.000000
-87.539497 56.424706 382.000000
-87.539497 57.047169 382.000000
-87.539497 57.669632 382.000000
-87.539497 58.292095 382.000000
-87.310333 58.760334 381.000000
-87.081169 59.225307 380.000000
-87.081169 59.844513 380.000000
-87.081169 60.463718 380.000000
-86.852005 60.922180 379.000000
-86.852005 61.539753 379.000000
-86.852005 62.157330 379.000000
-86.852005 62.774906 379.000000
-86.622849 63.225224 378.000000
-86.622849 63.841171 378.000000
-86.393692 64.286591 377.000000
-86.393692 64.900909 377.000000
-86.393692 65.515228 377.000000
-86.760345 66.410202 378.600006
-86.760345 67.027122 378.600006
-86.760345 67.644051 378.600006
-85.822868 67.523384 374.509094
-84.982613 67.466576 370.842438
-84.982613 68.070862 370.842438
-84.807724 68.533821 370.079285
-84.637375 68.997978 369.335907
-84.637375 69.599808 369.335907
-84.452820 70.048561 368.530548
-84.252892 70.481827 367.658112
-84.252892 71.080917 367.658112
-84.055397 71.511986 366.796295
-83.860535 71.942513 365.945984
-83.860535 72.538818 365.945984
-82.362175 71.828392 359.407501
-76.998093 67.697861 336.000000
-76.998093 68.245369 336.000000
-77.849129 69.553230 339.713745
-77.849129 70.106789 339.713745
-77.849129 70.660355 339.713745
-77.084785 70.514709 336.378326
-77.040848 71.022331 336.186615
-77.040848 71.570137 336.186615
-76.499313 71.611023 333.823486
-75.712990 71.413315 330.392181
-75.712990 71.951691 330.392181
-75.712990 72.490059 330.392181
-74.071983 71.445602 323.231232
-74.071983 71.972305 323.231232
-73.389740 71.831245 320.254089
-67.144165 67.150620 293.000000
-67.144165 67.628059 293.000000
-67.144165 68.105499 293.000000
-66.915001 68.348869 292.000000
-66.915001 68.824684 292.000000
-66.915001 69.300491 292.000000
-66.456680 69.298378 290.000000
-66.456680 69.770935 290.000000
-66.456680 70.243484 290.000000
-67.961548 77.633118 296.566833
-67.961548 78.116371 296.566833
-67.961548 78.599625 296.566833
-67.914520 81.442741 296.361633
-67.914520 81.925659 296.361633
-67.914520 82.408577 296.361633
-67.914520 82.891495 296.361633
-67.914520 83.374413 296.361633
-67.914520 83.857330 296.361633
-67.914520 84.340248 296.361633
-88.965103 36.728806 391.000000
-88.965103 37.365932 391.000000
-88.965103 38.003063 391.000000
-88.848091 38.589371 390.485718
-88.785866 39.198189 390.212250
-88.785866 39.834038 390.212250
-88.704651 40.432865 389.855316
-88.645599 41.040787 389.595764
-88.582657 41.646038 389.319153
-88.582657 42.280430 389.319153
-88.965103 43.100101 391.000000
-88.965103 43.737228 391.000000
-88.965103 44.374359 391.000000
-88.965103 45.011490 391.000000
-88.965103 45.648617 391.000000
-88.965103 46.285748 391.000000
-88.510040 46.682861 389.000000
-88.282509 47.195095 388.000000
-88.282509 47.827339 388.000000
-88.054970 48.334682 387.000000
-88.054970 48.965294 387.000000
-88.054970 49.595905 387.000000
-87.827438 50.096733 386.000000
-87.599915 50.594299 385.000000
-87.599915 51.221653 385.000000
-87.599915 51.849007 385.000000
-87.144844 52.203754 383.000000
-87.144844 52.827850 383.000000
-87.144844 53.451939 383.000000
-87.144844 54.076035 383.000000
-87.144844 54.700127 383.000000
-87.144844 55.324223 383.000000
-86.917313 55.802238 382.000000
-86.917313 56.424706 382.000000
-86.917313 57.047169 382.000000
-86.689781 57.518661 381.000000
-86.689781 58.139500 381.000000
-86.689781 58.760334 381.000000
-86.462250 59.225307 380.000000
-86.462250 59.844513 380.000000
-86.462250 60.463718 380.000000
-86.234718 60.922180 379.000000
-86.234718 61.539753 379.000000
-86.234718 62.157330 379.000000
-86.234718 62.774906 379.000000
-86.007187 63.225224 378.000000
-86.007187 63.841171 378.000000
-85.779655 64.286591 377.000000
-85.779655 64.900909 377.000000
-85.779655 65.515228 377.000000
-86.143700 66.410202 378.600006
-86.143700 67.027122 378.600006
-86.143700 67.644051 378.600006
-85.212891 67.523384 374.509094
-84.869522 67.859100 373.000000
-84.869522 68.466896 373.000000
-84.641991 68.889503 372.000000
-84.641991 69.495674 372.000000
-84.641991 70.101845 372.000000
-84.414459 70.517944 371.000000
-84.186928 70.930779 370.000000
-84.186928 71.533684 370.000000
-84.186928 72.136597 370.000000
-84.062820 72.632278 369.454559
-84.062820 73.234299 369.454559
-83.927422 73.717400 368.859497
-82.353668 72.924866 361.942841
-82.353668 73.514648 361.942841
-77.295822 69.553230 339.713745
-77.399132 70.200493 340.167786
-77.399132 70.754791 340.167786
-77.399132 71.309090 340.167786
-77.343544 71.811768 339.923462
-77.343544 72.365677 339.923462
-76.759323 72.368774 337.355835
-76.117737 72.308998 334.536041
-76.117737 72.854118 334.536041
-75.174873 72.490059 330.392181
-73.545525 71.445602 323.231232
-74.039154 72.455368 325.400726
-74.039154 72.985611 325.400726
-74.039154 73.515846 325.400726
-73.637894 73.644791 323.637207
-73.637894 74.172150 323.637207
-66.666946 67.628059 293.000000
-66.666946 68.105499 293.000000
-66.439407 68.348869 292.000000
-66.439407 68.824684 292.000000
-66.439407 69.300491 292.000000
-66.211884 69.537338 291.000000
-65.984344 69.770935 290.000000
-65.984344 70.243484 290.000000
-65.984344 70.716034 290.000000
-67.431824 81.442741 296.361633
-67.431824 81.925659 296.361633
-67.431824 82.408577 296.361633
-67.431824 82.891495 296.361633
-67.431824 83.374413 296.361633
-67.431824 83.857330 296.361633
-67.431824 84.340248 296.361633
-88.328262 36.728806 391.000000
-88.328262 37.365932 391.000000
-88.328262 38.003063 391.000000
-88.195480 38.582108 390.412231
-88.117882 39.183769 390.068695
-88.117882 39.819382 390.068695
-88.059464 40.428177 389.810120
-87.995987 41.033764 389.529114
-87.906258 41.626007 389.131897
-87.906258 42.260094 389.131897
-88.328262 43.100101 391.000000
-88.328262 43.737228 391.000000
-88.328262 44.374359 391.000000
-88.328262 45.011490 391.000000
-88.328262 45.648617 391.000000
-88.328262 46.285748 391.000000
-87.876457 46.682861 389.000000
-87.650558 47.195095 388.000000
-87.650558 47.827339 388.000000
-87.650558 48.459579 388.000000
-87.424652 48.965294 387.000000
-87.424652 49.595905 387.000000
-87.198746 50.096733 386.000000
-86.972847 50.594299 385.000000
-86.972847 51.221653 385.000000
-86.972847 51.849007 385.000000
-86.521034 52.203754 383.000000
-86.521034 52.827850 383.000000
-86.521034 53.451939 383.000000
-86.521034 54.076035 383.000000
-86.521034 54.700127 383.000000
-86.521034 55.324223 383.000000
-86.295135 55.802238 382.000000
-86.295135 56.424706 382.000000
-86.069229 56.897827 381.000000
-86.069229 57.518661 381.000000
-86.069229 58.139500 381.000000
-85.843330 58.606106 380.000000
-85.617424 59.069450 379.000000
-85.617424 59.687027 379.000000
-85.617424 60.304604 379.000000
-85.617424 60.922180 379.000000
-85.391525 61.377384 378.000000
-85.391525 61.993332 378.000000
-85.391525 62.609276 378.000000
-85.391525 63.225224 378.000000
-85.391525 63.841171 378.000000
-85.165619 64.286591 377.000000
-84.939713 64.728760 376.000000
-84.939713 65.341446 376.000000
-84.713806 65.778725 375.000000
-84.713806 66.389786 375.000000
-84.713806 67.000839 375.000000
-84.487907 67.431595 374.000000
-84.262001 67.859100 373.000000
-84.262001 68.466896 373.000000
-84.036095 68.889503 372.000000
-84.036095 69.495674 372.000000
-84.036095 70.101845 372.000000
-83.810196 70.517944 371.000000
-83.584297 70.930779 370.000000
-83.584297 71.533684 370.000000
-83.584297 72.136597 370.000000
-83.461075 72.632278 369.454559
-83.461075 73.234299 369.454559
-83.326645 73.717400 368.859497
-81.764153 72.924866 361.942841
-81.764153 73.514648 361.942841
-76.845093 70.200493 340.167786
-76.845093 70.754791 340.167786
-76.845093 71.309090 340.167786
-76.789894 71.811768 339.923462
-76.789894 72.365677 339.923462
-77.040833 73.157860 341.034271
-77.040833 73.713570 341.034271
-77.040833 74.269287 341.034271
-77.012344 74.797318 340.908142
-77.012344 75.352829 340.908142
-74.095268 73.033081 327.995239
-74.095268 73.567543 327.995239
-73.509163 73.515846 325.400726
-73.110771 73.644791 323.637207
-73.110771 74.172150 323.637207
-66.189720 67.628059 293.000000
-66.189720 68.105499 293.000000
-66.189720 68.582939 293.000000
-65.963814 68.824684 292.000000
-65.963814 69.300491 292.000000
-65.737915 69.537338 291.000000
-65.512016 69.770935 290.000000
-65.512016 70.243484 290.000000
-65.512016 70.716034 290.000000
-66.949127 82.891495 296.361633
-66.949127 83.374413 296.361633
-66.949127 83.857330 296.361633
-66.949127 84.340248 296.361633
-66.949127 84.823166 296.361633
-66.949127 85.306084 296.361633
-66.949127 85.789001 296.361633
-66.949127 86.271919 296.361633
-66.949127 86.754837 296.361633
-66.949127 87.237747 296.361633
-87.691429 36.728806 391.000000
-87.691429 37.365932 391.000000
-87.691429 38.003063 391.000000
-87.559608 38.582108 390.412231
-87.482559 39.183769 390.068695
-87.482559 39.819382 390.068695
-87.424568 40.428177 389.810120
-87.361542 41.033764 389.529114
-87.272461 41.626007 389.131897
-87.272461 42.260094 389.131897
-87.206268 42.861645 388.836761
-87.691429 43.737228 391.000000
-87.691429 44.374359 391.000000
-87.691429 45.011490 391.000000
-87.691429 45.648617 391.000000
-87.691429 46.285748 391.000000
-87.242882 46.682861 389.000000
-87.018600 47.195095 388.000000
-87.018600 47.827339 388.000000
-87.018600 48.459579 388.000000
-86.794327 48.965294 387.000000
-86.794327 49.595905 387.000000
-86.570053 50.096733 386.000000
-86.345779 50.594299 385.000000
-86.345779 51.221653 385.000000
-86.345779 51.849007 385.000000
-85.897224 52.203754 383.000000
-85.897224 52.827850 383.000000
-85.897224 53.451939 383.000000
-85.897224 54.076035 383.000000
-85.897224 54.700127 383.000000
-85.897224 55.324223 383.000000
-85.672958 55.802238 382.000000
-85.672958 56.424706 382.000000
-85.448685 56.897827 381.000000
-85.448685 57.518661 381.000000
-85.448685 58.139500 381.000000
-85.224403 58.606106 380.000000
-85.000130 59.069450 379.000000
-85.000130 59.687027 379.000000
-85.000130 60.304604 379.000000
-85.000130 60.922180 379.000000
-84.775856 61.377384 378.000000
-84.775856 61.993332 378.000000
-84.775856 62.609276 378.000000
-84.775856 63.225224 378.000000
-84.775856 63.841171 378.000000
-84.551582 64.286591 377.000000
-84.327309 64.728760 376.000000
-84.327309 65.341446 376.000000
-84.103027 65.778725 375.000000
-84.103027 66.389786 375.000000
-84.103027 67.000839 375.000000
-83.878761 67.431595 374.000000
-83.654480 67.859100 373.000000
-83.654480 68.466896 373.000000
-83.430206 68.889503 372.000000
-83.430206 69.495674 372.000000
-83.430206 70.101845 372.000000
-83.205933 70.517944 371.000000
-82.981659 70.930779 370.000000
-82.981659 71.533684 370.000000
-82.981659 72.136597 370.000000
-82.859329 72.632278 369.454559
-82.859329 73.234299 369.454559
-82.725868 73.717400 368.859497
-82.308838 73.943794 367.000000
-82.308838 74.541817 367.000000
-82.084557 74.935097 366.000000
-82.084557 75.531487 366.000000
-82.084557 76.127876 366.000000
-76.291046 71.309090 340.167786
-76.236252 71.811768 339.923462
-76.236252 72.365677 339.923462
-76.485382 73.157860 341.034271
-76.485382 73.713570 341.034271
-76.485382 74.269287 341.034271
-76.457085 74.797318 340.908142
-76.457085 75.352829 340.908142
-73.561050 73.033081 327.995239
-73.561050 73.567543 327.995239
-73.192726 73.730972 326.352936
-72.845505 73.910469 324.804749
-72.845505 74.439728 324.804749
-65.712502 67.628059 293.000000
-65.712502 68.105499 293.000000
-65.712502 68.582939 293.000000
-65.712502 69.060379 293.000000
-65.712502 69.537819 293.000000
-65.263954 69.537338 291.000000
-65.263954 70.011520 291.000000
-65.263954 70.485703 291.000000
-65.263954 70.959885 291.000000
-65.263954 71.434067 291.000000
-65.039680 71.661140 290.000000
-65.039680 72.133690 290.000000
-66.466431 83.374413 296.361633
-66.466431 83.857330 296.361633
-66.466431 84.340248 296.361633
-66.466431 84.823166 296.361633
-66.466431 85.306084 296.361633
-66.466431 85.789001 296.361633
-66.466431 86.271919 296.361633
-66.466431 86.754837 296.361633
-66.466431 87.237747 296.361633
-66.466431 87.720673 296.361633
-66.466431 88.203590 296.361633
-66.466431 88.686501 296.361633
-87.054588 36.728806 391.000000
-87.054588 37.365932 391.000000
-87.054588 38.003063 391.000000
-86.923721 38.582108 390.412231
-86.847237 39.183769 390.068695
-86.847237 39.819382 390.068695
-86.789673 40.428177 389.810120
-86.727104 41.033764 389.529114
-86.624123 41.619019 389.066589
-86.624123 42.252998 389.066589
-86.562935 42.856686 388.791779
-87.054588 43.737228 391.000000
-87.054588 44.374359 391.000000
-87.054588 45.011490 391.000000
-87.054588 45.648617 391.000000
-87.054588 46.285748 391.000000
-86.609299 46.682861 389.000000
-86.386650 47.195095 388.000000
-86.386650 47.827339 388.000000
-86.386650 48.459579 388.000000
-86.164001 48.965294 387.000000
-86.164001 49.595905 387.000000
-85.941353 50.096733 386.000000
-85.718712 50.594299 385.000000
-85.718712 51.221653 385.000000
-85.718712 51.849007 385.000000
-85.496071 52.340057 384.000000
-85.496071 52.965778 384.000000
-85.273422 53.451939 383.000000
-85.273422 54.076035 383.000000
-85.273422 54.700127 383.000000
-85.050781 55.179775 382.000000
-85.050781 55.802238 382.000000
-85.050781 56.424706 382.000000
-84.828133 56.897827 381.000000
-84.828133 57.518661 381.000000
-84.828133 58.139500 381.000000
-84.605484 58.606106 380.000000
-84.382835 59.069450 379.000000
-84.382835 59.687027 379.000000
-84.382835 60.304604 379.000000
-84.382835 60.922180 379.000000
-84.160194 61.377384 378.000000
-84.160194 61.993332 378.000000
-84.160194 62.609276 378.000000
-84.160194 63.225224 378.000000
-84.160194 63.841171 378.000000
-83.937546 64.286591 377.000000
-83.714897 64.728760 376.000000
-83.714897 65.341446 376.000000
-83.492249 65.778725 375.000000
-83.492249 66.389786 375.000000
-83.492249 67.000839 375.000000
-83.269608 67.431595 374.000000
-83.046959 67.859100 373.000000
-83.046959 68.466896 373.000000
-82.824318 68.889503 372.000000
-82.824318 69.495674 372.000000
-82.824318 70.101845 372.000000
-82.601669 70.517944 371.000000
-82.379028 70.930779 370.000000
-82.379028 71.533684 370.000000
-82.379028 72.136597 370.000000
-82.156380 72.542915 369.000000
-82.156380 73.144196 369.000000
-81.933731 73.545624 368.000000
-81.711090 73.943794 367.000000
-81.711090 74.541817 367.000000
-81.488441 74.935097 366.000000
-81.488441 75.531487 366.000000
-81.488441 76.127876 366.000000
-81.265793 76.514641 365.000000
-81.265793 77.109406 365.000000
-81.265793 77.704170 365.000000
-81.043144 78.084419 364.000000
-75.929924 73.713570 341.034271
-75.929924 74.269287 341.034271
-75.907440 74.802849 340.933319
-75.901840 75.352829 340.908142
-75.061325 75.067749 337.133026
-75.061325 75.617096 337.133026
-72.661179 73.730972 326.352936
-72.316483 73.910469 324.804749
-72.316483 74.439728 324.804749
-65.235283 67.628059 293.000000
-65.235283 68.105499 293.000000
-65.235283 68.582939 293.000000
-65.235283 69.060379 293.000000
-65.235283 69.537819 293.000000
-64.789993 70.011520 291.000000
-64.789993 70.485703 291.000000
-64.789993 70.959885 291.000000
-64.789993 71.434067 291.000000
-64.789993 71.908249 291.000000
-64.789993 72.382423 291.000000
-64.567345 72.606239 290.000000
-65.983734 83.374413 296.361633
-65.983734 83.857330 296.361633
-65.983734 84.340248 296.361633
-65.983734 84.823166 296.361633
-65.983734 85.306084 296.361633
-65.983734 85.789001 296.361633
-65.983734 86.271919 296.361633
-65.983734 86.754837 296.361633
-65.983734 87.237747 296.361633
-65.983734 87.720673 296.361633
-65.983734 88.203590 296.361633
-65.983734 88.686501 296.361633
-86.417747 36.728806 391.000000
-86.417747 37.365932 391.000000
-86.417747 38.003063 391.000000
-86.296165 38.585827 390.449890
-86.260826 39.205997 390.289978
-86.260826 39.841972 390.289978
-86.110794 40.407543 389.611176
-86.054810 41.015724 389.357849
-86.000183 41.623737 389.110687
-86.000183 42.257790 389.110687
-85.989655 42.886589 389.063049
-85.929787 43.490265 388.792175
-85.929787 44.123795 388.792175
-86.417747 45.011490 391.000000
-86.417747 45.648617 391.000000
-86.417747 46.285748 391.000000
-86.196732 46.802872 390.000000
-85.975716 47.316730 389.000000
-85.975716 47.950603 389.000000
-85.754700 48.459579 388.000000
-85.533684 48.965294 387.000000
-85.533684 49.595905 387.000000
-85.533684 50.226517 387.000000
-85.312660 50.725716 386.000000
-85.312660 51.354698 386.000000
-85.091652 51.849007 385.000000
-84.870628 52.340057 384.000000
-84.870628 52.965778 384.000000
-84.649612 53.451939 383.000000
-84.649612 54.076035 383.000000
-84.649612 54.700127 383.000000
-84.428596 55.179775 382.000000
-84.428596 55.802238 382.000000
-84.428596 56.424706 382.000000
-84.207581 56.897827 381.000000
-84.207581 57.518661 381.000000
-84.207581 58.139500 381.000000
-83.986565 58.606106 380.000000
-83.765541 59.069450 379.000000
-83.765541 59.687027 379.000000
-83.765541 60.304604 379.000000
-83.544533 60.761440 378.000000
-83.544533 61.377384 378.000000
-83.544533 61.993332 378.000000
-83.544533 62.609276 378.000000
-83.323509 63.057961 377.000000
-83.323509 63.672276 377.000000
-83.102493 64.116066 376.000000
-82.881470 64.556610 375.000000
-82.881470 65.167671 375.000000
-82.881470 65.778725 375.000000
-82.660461 66.212746 374.000000
-82.660461 66.822166 374.000000
-82.439438 67.251297 373.000000
-82.439438 67.859100 373.000000
-82.439438 68.466896 373.000000
-82.218422 68.889503 372.000000
-82.218422 69.495674 372.000000
-82.218422 70.101845 372.000000
-81.997406 70.517944 371.000000
-81.776390 70.930779 370.000000
-81.776390 71.533684 370.000000
-81.776390 72.136597 370.000000
-81.555374 72.542915 369.000000
-81.555374 73.144196 369.000000
-81.334351 73.545624 368.000000
-81.113342 73.943794 367.000000
-81.113342 74.541817 367.000000
-80.892319 74.935097 366.000000
-80.892319 75.531487 366.000000
-80.892319 76.127876 366.000000
-80.671303 76.514641 365.000000
-80.671303 77.109406 365.000000
-80.671303 77.704170 365.000000
-80.450287 78.084419 364.000000
-80.008255 78.245255 362.000000
-75.352150 74.247299 340.933319
-75.352150 74.802849 340.933319
-75.145874 75.152100 340.000000
-74.748039 75.305328 338.200012
-74.748039 75.856415 338.200012
-74.323692 75.973732 336.279999
-73.885780 76.070839 334.298676
-73.885780 76.615570 334.298676
-73.433411 76.687897 332.251923
-64.758057 68.582939 293.000000
-71.043114 75.762993 321.436951
-71.043114 76.286774 321.436951
-71.043114 76.810555 321.436951
-70.885353 77.162598 320.723145
-64.537041 70.727921 292.000000
-64.537041 71.203735 292.000000
-64.537041 71.679543 292.000000
-64.316025 71.908249 291.000000
-64.316025 72.382423 291.000000
-64.095009 72.606239 290.000000
-65.501038 86.271919 296.361633
-65.501038 86.754837 296.361633
-65.501038 87.237747 296.361633
-65.501038 87.720673 296.361633
-65.501038 88.203590 296.361633
-65.501038 88.686501 296.361633
-85.780914 36.728806 391.000000
-85.780914 37.365932 391.000000
-85.780914 38.003063 391.000000
-85.660225 38.585827 390.449890
-85.625145 39.205997 390.289978
-85.625145 39.841972 390.289978
-85.476227 40.407543 389.611176
-85.420639 41.015724 389.357849
-85.366417 41.623737 389.110687
-85.366417 42.257790 389.110687
-85.355972 42.886589 389.063049
-85.296539 43.490265 388.792175
-85.296539 44.123795 388.792175
-85.780914 45.011490 391.000000
-85.780914 45.648617 391.000000
-85.780914 46.285748 391.000000
-85.561523 46.802872 390.000000
-85.342140 47.316730 389.000000
-85.342140 47.950603 389.000000
-85.122749 48.459579 388.000000
-84.903358 48.965294 387.000000
-84.903358 49.595905 387.000000
-84.903358 50.226517 387.000000
-84.683968 50.725716 386.000000
-84.683968 51.354698 386.000000
-84.464584 51.849007 385.000000
-84.245193 52.340057 384.000000
-84.245193 52.965778 384.000000
-84.025803 53.451939 383.000000
-84.025803 54.076035 383.000000
-84.025803 54.700127 383.000000
-84.025803 55.324223 383.000000
-83.806419 55.802238 382.000000
-83.806419 56.424706 382.000000
-83.587029 56.897827 381.000000
-83.587029 57.518661 381.000000
-83.587029 58.139500 381.000000
-83.367638 58.606106 380.000000
-83.148247 59.069450 379.000000
-83.148247 59.687027 379.000000
-83.148247 60.304604 379.000000
-82.928864 60.761440 378.000000
-82.928864 61.377384 378.000000
-82.928864 61.993332 378.000000
-82.928864 62.609276 378.000000
-82.709473 63.057961 377.000000
-82.709473 63.672276 377.000000
-82.270699 63.945553 375.000000
-82.270699 64.556610 375.000000
-82.270699 65.167671 375.000000
-82.051308 65.603317 374.000000
-82.051308 66.212746 374.000000
-82.051308 66.822166 374.000000
-81.831924 67.251297 373.000000
-81.612534 67.677170 372.000000
-81.612534 68.283340 372.000000
-81.612534 68.889503 372.000000
-81.393143 69.308861 371.000000
-81.393143 69.913406 371.000000
-81.393143 70.517944 371.000000
-81.173759 70.930779 370.000000
-81.173759 71.533684 370.000000
-80.954369 71.941628 369.000000
-80.954369 72.542915 369.000000
-80.954369 73.144196 369.000000
-80.515594 73.345772 367.000000
-80.515594 73.943794 367.000000
-80.515594 74.541817 367.000000
-80.296204 74.935097 366.000000
-80.296204 75.531487 366.000000
-80.296204 76.127876 366.000000
-80.076813 76.514641 365.000000
-80.076813 77.109406 365.000000
-80.076813 77.704170 365.000000
-79.857422 78.084419 364.000000
-79.418648 78.245255 362.000000
-74.796860 74.247299 340.933319
-74.796860 74.802849 340.933319
-74.592102 75.152100 340.000000
-74.197205 75.305328 338.200012
-74.197205 75.856415 338.200012
-73.775970 75.973732 336.279999
-73.341293 76.070839 334.298676
-73.341293 76.615570 334.298676
-73.482483 77.308853 334.942230
-73.482483 77.854637 334.942230
-73.482483 78.400421 334.942230
-70.519577 75.762993 321.436951
-70.519577 76.286774 321.436951
-70.519577 76.810555 321.436951
-70.362976 77.162598 320.723145
-64.280838 70.970139 293.000000
-64.280838 71.447578 293.000000
-64.280838 71.925018 293.000000
-64.061447 72.155357 292.000000
-64.061447 72.631165 292.000000
-63.622673 72.606239 290.000000
-63.622673 73.078789 290.000000
-63.622673 73.551338 290.000000
-85.144073 36.728806 391.000000
-85.144073 37.365932 391.000000
-85.144073 38.003063 391.000000
-85.035179 38.590771 390.499908
-85.017044 39.218723 390.416656
-85.017044 39.854904 390.416656
-84.951263 40.459751 390.114563
-84.905212 41.073162 389.903107
-84.777458 41.645744 389.316406
-84.777458 42.280128 389.316406
-84.740395 42.895756 389.146210
-85.144073 43.737228 391.000000
-85.144073 44.374359 391.000000
-85.144073 45.011490 391.000000
-85.144073 45.648617 391.000000
-85.144073 46.285748 391.000000
-84.926315 46.802872 390.000000
-84.708557 47.316730 389.000000
-84.708557 47.950603 389.000000
-84.490799 48.459579 388.000000
-84.490799 49.091820 388.000000
-84.490799 49.724060 388.000000
-84.273033 50.226517 387.000000
-84.055275 50.725716 386.000000
-84.055275 51.354698 386.000000
-84.055275 51.983681 386.000000
-83.837517 52.476357 385.000000
-83.837517 53.103710 385.000000
-83.619759 53.591503 384.000000
-83.401993 54.076035 383.000000
-83.401993 54.700127 383.000000
-83.401993 55.324223 383.000000
-83.184242 55.802238 382.000000
-83.184242 56.424706 382.000000
-82.966476 56.897827 381.000000
-82.966476 57.518661 381.000000
-82.966476 58.139500 381.000000
-82.748718 58.606106 380.000000
-82.530952 59.069450 379.000000
-82.530952 59.687027 379.000000
-82.530952 60.304604 379.000000
-82.313202 60.761440 378.000000
-82.313202 61.377384 378.000000
-82.313202 61.993332 378.000000
-82.313202 62.609276 378.000000
-82.095436 63.057961 377.000000
-82.095436 63.672276 377.000000
-81.659920 63.945553 375.000000
-81.659920 64.556610 375.000000
-81.659920 65.167671 375.000000
-81.442162 65.603317 374.000000
-81.442162 66.212746 374.000000
-81.442162 66.822166 374.000000
-81.224403 67.251297 373.000000
-81.006638 67.677170 372.000000
-81.006638 68.283340 372.000000
-81.006638 68.889503 372.000000
-80.788879 69.308861 371.000000
-80.788879 69.913406 371.000000
-80.571121 70.327866 370.000000
-80.571121 70.930779 370.000000
-80.571121 71.533684 370.000000
-80.353363 71.941628 369.000000
-80.135597 72.346321 368.000000
-80.135597 72.945976 368.000000
-79.917847 73.345772 367.000000
-79.917847 73.943794 367.000000
-79.917847 74.541817 367.000000
-79.700081 74.935097 366.000000
-79.482323 75.325119 365.000000
-79.482323 75.919876 365.000000
-79.482323 76.514641 365.000000
-79.264557 76.898148 364.000000
-79.264557 77.491280 364.000000
-79.264557 78.084419 364.000000
-78.829041 78.245255 362.000000
-78.611282 78.617355 361.000000
-78.611282 79.205597 361.000000
-75.360245 76.493896 346.070526
-75.360245 77.057816 346.070526
-75.360245 77.621735 346.070526
-74.162567 76.943069 340.570526
-73.767021 77.084694 338.754120
-73.767021 77.636688 338.754120
-73.358795 77.755981 336.879425
-72.936951 77.854637 334.942230
-72.936951 78.400421 334.942230
-69.996040 75.762993 321.436951
-69.996040 76.286774 321.436951
-69.996040 76.810555 321.436951
-69.840607 77.162598 320.723145
-63.803616 70.970139 293.000000
-63.803616 71.447578 293.000000
-63.803616 71.925018 293.000000
-63.585854 72.155357 292.000000
-63.585854 72.631165 292.000000
-63.368099 72.856606 291.000000
-63.150337 73.078789 290.000000
-63.150337 73.551338 290.000000
-63.150337 74.023895 290.000000
-84.507240 36.728806 391.000000
-84.507240 37.365932 391.000000
-84.507240 38.003063 391.000000
-84.399155 38.590771 390.499908
-84.397202 39.226177 390.490875
-84.397202 39.862480 390.490875
-84.351173 40.476688 390.277893
-84.296471 41.085983 390.024811
-84.237038 41.692108 389.749817
-84.237038 42.327198 389.749817
-84.112152 42.898598 389.171997
-84.507240 43.737228 391.000000
-84.507240 44.374359 391.000000
-84.507240 45.011490 391.000000
-84.507240 45.648617 391.000000
-84.507240 46.285748 391.000000
-84.291107 46.802872 390.000000
-84.291107 47.438370 390.000000
-84.291107 48.073872 390.000000
-84.074974 48.584473 389.000000
-83.858849 49.091820 388.000000
-83.858849 49.724060 388.000000
-83.642715 50.226517 387.000000
-83.642715 50.857128 387.000000
-83.642715 51.487740 387.000000
-83.426582 51.983681 386.000000
-83.210457 52.476357 385.000000
-83.210457 53.103710 385.000000
-82.994324 53.591503 384.000000
-82.994324 54.217228 384.000000
-82.994324 54.842949 384.000000
-82.778191 55.324223 383.000000
-82.778191 55.948315 383.000000
-82.778191 56.572407 383.000000
-82.562065 57.047169 382.000000
-82.345932 57.518661 381.000000
-82.345932 58.139500 381.000000
-82.345932 58.760334 381.000000
-82.129799 59.225307 380.000000
-82.129799 59.844513 380.000000
-81.913666 60.304604 379.000000
-81.697540 60.761440 378.000000
-81.697540 61.377384 378.000000
-81.697540 61.993332 378.000000
-81.697540 62.609276 378.000000
-81.481407 63.057961 377.000000
-81.481407 63.672276 377.000000
-81.049141 63.945553 375.000000
-81.049141 64.556610 375.000000
-81.049141 65.167671 375.000000
-80.833015 65.603317 374.000000
-80.833015 66.212746 374.000000
-80.833015 66.822166 374.000000
-80.616882 67.251297 373.000000
-80.400749 67.677170 372.000000
-80.400749 68.283340 372.000000
-80.400749 68.889503 372.000000
-80.184616 69.308861 371.000000
-80.184616 69.913406 371.000000
-79.968491 70.327866 370.000000
-79.968491 70.930779 370.000000
-79.968491 71.533684 370.000000
-79.752357 71.941628 369.000000
-79.536224 72.346321 368.000000
-79.536224 72.945976 368.000000
-79.320099 73.345772 367.000000
-79.320099 73.943794 367.000000
-79.320099 74.541817 367.000000
-78.887833 74.730354 365.000000
-78.887833 75.325119 365.000000
-78.887833 75.919876 365.000000
-78.671700 76.305016 364.000000
-78.671700 76.898148 364.000000
-78.671700 77.491280 364.000000
-78.455574 77.869896 363.000000
-78.239441 78.245255 362.000000
-78.023308 78.617355 361.000000
-78.023308 79.205597 361.000000
-76.060112 77.786102 351.916656
-74.796585 77.057816 346.070526
-74.796585 77.621735 346.070526
-73.607864 76.943069 340.570526
-73.371147 77.248795 339.475281
-73.371147 77.801971 339.475281
-72.977097 77.934319 337.652069
-72.585777 78.063675 335.841522
-72.585777 78.610916 335.841522
-72.166504 78.700928 333.901611
-71.732727 78.768692 331.894592
-71.732727 79.309509 331.894592
-71.283401 79.350151 329.815643
-63.542526 71.212357 294.000000
-63.542526 71.691429 294.000000
-63.326393 71.925018 293.000000
-63.110260 72.155357 292.000000
-63.110260 72.631165 292.000000
-62.894135 72.856606 291.000000
-62.678001 73.078789 290.000000
-62.678001 73.551338 290.000000
-62.678001 74.023895 290.000000
-83.870399 36.728806 391.000000
-83.870399 37.365932 391.000000
-83.870399 38.003063 391.000000
-83.763130 38.590771 390.499908
-83.761192 39.226177 390.490875
-83.761192 39.862480 390.490875
-83.715500 40.476688 390.277893
-83.661217 41.085983 390.024811
-83.602234 41.692108 389.749817
-83.602234 42.327198 389.749817
-83.478294 42.898598 389.171997
-83.870399 43.737228 391.000000
-83.870399 44.374359 391.000000
-83.870399 45.011490 391.000000
-83.870399 45.648617 391.000000
-83.870399 46.285748 391.000000
-83.655891 46.802872 390.000000
-83.655891 47.438370 390.000000
-83.655891 48.073872 390.000000
-83.441399 48.584473 389.000000
-83.226891 49.091820 388.000000
-83.226891 49.724060 388.000000
-83.012390 50.226517 387.000000
-83.012390 50.857128 387.000000
-83.012390 51.487740 387.000000
-82.797882 51.983681 386.000000
-82.583389 52.476357 385.000000
-82.583389 53.103710 385.000000
-82.368881 53.591503 384.000000
-82.368881 54.217228 384.000000
-82.368881 54.842949 384.000000
-82.368881 55.468674 384.000000
-82.154381 55.948315 383.000000
-82.154381 56.572407 383.000000
-81.939880 57.047169 382.000000
-81.939880 57.669632 382.000000
-81.939880 58.292095 382.000000
-81.725380 58.760334 381.000000
-81.510872 59.225307 380.000000
-81.510872 59.844513 380.000000
-81.296371 60.304604 379.000000
-81.081871 60.761440 378.000000
-81.081871 61.377384 378.000000
-81.081871 61.993332 378.000000
-81.081871 62.609276 378.000000
-80.867371 63.057961 377.000000
-80.867371 63.672276 377.000000
-80.438362 63.945553 375.000000
-80.223862 64.384460 374.000000
-80.223862 64.993889 374.000000
-80.223862 65.603317 374.000000
-80.223862 66.212746 374.000000
-80.223862 66.822166 374.000000
-80.009361 67.251297 373.000000
-79.794853 67.677170 372.000000
-79.794853 68.283340 372.000000
-79.794853 68.889503 372.000000
-79.365852 69.122047 370.000000
-79.365852 69.724953 370.000000
-79.365852 70.327866 370.000000
-79.365852 70.930779 370.000000
-79.365852 71.533684 370.000000
-79.151352 71.941628 369.000000
-78.722351 72.149727 367.000000
-78.722351 72.747749 367.000000
-78.722351 73.345772 367.000000
-78.507843 73.742310 366.000000
-78.507843 74.338699 366.000000
-78.293343 74.730354 365.000000
-78.293343 75.325119 365.000000
-78.293343 75.919876 365.000000
-78.078835 76.305016 364.000000
-78.078835 76.898148 364.000000
-78.078835 77.491280 364.000000
-77.864342 77.869896 363.000000
-77.649834 78.245255 362.000000
-77.435333 78.617355 361.000000
-77.435333 79.205597 361.000000
-76.577324 78.909698 357.000000
-75.236679 78.099770 350.750000
-75.236679 78.671310 350.750000
-73.982666 77.922066 344.903839
-72.818230 77.248795 339.475281
-72.818230 77.801971 339.475281
-72.427147 77.934319 337.652069
-72.038780 78.063675 335.841522
-72.038780 78.610916 335.841522
-71.622665 78.700928 333.901611
