1.903745 64.979309 354.000000
1.903745 65.556145 354.000000
1.903745 66.132988 354.000000
1.903745 66.709824 354.000000
1.898367 67.096588 353.000000
1.898367 67.671799 353.000000
1.898367 68.247002 353.000000
1.892989 68.627251 352.000000
1.887611 69.004242 351.000000
1.887611 69.576187 351.000000
1.882233 69.948288 350.000000
1.876855 70.317123 349.000000
1.876855 70.885811 349.000000
1.866100 71.045029 347.000000
1.866100 71.610458 347.000000
1.866100 72.175888 347.000000
1.855344 72.322060 345.000000
1.844589 72.461716 343.000000
1.844589 73.020630 343.000000
1.839211 73.365028 342.000000
1.833833 73.706161 341.000000
1.833833 74.261818 341.000000
1.828455 74.598068 340.000000
1.823078 74.931061 339.000000
1.823078 75.483459 339.000000
1.823078 76.035851 339.000000
1.817700 76.362320 338.000000
1.812322 76.685539 337.000000
1.812322 77.234680 337.000000
1.806944 77.553001 336.000000
1.801566 77.868065 335.000000
1.801566 78.413940 335.000000
1.796188 78.724121 334.000000
1.790810 79.031044 333.000000
1.790810 79.573662 333.000000
1.785433 79.875687 332.000000
1.780055 80.174454 331.000000
1.780055 80.713814 331.000000
1.774677 81.007706 330.000000
1.769299 81.298325 329.000000
1.769299 81.834427 329.000000
1.769299 82.370529 329.000000
1.769299 82.906631 329.000000
1.769299 83.442734 329.000000
1.763921 83.723579 328.000000
1.763921 84.258049 328.000000
1.763921 84.792519 328.000000
1.758544 85.066849 327.000000
1.758544 85.599686 327.000000
1.758544 86.132530 327.000000
1.753166 86.400345 326.000000
1.747788 86.664894 325.000000
1.747788 87.194481 325.000000
1.742410 87.454140 324.000000
1.737033 87.710548 323.000000
1.737033 88.236877 323.000000
1.737033 88.763199 323.000000
1.720899 88.460213 320.000000
1.720899 88.981644 320.000000
1.720899 89.503082 320.000000
1.715521 89.743187 319.000000
1.704766 89.697083 317.000000
1.704766 90.213623 317.000000
1.704766 90.730171 317.000000
1.699388 90.958885 316.000000
1.699388 91.473801 316.000000
1.699388 91.988716 316.000000
1.694010 92.210899 315.000000
1.694010 92.724190 315.000000
1.688632 92.941483 314.000000
1.683254 93.155525 313.000000
1.683254 93.665558 313.000000
1.672499 93.573822 311.000000
1.672499 94.080589 311.000000
1.672499 94.587364 311.000000
1.672499 95.094131 311.000000
1.667121 95.293503 310.000000
1.667121 95.798645 310.000000
1.661743 95.993134 309.000000
1.656365 96.184357 308.000000
1.656365 96.686234 308.000000
1.656365 97.188118 308.000000
1.650988 97.372826 307.000000
1.650988 97.873077 307.000000
1.650988 98.373329 307.000000
1.645610 98.551521 306.000000
1.645610 99.050148 306.000000
1.645610 99.548767 306.000000
1.640232 99.720436 305.000000
1.640232 100.217430 305.000000
1.634854 100.384209 304.000000
1.624099 100.215897 302.000000
1.624099 100.708000 302.000000
1.624099 101.200111 302.000000
1.618721 101.355484 301.000000
1.618721 101.845955 301.000000
1.618721 102.336433 301.000000
1.613343 102.485291 300.000000
1.613343 102.974136 300.000000
1.613343 103.462982 300.000000
1.607965 103.605324 299.000000
1.607965 104.092545 299.000000
1.607965 104.579758 299.000000
1.602587 104.715584 298.000000
1.597209 104.848145 297.000000
1.597209 105.332100 297.000000
1.597209 105.816055 297.000000
1.591832 105.942101 296.000000
1.591832 106.424431 296.000000
1.586454 106.545593 295.000000
1.586454 107.026283 295.000000
1.586454 107.506981 295.000000
1.581076 107.621628 294.000000
1.581076 108.100700 294.000000
1.581076 108.579773 294.000000
1.581076 109.058838 294.000000
1.575698 109.165329 293.000000
1.575698 109.642769 293.000000
1.570320 109.744370 292.000000
1.570320 110.220177 292.000000
1.570320 110.695992 292.000000
1.570320 111.171799 292.000000
1.564943 111.265251 291.000000
1.564943 111.739433 291.000000
1.564943 112.213615 291.000000
1.564943 112.687798 291.000000
1.564943 113.161980 291.000000
1.559565 113.245651 290.000000
1.564610 114.086075 290.938110
1.564610 114.560150 290.938110
1.564610 115.034233 290.938110
1.563846 115.451958 290.796173
1.562640 115.836357 290.571808
1.562640 116.309845 290.571808
1.562461 118.190254 290.538574
1.562461 118.663689 290.538574
1.562461 119.137115 290.538574
1.561896 119.567314 290.433563
2.655483 16.456730 379.000000
2.655483 17.074306 379.000000
2.655483 17.691881 379.000000
2.655483 18.309458 379.000000
2.655483 18.927034 379.000000
2.655483 19.544609 379.000000
2.648476 20.108986 378.000000
2.648476 20.724932 378.000000
2.648476 21.340879 378.000000
2.648476 21.956825 378.000000
2.648476 22.572771 378.000000
2.648476 23.188717 378.000000
2.648476 23.804663 378.000000
2.648476 24.420610 378.000000
2.648476 25.036556 378.000000
2.648476 25.652502 378.000000
2.648476 26.268448 378.000000
2.641470 26.813272 377.000000
2.641470 27.427588 377.000000
2.634463 27.967525 376.000000
2.634463 28.580212 376.000000
2.634463 29.192900 376.000000
2.627457 29.726315 375.000000
2.627457 30.337372 375.000000
2.627457 30.948431 375.000000
2.627457 31.559488 375.000000
2.627457 32.170547 375.000000
2.627457 32.781605 375.000000
2.620450 33.303616 374.000000
2.620450 33.913044 374.000000
2.620450 34.522472 374.000000
2.613443 35.037964 373.000000
2.613443 35.645763 373.000000
2.613443 36.253559 373.000000
2.606437 36.762535 372.000000
2.606437 37.368706 372.000000
2.606437 37.974876 372.000000
2.599431 38.477333 371.000000
2.599431 39.081875 371.000000
2.599431 39.686413 371.000000
2.592424 40.182350 370.000000
2.592424 40.785259 370.000000
2.592424 41.388172 370.000000
2.592424 41.991081 370.000000
2.585417 42.478874 369.000000
2.585417 43.080154 369.000000
2.585417 43.681435 369.000000
2.585417 44.282715 369.000000
2.585417 44.883995 369.000000
2.585417 45.485279 369.000000
2.585417 46.086559 369.000000
2.578411 46.561314 368.000000
2.578411 47.160965 368.000000
2.578411 47.760616 368.000000
2.578411 48.360268 368.000000
2.578411 48.959919 368.000000
2.571404 49.424896 367.000000
2.571404 50.022919 367.000000
2.571404 50.620941 367.000000
2.564398 51.079399 366.000000
2.564398 51.675793 366.000000
2.564398 52.272186 366.000000
2.557391 52.724129 365.000000
2.557391 53.318893 365.000000
2.557391 53.913651 365.000000
2.543378 54.209740 363.000000
2.536371 54.650276 362.000000
2.536371 55.240150 362.000000
2.536371 55.830025 362.000000
2.536371 56.419899 362.000000
2.536371 57.009773 362.000000
2.529365 57.440536 361.000000
2.529365 58.028782 361.000000
2.529365 58.617027 361.000000
2.522358 59.041267 360.000000
2.515352 59.462246 359.000000
2.515352 60.047234 359.000000
2.515352 60.632217 359.000000
2.508345 61.046688 358.000000
2.501339 61.457893 357.000000
2.501339 62.039619 357.000000
2.487326 62.270523 355.000000
2.480319 62.671955 354.000000
2.480319 63.248795 354.000000
2.480319 63.825634 354.000000
2.480319 64.402473 354.000000
2.480319 64.979309 354.000000
2.480319 65.556145 354.000000
2.473312 65.946167 353.000000
2.473312 66.521378 353.000000
2.473312 67.096588 353.000000
2.466306 67.480087 352.000000
2.466306 68.053665 352.000000
2.466306 68.627251 352.000000
2.459300 69.004242 351.000000
2.459300 69.576187 351.000000
2.452293 69.948288 350.000000
2.438280 70.115639 348.000000
2.438280 70.682701 348.000000
2.431273 71.045029 347.000000
2.424267 71.404083 346.000000
2.424267 71.967888 346.000000
2.410254 72.112434 344.000000
2.403247 72.461716 343.000000
2.403247 73.020630 343.000000
2.396240 73.365028 342.000000
2.389234 73.706161 341.000000
2.389234 74.261818 341.000000
2.382227 74.598068 340.000000
2.375221 74.931061 339.000000
2.375221 75.483459 339.000000
2.375221 76.035851 339.000000
2.368214 76.362320 338.000000
2.361208 76.685539 337.000000
2.361208 77.234680 337.000000
2.354201 77.553001 336.000000
2.340188 77.635620 334.000000
2.340188 78.179871 334.000000
2.333181 78.488419 333.000000
2.326175 78.793709 332.000000
2.326175 79.334702 332.000000
2.312162 79.394508 330.000000
2.312162 79.932243 330.000000
2.312162 80.469971 330.000000
2.305155 80.762222 329.000000
2.305155 81.298325 329.000000
2.305155 81.834427 329.000000
2.298149 82.120163 328.000000
2.298149 82.654633 328.000000
2.298149 83.189102 328.000000
2.298149 83.723579 328.000000
2.291142 84.001160 327.000000
2.291142 84.534004 327.000000
2.284136 84.806709 326.000000
2.284136 85.337921 326.000000
2.284136 85.869133 326.000000
2.277129 86.135315 325.000000
2.270123 86.398232 324.000000
2.270123 86.926186 324.000000
2.263116 87.184227 323.000000
2.263116 87.710548 323.000000
2.263116 88.236877 323.000000
2.256109 88.488388 322.000000
2.242096 88.460213 320.000000
2.242096 88.981644 320.000000
2.242096 89.503082 320.000000
2.235090 89.743187 319.000000
2.221077 89.697083 317.000000
2.221077 90.213623 317.000000
2.221077 90.730171 317.000000
2.214070 90.958885 316.000000
2.214070 91.473801 316.000000
2.214070 91.988716 316.000000
2.200057 91.918167 314.000000
2.200057 92.429825 314.000000
2.200057 92.941483 314.000000
2.186044 92.857903 312.000000
2.186044 93.366302 312.000000
2.179038 93.573822 311.000000
2.179038 94.080589 311.000000
2.179038 94.587364 311.000000
2.172031 94.788361 310.000000
2.165024 94.986107 309.000000
2.165024 95.489624 309.000000
2.165024 95.993134 309.000000
2.158018 96.184357 308.000000
2.158018 96.686234 308.000000
2.158018 97.188118 308.000000
2.151011 97.372826 307.000000
2.151011 97.873077 307.000000
2.144005 98.052902 306.000000
2.144005 98.551521 306.000000
2.144005 99.050148 306.000000
2.136998 99.223442 305.000000
2.129992 99.393486 304.000000
2.129992 99.888847 304.000000
2.122985 100.054001 303.000000
2.115978 100.215897 302.000000
2.115978 100.708000 302.000000
2.115978 101.200111 302.000000
2.108972 101.355484 301.000000
2.108972 101.845955 301.000000
2.108972 102.336433 301.000000
2.101965 102.485291 300.000000
2.101965 102.974136 300.000000
2.101965 103.462982 300.000000
2.094959 103.605324 299.000000
2.094959 104.092545 299.000000
2.094959 104.579758 299.000000
2.087952 104.715584 298.000000
2.080945 104.848145 297.000000
2.080945 105.332100 297.000000
2.080945 105.816055 297.000000
2.073939 105.942101 296.000000
2.073939 106.424431 296.000000
2.066933 106.545593 295.000000
2.066933 107.026283 295.000000
2.066933 107.506981 295.000000
2.059926 107.621628 294.000000
2.059926 108.100700 294.000000
2.059926 108.579773 294.000000
2.052919 108.687889 293.000000
2.052919 109.165329 293.000000
2.052919 109.642769 293.000000
2.045913 109.744370 292.000000
2.045913 110.220177 292.000000
2.045913 110.695992 292.000000
2.038907 110.791077 291.000000
2.038907 111.265251 291.000000
2.038907 111.739433 291.000000
2.038907 112.213615 291.000000
2.031900 112.300552 290.000000
2.039073 113.171242 291.023834
2.039073 113.645462 291.023834
2.039073 114.119682 291.023834
2.038473 114.560150 290.938110
2.038473 115.034233 290.938110
2.037478 115.451958 290.796173
2.038294 115.972191 290.912537
2.038294 116.446236 290.912537
2.038294 116.920273 290.912537
2.037333 117.338966 290.775391
2.037333 117.812775 290.775391
2.037032 118.269119 290.732422
2.036089 118.687889 290.597839
2.036089 119.161415 290.597839
2.036493 119.658691 290.655518
2.036941 120.158768 290.719543
2.036941 120.632500 290.719543
2.036941 121.106224 290.719543
2.036718 121.566643 290.687744
2.036718 122.040314 290.687744
2.036658 122.510330 290.679077
3.272776 16.456730 379.000000
3.272776 17.074306 379.000000
3.272776 17.691881 379.000000
3.272776 18.309458 379.000000
3.272776 18.927034 379.000000
3.272776 19.544609 379.000000
3.264141 20.108986 378.000000
3.264141 20.724932 378.000000
3.264141 21.340879 378.000000
3.264141 21.956825 378.000000
3.264141 22.572771 378.000000
3.264141 23.188717 378.000000
3.264141 23.804663 378.000000
3.264141 24.420610 378.000000
3.264141 25.036556 378.000000
3.264141 25.652502 378.000000
3.264141 26.268448 378.000000
3.255505 26.813272 377.000000
3.255505 27.427588 377.000000
3.246870 27.967525 376.000000
3.246870 28.580212 376.000000
3.246870 29.192900 376.000000
3.238235 29.726315 375.000000
3.238235 30.337372 375.000000
3.238235 30.948431 375.000000
3.229599 31.475330 374.000000
3.229599 32.084759 374.000000
3.229599 32.694187 374.000000
3.229599 33.303616 374.000000
3.220964 33.822365 373.000000
3.220964 34.430164 373.000000
3.220964 35.037964 373.000000
3.212329 35.550198 372.000000
3.212329 36.156368 372.000000
3.212329 36.762535 372.000000
3.203694 37.268253 371.000000
3.203694 37.872795 371.000000
3.195058 38.373619 370.000000
3.195058 38.976528 370.000000
3.195058 39.579441 370.000000
3.195058 40.182350 370.000000
3.186423 40.675030 369.000000
3.186423 41.276314 369.000000
3.186423 41.877594 369.000000
3.186423 42.478874 369.000000
3.177788 42.963406 368.000000
3.177788 43.563057 368.000000
3.177788 44.162708 368.000000
3.177788 44.762360 368.000000
3.177788 45.362011 368.000000
3.177788 45.961662 368.000000
3.177788 46.561314 368.000000
3.177788 47.160965 368.000000
3.177788 47.760616 368.000000
3.169152 48.228855 367.000000
3.169152 48.826878 367.000000
3.169152 49.424896 367.000000
3.160517 49.886616 366.000000
3.160517 50.483009 366.000000
3.160517 51.079399 366.000000
3.160517 51.675793 366.000000
3.160517 52.272186 366.000000
3.151882 52.724129 365.000000
3.143247 53.172813 364.000000
3.143247 53.765949 364.000000
3.134611 54.209740 363.000000
3.125976 54.650276 362.000000
3.125976 55.240150 362.000000
3.125976 55.830025 362.000000
3.117341 56.264046 361.000000
3.117341 56.852291 361.000000
3.117341 57.440536 361.000000
3.108705 57.868034 360.000000
3.108705 58.454651 360.000000
3.100070 58.877262 359.000000
3.100070 59.462246 359.000000
3.091435 59.879974 358.000000
3.091435 60.463333 358.000000
3.091435 61.046688 358.000000
3.082799 61.457893 357.000000
3.082799 62.039619 357.000000
3.065529 62.270523 355.000000
3.056894 62.671955 354.000000
3.056894 63.248795 354.000000
3.056894 63.825634 354.000000
3.056894 64.402473 354.000000
3.056894 64.979309 354.000000
3.056894 65.556145 354.000000
3.048258 65.946167 353.000000
3.048258 66.521378 353.000000
3.048258 67.096588 353.000000
3.039623 67.480087 352.000000
3.039623 68.053665 352.000000
3.039623 68.627251 352.000000
3.022352 68.807640 350.000000
3.022352 69.377960 350.000000
3.013717 69.748428 349.000000
2.996447 69.914162 347.000000
2.996447 70.479591 347.000000
2.987811 70.840279 346.000000
2.979176 71.197716 345.000000
2.979176 71.759888 345.000000
2.961905 71.902802 343.000000
2.961905 72.461716 343.000000
2.961905 73.020630 343.000000
2.944635 73.150505 341.000000
2.936000 73.490021 340.000000
2.936000 74.044044 340.000000
2.927364 74.378662 339.000000
2.927364 74.931061 339.000000
2.918729 75.260788 338.000000
2.918729 75.811554 338.000000
2.910094 76.136406 337.000000
2.901458 76.457985 336.000000
2.901458 77.005493 336.000000
2.901458 77.553001 336.000000
2.884188 77.635620 334.000000
2.884188 78.179871 334.000000
2.875552 78.488419 333.000000
2.866917 78.793709 332.000000
2.866917 79.334702 332.000000
2.849647 79.394508 330.000000
2.849647 79.932243 330.000000
2.849647 80.469971 330.000000
2.832376 80.516747 328.000000
2.823741 80.804108 327.000000
2.823741 81.336952 327.000000
2.823741 81.869789 327.000000
2.823741 82.402634 327.000000
2.823741 82.935478 327.000000
2.815105 83.213066 326.000000
2.815105 83.744286 326.000000
2.815105 84.275497 326.000000
2.815105 84.806709 326.000000
2.806470 85.076149 325.000000
2.806470 85.605728 325.000000
2.797835 85.870277 324.000000
2.789200 86.131577 323.000000
2.789200 86.657898 323.000000
2.789200 87.184227 323.000000
2.780564 87.438995 322.000000
2.780564 87.963692 322.000000
2.763294 87.938774 320.000000
2.763294 88.460213 320.000000
2.754658 88.703575 319.000000
2.754658 89.223381 319.000000
2.737388 89.180534 317.000000
2.737388 89.697083 317.000000
2.737388 90.213623 317.000000
2.728753 90.443962 316.000000
2.720117 90.671036 315.000000
2.720117 91.184326 315.000000
2.720117 91.697609 315.000000
2.711482 91.918167 314.000000
2.711482 92.429825 314.000000
2.711482 92.941483 314.000000
2.694211 92.857903 312.000000
2.694211 93.366302 312.000000
2.685576 93.573822 311.000000
2.685576 94.080589 311.000000
2.685576 94.587364 311.000000
2.676941 94.788361 310.000000
2.668305 94.986107 309.000000
2.668305 95.489624 309.000000
2.659670 95.682472 308.000000
2.659670 96.184357 308.000000
2.659670 96.686234 308.000000
2.651035 96.872574 307.000000
2.651035 97.372826 307.000000
2.651035 97.873077 307.000000
2.642400 98.052902 306.000000
2.642400 98.551521 306.000000
2.642400 99.050148 306.000000
2.633764 99.223442 305.000000
2.616494 99.066528 303.000000
2.616494 99.560265 303.000000
2.607858 99.723793 302.000000
2.607858 100.215897 302.000000
2.607858 100.708000 302.000000
2.599223 100.865005 301.000000
2.599223 101.355484 301.000000
2.590588 101.507599 300.000000
2.590588 101.996445 300.000000
2.590588 102.485291 300.000000
2.590588 102.974136 300.000000
2.590588 103.462982 300.000000
2.581953 103.605324 299.000000
2.573317 103.744408 298.000000
2.573317 104.229996 298.000000
2.564682 104.364182 297.000000
2.564682 104.848145 297.000000
2.564682 105.332100 297.000000
2.564682 105.816055 297.000000
2.556047 105.942101 296.000000
2.556047 106.424431 296.000000
2.547411 106.545593 295.000000
2.547411 107.026283 295.000000
2.547411 107.506981 295.000000
2.538776 107.621628 294.000000
2.538776 108.100700 294.000000
2.538776 108.579773 294.000000
2.530141 108.687889 293.000000
2.530141 109.165329 293.000000
2.530141 109.642769 293.000000
2.521505 109.744370 292.000000
2.521505 110.220177 292.000000
2.521505 110.695992 292.000000
2.512870 110.791077 291.000000
2.512870 111.265251 291.000000
2.512870 111.739433 291.000000
2.504235 111.828003 290.000000
2.504235 112.300552 290.000000
2.513076 113.171242 291.023834
2.513076 113.645462 291.023834
2.513076 114.119682 291.023834
2.511168 114.506874 290.802826
2.511168 114.980743 290.802826
2.510242 115.412033 290.695618
2.512115 115.972191 290.912537
2.512115 116.446236 290.912537
2.512115 116.920273 290.912537
2.510931 117.338966 290.775391
2.510931 117.812775 290.775391
2.510560 118.269119 290.732422
2.509398 118.687889 290.597839
2.509398 119.161415 290.597839
2.509896 119.658691 290.655518
2.510448 120.158768 290.719543
2.510448 120.632500 290.719543
2.510448 121.106224 290.719543
2.510174 121.566643 290.687744
2.510174 122.040314 290.687744
2.510099 122.510330 290.679077
2.508955 122.927956 290.546631
2.508955 123.401398 290.546631
2.508955 123.874840 290.546631
2.508697 124.335487 290.516724
2.508697 124.808876 290.516724
2.508697 125.282272 290.516724
3.890069 15.221580 379.000000
3.890069 15.839155 379.000000
3.890069 16.456730 379.000000
3.890069 17.074306 379.000000
3.890069 17.691881 379.000000
3.890069 18.309458 379.000000
3.879805 18.877094 378.000000
3.879805 19.493040 378.000000
3.879805 20.108986 378.000000
3.879805 20.724932 378.000000
3.879805 21.340879 378.000000
3.879805 21.956825 378.000000
3.879805 22.572771 378.000000
3.879805 23.188717 378.000000
3.879805 23.804663 378.000000
3.879805 24.420610 378.000000
3.879805 25.036556 378.000000
3.879805 25.652502 378.000000
3.869541 26.198956 377.000000
3.869541 26.813272 377.000000
3.869541 27.427588 377.000000
3.859277 27.967525 376.000000
3.849013 28.504200 375.000000
3.849013 29.115257 375.000000
3.849013 29.726315 375.000000
3.849013 30.337372 375.000000
3.849013 30.948431 375.000000
3.838749 31.475330 374.000000
3.838749 32.084759 374.000000
3.838749 32.694187 374.000000
3.838749 33.303616 374.000000
3.828485 33.822365 373.000000
3.828485 34.430164 373.000000
3.828485 35.037964 373.000000
3.818221 35.550198 372.000000
3.818221 36.156368 372.000000
3.818221 36.762535 372.000000
3.807957 37.268253 371.000000
3.807957 37.872795 371.000000
3.797693 38.373619 370.000000
3.797693 38.976528 370.000000
3.797693 39.579441 370.000000
3.797693 40.182350 370.000000
3.787429 40.675030 369.000000
3.787429 41.276314 369.000000
3.787429 41.877594 369.000000
3.787429 42.478874 369.000000
3.777165 42.963406 368.000000
3.777165 43.563057 368.000000
3.777165 44.162708 368.000000
3.777165 44.762360 368.000000
3.777165 45.362011 368.000000
3.777165 45.961662 368.000000
3.777165 46.561314 368.000000
3.777165 47.160965 368.000000
3.777165 47.760616 368.000000
3.756637 48.097439 366.000000
3.756637 48.693832 366.000000
3.756637 49.290222 366.000000
3.756637 49.886616 366.000000
3.756637 50.483009 366.000000
3.756637 51.079399 366.000000
3.746372 51.534603 365.000000
3.746372 52.129368 365.000000
3.736109 52.579681 364.000000
3.725845 53.026733 363.000000
3.725845 53.618237 363.000000
3.715580 54.060402 362.000000
3.715580 54.650276 362.000000
3.715580 55.240150 362.000000
3.705316 55.675800 361.000000
3.705316 56.264046 361.000000
3.705316 56.852291 361.000000
3.695052 57.281422 360.000000
3.684788 57.707291 359.000000
3.684788 58.292274 359.000000
3.684788 58.877262 359.000000
3.674525 59.296619 358.000000
3.674525 59.879974 358.000000
3.674525 60.463333 358.000000
3.664260 60.876163 357.000000
3.653996 61.285740 356.000000
3.653996 61.865837 356.000000
3.643732 62.270523 355.000000
3.633468 62.671955 354.000000
3.633468 63.248795 354.000000
3.633468 63.825634 354.000000
3.633468 64.402473 354.000000
3.633468 64.979309 354.000000
3.623204 65.370956 353.000000
3.623204 65.946167 353.000000
3.623204 66.521378 353.000000
3.623204 67.096588 353.000000
3.612940 67.480087 352.000000
3.612940 68.053665 352.000000
3.602676 68.432289 351.000000
3.592412 68.807640 350.000000
3.592412 69.377960 350.000000
3.582148 69.748428 349.000000
3.561620 69.914162 347.000000
3.561620 70.479591 347.000000
3.551356 70.840279 346.000000
3.541092 71.197716 345.000000
3.541092 71.759888 345.000000
3.520564 71.902802 343.000000
3.510300 72.250458 342.000000
3.510300 72.807739 342.000000
3.489772 72.935997 340.000000
3.479508 73.273872 339.000000
3.479508 73.826263 339.000000
3.479508 74.378662 339.000000
3.469243 74.710022 338.000000
3.458979 75.038132 337.000000
3.458979 75.587265 337.000000
3.448715 75.910477 336.000000
3.448715 76.457985 336.000000
3.448715 77.005493 336.000000
3.428188 77.091370 334.000000
3.417923 77.403183 333.000000
3.417923 77.945801 333.000000
3.397395 78.017014 331.000000
3.387131 78.319054 330.000000
3.387131 78.856781 330.000000
3.376867 79.153923 329.000000
3.376867 79.690025 329.000000
3.376867 80.226120 329.000000
3.366603 80.516747 328.000000
3.356339 80.804108 327.000000
3.356339 81.336952 327.000000
3.356339 81.869789 327.000000
3.356339 82.402634 327.000000
3.356339 82.935478 327.000000
3.346075 83.213066 326.000000
3.346075 83.744286 326.000000
3.346075 84.275497 326.000000
3.346075 84.806709 326.000000
3.335811 85.076149 325.000000
3.335811 85.605728 325.000000
3.325547 85.870277 324.000000
3.315283 86.131577 323.000000
3.315283 86.657898 323.000000
3.315283 87.184227 323.000000
3.294755 87.167450 321.000000
3.294755 87.690514 321.000000
3.284491 87.938774 320.000000
3.274227 88.183769 319.000000
3.263963 88.425507 318.000000
3.263963 88.943680 318.000000
3.253699 89.180534 317.000000
3.243435 89.414131 316.000000
3.243435 89.929047 316.000000
3.233171 90.157745 315.000000
3.233171 90.671036 315.000000
3.233171 91.184326 315.000000
3.222907 91.406509 314.000000
3.222907 91.918167 314.000000
3.222907 92.429825 314.000000
3.212643 92.645500 313.000000
3.202379 92.857903 312.000000
3.202379 93.366302 312.000000
3.192115 93.573822 311.000000
3.181851 93.778076 310.000000
3.181851 94.283218 310.000000
3.181851 94.788361 310.000000
3.171587 94.986107 309.000000
3.171587 95.489624 309.000000
3.161323 95.682472 308.000000
3.161323 96.184357 308.000000
3.161323 96.686234 308.000000
3.151059 96.872574 307.000000
3.151059 97.372826 307.000000
3.151059 97.873077 307.000000
3.140795 98.052902 306.000000
3.140795 98.551521 306.000000
3.140795 99.050148 306.000000
3.130530 99.223442 305.000000
3.110003 99.066528 303.000000
3.110003 99.560265 303.000000
3.099738 99.723793 302.000000
3.089474 99.884056 301.000000
3.089474 100.374527 301.000000
3.079210 100.529907 300.000000
3.079210 101.018753 300.000000
3.079210 101.507599 300.000000
3.079210 101.996445 300.000000
3.079210 102.485291 300.000000
3.068946 102.630890 299.000000
3.068946 103.118111 299.000000
3.058682 103.258820 298.000000
3.058682 103.744408 298.000000
3.058682 104.229996 298.000000
3.048418 104.364182 297.000000
3.048418 104.848145 297.000000
3.048418 105.332100 297.000000
3.038154 105.459770 296.000000
3.027890 105.584190 295.000000
3.027890 106.064888 295.000000
3.027890 106.545593 295.000000
3.017626 106.663483 294.000000
3.017626 107.142563 294.000000
3.017626 107.621628 294.000000
3.017626 108.100700 294.000000
3.017626 108.579773 294.000000
3.007362 108.687889 293.000000
2.997098 108.792747 292.000000
2.997098 109.268562 292.000000
2.997098 109.744370 292.000000
2.997098 110.220177 292.000000
2.997098 110.695992 292.000000
2.986834 110.791077 291.000000
2.986834 111.265251 291.000000
2.986834 111.739433 291.000000
2.976570 111.828003 290.000000
2.976570 112.300552 290.000000
2.987079 113.171242 291.023834
2.987079 113.645462 291.023834
2.987079 114.119682 291.023834
2.984810 114.506874 290.802826
2.984810 114.980743 290.802826
2.983710 115.412033 290.695618
2.985936 115.972191 290.912537
2.985936 116.446236 290.912537
2.985936 116.920273 290.912537
2.984529 117.338966 290.775391
2.984529 117.812775 290.775391
2.984087 118.269119 290.732422
2.982706 118.687889 290.597839
2.982706 119.161415 290.597839
2.983298 119.658691 290.655518
2.983955 120.158768 290.719543
2.983955 120.632500 290.719543
2.983955 121.106224 290.719543
2.983629 121.566643 290.687744
2.983629 122.040314 290.687744
2.983540 122.510330 290.679077
2.982181 122.927956 290.546631
2.982181 123.401398 290.546631
2.982181 123.874840 290.546631
2.981874 124.335487 290.516724
2.981874 124.808876 290.516724
2.981874 125.282272 290.516724
4.507362 14.604004 379.000000
4.507362 15.221580 379.000000
4.507362 15.839155 379.000000
4.507362 16.456730 379.000000
4.507362 17.074306 379.000000
4.507362 17.691881 379.000000
4.495469 18.261148 378.000000
4.495469 18.877094 378.000000
4.495469 19.493040 378.000000
4.495469 20.108986 378.000000
4.495469 20.724932 378.000000
4.495469 21.340879 378.000000
4.495469 21.956825 378.000000
4.495469 22.572771 378.000000
4.495469 23.188717 378.000000
4.495469 23.804663 378.000000
4.483576 24.356005 377.000000
4.483576 24.970322 377.000000
4.483576 25.584639 377.000000
4.471684 26.129461 376.000000
4.471684 26.742151 376.000000
4.471684 27.354837 376.000000
4.459791 27.893141 375.000000
4.459791 28.504200 375.000000
4.459791 29.115257 375.000000
4.459791 29.726315 375.000000
4.447898 30.256474 374.000000
4.447898 30.865902 374.000000
4.447898 31.475330 374.000000
4.447898 32.084759 374.000000
4.447898 32.694187 374.000000
4.436005 33.214565 373.000000
4.436005 33.822365 373.000000
4.436005 34.430164 373.000000
4.436005 35.037964 373.000000
4.424113 35.550198 372.000000
4.424113 36.156368 372.000000
4.412220 36.663715 371.000000
4.400327 37.167797 370.000000
4.400327 37.770710 370.000000
4.400327 38.373619 370.000000
4.400327 38.976528 370.000000
4.400327 39.579441 370.000000
4.388434 40.073750 369.000000
4.388434 40.675030 369.000000
4.388434 41.276314 369.000000
4.388434 41.877594 369.000000
4.376542 42.363754 368.000000
4.376542 42.963406 368.000000
4.376542 43.563057 368.000000
4.376542 44.162708 368.000000
4.364649 44.640724 367.000000
4.364649 45.238743 367.000000
4.364649 45.836765 367.000000
4.364649 46.434788 367.000000
4.364649 47.032810 367.000000
4.364649 47.630833 367.000000
4.352756 48.097439 366.000000
4.352756 48.693832 366.000000
4.352756 49.290222 366.000000
4.352756 49.886616 366.000000
4.352756 50.483009 366.000000
4.352756 51.079399 366.000000
4.340863 51.534603 365.000000
4.340863 52.129368 365.000000
4.328970 52.579681 364.000000
4.317078 53.026733 363.000000
4.317078 53.618237 363.000000
4.305185 54.060402 362.000000
4.305185 54.650276 362.000000
4.305185 55.240150 362.000000
4.293292 55.675800 361.000000
4.293292 56.264046 361.000000
4.293292 56.852291 361.000000
4.281399 57.281422 360.000000
4.269506 57.707291 359.000000
4.269506 58.292274 359.000000
4.257614 58.713261 358.000000
4.245721 59.130985 357.000000
4.245721 59.712711 357.000000
4.245721 60.294437 357.000000
4.245721 60.876163 357.000000
4.221936 61.113586 355.000000
4.221936 61.692055 355.000000
4.221936 62.270523 355.000000
4.210042 62.671955 354.000000
4.210042 63.248795 354.000000
4.210042 63.825634 354.000000
4.210042 64.402473 354.000000
4.210042 64.979309 354.000000
4.198150 65.370956 353.000000
4.198150 65.946167 353.000000
4.198150 66.521378 353.000000
4.186257 66.906509 352.000000
4.174365 67.288391 351.000000
4.174365 67.860336 351.000000
4.174365 68.432289 351.000000
4.162472 68.807640 350.000000
4.162472 69.377960 350.000000
4.150578 69.748428 349.000000
4.126793 69.914162 347.000000
4.126793 70.479591 347.000000
4.114900 70.840279 346.000000
4.079222 70.784973 343.000000
4.079222 71.343887 343.000000
4.079222 71.902802 343.000000
4.067329 72.250458 342.000000
4.067329 72.807739 342.000000
4.043544 72.935997 340.000000
4.031651 73.273872 339.000000
4.031651 73.826263 339.000000
4.031651 74.378662 339.000000
4.019758 74.710022 338.000000
4.007865 75.038132 337.000000
4.007865 75.587265 337.000000
3.995973 75.910477 336.000000
3.972187 76.002876 334.000000
3.972187 76.547119 334.000000
3.960294 76.860565 333.000000
3.936509 76.938293 331.000000
3.936509 77.477654 331.000000
3.924616 77.781319 330.000000
3.912723 78.081718 329.000000
3.912723 78.617821 329.000000
3.900831 78.913330 328.000000
3.888938 79.205582 327.000000
3.888938 79.738426 327.000000
3.888938 80.271263 327.000000
3.877045 80.557007 326.000000
3.877045 81.088219 326.000000
3.877045 81.619431 326.000000
3.877045 82.150642 326.000000
3.877045 82.681854 326.000000
3.877045 83.213066 326.000000
3.865152 83.487396 325.000000
3.865152 84.016975 325.000000
3.853259 84.286415 324.000000
3.841367 84.552605 323.000000
3.841367 85.078926 323.000000
3.841367 85.605255 323.000000
3.841367 86.131577 323.000000
3.841367 86.657898 323.000000
3.829474 86.914307 322.000000
3.817581 87.167450 321.000000
3.817581 87.690514 321.000000
3.805688 87.938774 320.000000
3.793796 88.183769 319.000000
3.781903 88.425507 318.000000
3.781903 88.943680 318.000000
3.770010 89.180534 317.000000
3.758117 89.414131 316.000000
3.758117 89.929047 316.000000
3.746224 90.157745 315.000000
3.734331 90.383186 314.000000
3.734331 90.894852 314.000000
3.734331 91.406509 314.000000
3.722439 91.625435 313.000000
3.722439 92.135468 313.000000
3.710546 92.349503 312.000000
3.698653 92.560280 311.000000
3.698653 93.067047 311.000000
3.698653 93.573822 311.000000
3.686761 93.778076 310.000000
3.686761 94.283218 310.000000
3.674868 94.482597 309.000000
3.674868 94.986107 309.000000
3.674868 95.489624 309.000000
3.662975 95.682472 308.000000
3.662975 96.184357 308.000000
3.662975 96.686234 308.000000
3.651082 96.872574 307.000000
3.639189 97.055656 306.000000
3.639189 97.554276 306.000000
3.639189 98.052902 306.000000
3.627296 98.229454 305.000000
3.627296 98.726448 305.000000
3.615404 98.898117 304.000000
3.603511 99.066528 303.000000
3.603511 99.560265 303.000000
3.591619 99.723793 302.000000
3.579726 99.884056 301.000000
3.579726 100.374527 301.000000
3.567833 100.529907 300.000000
3.567833 101.018753 300.000000
3.567833 101.507599 300.000000
3.567833 101.996445 300.000000
3.567833 102.485291 300.000000
3.555940 102.630890 299.000000
3.555940 103.118111 299.000000
3.544047 103.258820 298.000000
3.532154 103.396271 297.000000
3.532154 103.880226 297.000000
3.532154 104.364182 297.000000
3.532154 104.848145 297.000000
3.532154 105.332100 297.000000
3.520262 105.459770 296.000000
3.508369 105.584190 295.000000
3.508369 106.064888 295.000000
3.508369 106.545593 295.000000
3.496476 106.663483 294.000000
3.496476 107.142563 294.000000
3.496476 107.621628 294.000000
3.484583 107.733009 293.000000
3.484583 108.210449 293.000000
3.484583 108.687889 293.000000
3.472691 108.792747 292.000000
3.472691 109.268562 292.000000
3.472691 109.744370 292.000000
3.460798 109.842712 291.000000
3.460798 110.316895 291.000000
3.460798 110.791077 291.000000
3.448905 110.882896 290.000000
3.448905 111.355446 290.000000
3.448905 111.828003 290.000000
3.460340 112.672905 290.961548
3.460340 113.147018 290.961548
3.460340 113.621140 290.961548
3.458683 114.040627 290.822235
3.456056 114.427513 290.601288
3.456056 114.901047 290.601288
3.454767 115.331566 290.492920
3.457017 115.880333 290.682098
3.457017 116.353989 290.682098
3.457017 116.827660 290.682098
3.455142 117.237694 290.524445
3.455142 117.711113 290.524445
3.455142 118.184517 290.524445
3.455012 118.653442 290.513489
3.455012 119.126831 290.513489
3.455509 119.617432 290.555298
3.455509 120.090889 290.555298
3.455509 120.564346 290.555298
3.455429 121.034973 290.548523
3.455103 121.496971 290.521149
3.455103 121.970375 290.521149
3.455116 122.444237 290.522247
3.455406 122.927956 290.546631
3.455406 123.401398 290.546631
3.455406 123.874840 290.546631
3.455050 124.335487 290.516724
3.455050 124.808876 290.516724
3.455050 125.282272 290.516724
3.454955 125.752174 290.508667
3.454955 126.225555 290.508667
3.454952 126.698868 290.508514
3.454952 127.172249 290.508514
5.124655 14.604004 379.000000
5.124655 15.221580 379.000000
5.124655 15.839155 379.000000
5.124655 16.456730 379.000000
5.124655 17.074306 379.000000
5.124655 17.691881 379.000000
5.111134 18.261148 378.000000
5.111134 18.877094 378.000000
5.111134 19.493040 378.000000
5.111134 20.108986 378.000000
5.111134 20.724932 378.000000
5.111134 21.340879 378.000000
5.111134 21.956825 378.000000
5.111134 22.572771 378.000000
5.111134 23.188717 378.000000
5.111134 23.804663 378.000000
5.097612 24.356005 377.000000
5.097612 24.970322 377.000000
5.097612 25.584639 377.000000
5.084091 26.129461 376.000000
5.070569 26.671026 375.000000
5.070569 27.282084 375.000000
5.070569 27.893141 375.000000
5.070569 28.504200 375.000000
5.070569 29.115257 375.000000
5.057048 29.647045 374.000000
5.057048 30.256474 374.000000
5.057048 30.865902 374.000000
5.057048 31.475330 374.000000
5.043526 31.998968 373.000000
5.043526 32.606766 373.000000
5.043526 33.214565 373.000000
5.043526 33.822365 373.000000
5.043526 34.430164 373.000000
5.030005 34.944027 372.000000
5.016483 35.454636 371.000000
5.016483 36.059174 371.000000
5.002961 36.564888 370.000000
5.002961 37.167797 370.000000
5.002961 37.770710 370.000000
5.002961 38.373619 370.000000
4.989440 38.871189 369.000000
4.989440 39.472469 369.000000
4.989440 40.073750 369.000000
4.989440 40.675030 369.000000
4.989440 41.276314 369.000000
4.975918 41.764103 368.000000
4.975918 42.363754 368.000000
4.975918 42.963406 368.000000
4.975918 43.563057 368.000000
4.962397 44.042702 367.000000
4.962397 44.640724 367.000000
4.962397 45.238743 367.000000
4.962397 45.836765 367.000000
4.948875 46.308262 366.000000
4.948875 46.904652 366.000000
4.948875 47.501045 366.000000
4.948875 48.097439 366.000000
4.948875 48.693832 366.000000
4.948875 49.290222 366.000000
4.948875 49.886616 366.000000
4.948875 50.483009 366.000000
4.935354 50.939838 365.000000
4.935354 51.534603 365.000000
4.935354 52.129368 365.000000
4.921833 52.579681 364.000000
4.908311 53.026733 363.000000
4.908311 53.618237 363.000000
4.894789 54.060402 362.000000
4.894789 54.650276 362.000000
4.894789 55.240150 362.000000
4.881268 55.675800 361.000000
4.867746 56.108189 360.000000
4.867746 56.694805 360.000000
4.854225 57.122303 359.000000
4.854225 57.707291 359.000000
4.854225 58.292274 359.000000
4.840703 58.713261 358.000000
4.827182 59.130985 357.000000
4.827182 59.712711 357.000000
4.827182 60.294437 357.000000
4.827182 60.876163 357.000000
4.800139 61.113586 355.000000
4.800139 61.692055 355.000000
4.800139 62.270523 355.000000
4.786617 62.671955 354.000000
4.786617 63.248795 354.000000
4.786617 63.825634 354.000000
4.786617 64.402473 354.000000
4.786617 64.979309 354.000000
4.773096 65.370956 353.000000
4.773096 65.946167 353.000000
4.773096 66.521378 353.000000
4.759574 66.906509 352.000000
4.746053 67.288391 351.000000
4.746053 67.860336 351.000000
4.746053 68.432289 351.000000
4.732531 68.807640 350.000000
4.732531 69.377960 350.000000
4.719009 69.748428 349.000000
4.691967 69.914162 347.000000
4.691967 70.479591 347.000000
4.664923 70.635536 345.000000
4.637881 70.784973 343.000000
4.637881 71.343887 343.000000
4.624359 71.693176 342.000000
4.597316 71.827942 340.000000
4.597316 72.381966 340.000000
4.583795 72.721474 339.000000
4.583795 73.273872 339.000000
4.583795 73.826263 339.000000
4.570272 74.159256 338.000000
4.556751 74.488991 337.000000
4.543230 74.815460 336.000000
4.543230 75.362968 336.000000
4.543230 75.910477 336.000000
4.516187 76.002876 334.000000
4.516187 76.547119 334.000000
4.502665 76.860565 333.000000
4.475622 76.938293 331.000000
4.475622 77.477654 331.000000
4.462101 77.781319 330.000000
4.435058 77.844383 328.000000
4.435058 78.378860 328.000000
4.421536 78.672737 327.000000
4.421536 79.205582 327.000000
4.421536 79.738426 327.000000
4.408015 80.025795 326.000000
4.408015 80.557007 326.000000
4.408015 81.088219 326.000000
4.408015 81.619431 326.000000
4.394493 81.898643 325.000000
4.394493 82.428230 325.000000
4.394493 82.957809 325.000000
4.380971 83.230507 324.000000
4.380971 83.758461 324.000000
4.367450 84.026276 323.000000
4.367450 84.552605 323.000000
4.367450 85.078926 323.000000
4.353929 85.340218 322.000000
4.340407 85.598251 321.000000
4.340407 86.121315 321.000000
4.340407 86.644379 321.000000
4.326886 86.895905 320.000000
4.326886 87.417336 320.000000
4.313364 87.663963 319.000000
4.313364 88.183769 319.000000
4.299843 88.425507 318.000000
4.299843 88.943680 318.000000
4.286321 89.180534 317.000000
4.272799 89.414131 316.000000
4.272799 89.929047 316.000000
4.259278 90.157745 315.000000
4.245756 90.383186 314.000000
4.245756 90.894852 314.000000
4.245756 91.406509 314.000000
4.232235 91.625435 313.000000
4.232235 92.135468 313.000000
4.218713 92.349503 312.000000
4.205192 92.560280 311.000000
4.205192 93.067047 311.000000
4.205192 93.573822 311.000000
4.178149 93.475571 309.000000
4.178149 93.979088 309.000000
4.178149 94.482597 309.000000
4.164628 94.678711 308.000000
4.164628 95.180588 308.000000
4.164628 95.682472 308.000000
4.151106 95.872063 307.000000
4.151106 96.372322 307.000000
4.137584 96.557030 306.000000
4.137584 97.055656 306.000000
4.137584 97.554276 306.000000
4.124063 97.732460 305.000000
4.124063 98.229454 305.000000
4.124063 98.726448 305.000000
4.097020 98.572792 303.000000
4.083498 98.739578 302.000000
4.083498 99.231689 302.000000
4.069977 99.393578 301.000000
4.056455 99.552216 300.000000
4.056455 100.041061 300.000000
4.056455 100.529907 300.000000
4.056455 101.018753 300.000000
4.056455 101.507599 300.000000
4.056455 101.996445 300.000000
4.042934 102.143677 299.000000
4.042934 102.630890 299.000000
4.042934 103.118111 299.000000
4.029412 103.258820 298.000000
4.015891 103.396271 297.000000
4.015891 103.880226 297.000000
4.015891 104.364182 297.000000
4.015891 104.848145 297.000000
4.015891 105.332100 297.000000
4.002369 105.459770 296.000000
3.988848 105.584190 295.000000
3.988848 106.064888 295.000000
3.988848 106.545593 295.000000
3.975326 106.663483 294.000000
3.975326 107.142563 294.000000
3.975326 107.621628 294.000000
3.961804 107.733009 293.000000
3.961804 108.210449 293.000000
3.948283 108.316940 292.000000
3.948283 108.792747 292.000000
3.948283 109.268562 292.000000
3.948283 109.744370 292.000000
3.934762 109.842712 291.000000
3.934762 110.316895 291.000000
3.934762 110.791077 291.000000
3.921240 110.882896 290.000000
3.921240 111.355446 290.000000
3.921240 111.828003 290.000000
3.934242 112.672905 290.961548
3.934242 113.147018 290.961548
3.934242 113.621140 290.961548
3.931932 114.028290 290.790771
3.929698 114.437073 290.625549
3.929698 114.910645 290.625549
3.927969 115.333420 290.497620
3.928498 115.822380 290.536743
3.928498 116.295815 290.536743
3.928498 116.769241 290.536743
3.928016 117.228302 290.501160
3.928016 117.701668 290.501160
3.928183 118.180061 290.513489
3.928522 118.663673 290.538544
3.928522 119.137100 290.538544
3.929250 119.632713 290.592407
3.929250 120.106232 290.592407
3.929250 120.579750 290.592407
3.928751 121.037872 290.555481
3.928433 121.501488 290.531952
3.928433 121.974907 290.531952
3.928377 122.446579 290.527802
3.928703 122.930191 290.551910
3.928703 123.403633 290.551910
3.928703 123.877090 290.551910
3.927947 124.326614 290.496002
3.927947 124.799980 290.496002
3.928118 125.278793 290.508667
3.928118 125.752174 290.508667
3.928118 126.225555 290.508667
3.928116 126.698868 290.508514
3.928116 127.172249 290.508514
3.928462 128.603714 290.534088
3.928514 129.078842 290.537933
3.928514 129.552261 290.537933
3.928514 130.025696 290.537933
3.928488 132.865387 290.536011
3.928488 133.338806 290.536011
3.928488 133.812225 290.536011
3.928488 134.285660 290.536011
5.741948 14.604004 379.000000
5.741948 15.221580 379.000000
5.741948 15.839155 379.000000
5.741948 16.456730 379.000000
5.726798 17.029255 378.000000
5.726798 17.645201 378.000000
5.726798 18.261148 378.000000
5.726798 18.877094 378.000000
5.726798 19.493040 378.000000
5.726798 20.108986 378.000000
5.711648 20.670105 377.000000
5.711648 21.284422 377.000000
5.711648 21.898737 377.000000
5.711648 22.513054 377.000000
5.711648 23.127371 377.000000
5.711648 23.741688 377.000000
5.711648 24.356005 377.000000
5.711648 24.970322 377.000000
5.696497 25.516775 376.000000
5.696497 26.129461 376.000000
5.681347 26.671026 375.000000
5.681347 27.282084 375.000000
5.681347 27.893141 375.000000
5.681347 28.504200 375.000000
5.681347 29.115257 375.000000
5.666197 29.647045 374.000000
5.666197 30.256474 374.000000
5.666197 30.865902 374.000000
5.666197 31.475330 374.000000
5.651046 31.998968 373.000000
5.651046 32.606766 373.000000
5.651046 33.214565 373.000000
5.651046 33.822365 373.000000
5.651046 34.430164 373.000000
5.635896 34.944027 372.000000
5.620746 35.454636 371.000000
5.620746 36.059174 371.000000
5.605596 36.564888 370.000000
5.605596 37.167797 370.000000
5.605596 37.770710 370.000000
5.605596 38.373619 370.000000
5.590446 38.871189 369.000000
5.590446 39.472469 369.000000
5.590446 40.073750 369.000000
5.590446 40.675030 369.000000
5.590446 41.276314 369.000000
5.575295 41.764103 368.000000
5.575295 42.363754 368.000000
5.560145 42.846657 367.000000
5.560145 43.444679 367.000000
5.560145 44.042702 367.000000
5.560145 44.640724 367.000000
5.560145 45.238743 367.000000
5.544995 45.711868 366.000000
5.544995 46.308262 366.000000
5.544995 46.904652 366.000000
5.544995 47.501045 366.000000
5.544995 48.097439 366.000000
5.544995 48.693832 366.000000
5.544995 49.290222 366.000000
5.544995 49.886616 366.000000
5.544995 50.483009 366.000000
5.529844 50.939838 365.000000
5.529844 51.534603 365.000000
5.529844 52.129368 365.000000
5.514694 52.579681 364.000000
5.499544 53.026733 363.000000
5.499544 53.618237 363.000000
5.484394 54.060402 362.000000
5.484394 54.650276 362.000000
5.484394 55.240150 362.000000
5.469244 55.675800 361.000000
5.454093 56.108189 360.000000
5.454093 56.694805 360.000000
5.438943 57.122303 359.000000
5.423793 57.546551 358.000000
5.423793 58.129906 358.000000
5.408642 58.549255 357.000000
5.408642 59.130985 357.000000
5.408642 59.712711 357.000000
5.408642 60.294437 357.000000
5.393492 60.705643 356.000000
5.378342 61.113586 355.000000
5.378342 61.692055 355.000000
5.378342 62.270523 355.000000
5.363192 62.671955 354.000000
5.363192 63.248795 354.000000
5.363192 63.825634 354.000000
5.363192 64.402473 354.000000
5.363192 64.979309 354.000000
5.348042 65.370956 353.000000
5.332891 65.759354 352.000000
5.332891 66.332932 352.000000
5.332891 66.906509 352.000000
5.317741 67.288391 351.000000
5.317741 67.860336 351.000000
5.317741 68.432289 351.000000
5.302591 68.807640 350.000000
5.302591 69.377960 350.000000
5.287440 69.748428 349.000000
5.257140 69.914162 347.000000
5.257140 70.479591 347.000000
5.226839 70.635536 345.000000
5.181389 70.578606 342.000000
5.181389 71.135887 342.000000
5.151088 71.273918 340.000000
5.151088 71.827942 340.000000
5.151088 72.381966 340.000000
5.135938 72.721474 339.000000
5.105637 72.841576 337.000000
5.105637 73.390717 337.000000
5.105637 73.939857 337.000000
5.090487 74.267952 336.000000
5.090487 74.815460 336.000000
5.090487 75.362968 336.000000
5.060187 75.458626 334.000000
5.045036 75.775322 333.000000
5.045036 76.317947 333.000000
5.029886 76.629745 332.000000
5.014736 76.938293 331.000000
5.014736 77.477654 331.000000
4.984435 77.545616 329.000000
4.969285 77.844383 328.000000
4.969285 78.378860 328.000000
4.954135 78.672737 327.000000
4.954135 79.205582 327.000000
4.954135 79.738426 327.000000
4.938984 80.025795 326.000000
4.938984 80.557007 326.000000
4.938984 81.088219 326.000000
4.938984 81.619431 326.000000
4.923834 81.898643 325.000000
4.923834 82.428230 325.000000
4.923834 82.957809 325.000000
4.908684 83.230507 324.000000
4.908684 83.758461 324.000000
4.893534 84.026276 323.000000
4.878383 84.290825 322.000000
4.878383 84.815521 322.000000
4.878383 85.340218 322.000000
4.863233 85.598251 321.000000
4.863233 86.121315 321.000000
4.848083 86.374466 320.000000
4.848083 86.895905 320.000000
4.848083 87.417336 320.000000
4.832932 87.663963 319.000000
4.817782 87.907326 318.000000
4.802632 88.147438 317.000000
4.802632 88.663986 317.000000
4.787482 88.899208 316.000000
4.772332 89.131172 315.000000
4.772332 89.644455 315.000000
4.757181 89.871529 314.000000
4.757181 90.383186 314.000000
4.757181 90.894852 314.000000
4.757181 91.406509 314.000000
4.742031 91.625435 313.000000
4.742031 92.135468 313.000000
4.726881 92.349503 312.000000
4.711730 92.560280 311.000000
4.711730 93.067047 311.000000
4.696580 93.272942 310.000000
4.681430 93.475571 309.000000
4.681430 93.979088 309.000000
4.681430 94.482597 309.000000
4.666280 94.678711 308.000000
4.666280 95.180588 308.000000
4.666280 95.682472 308.000000
4.651130 95.872063 307.000000
4.651130 96.372322 307.000000
4.635979 96.557030 306.000000
4.635979 97.055656 306.000000
4.635979 97.554276 306.000000
4.620829 97.732460 305.000000
4.620829 98.229454 305.000000
4.620829 98.726448 305.000000
4.575378 98.247475 302.000000
4.575378 98.739578 302.000000
4.575378 99.231689 302.000000
4.560228 99.393578 301.000000
4.545078 99.552216 300.000000
4.545078 100.041061 300.000000
4.545078 100.529907 300.000000
4.545078 101.018753 300.000000
4.545078 101.507599 300.000000
4.545078 101.996445 300.000000
4.529928 102.143677 299.000000
4.514777 102.287643 298.000000
4.514777 102.773232 298.000000
4.514777 103.258820 298.000000
4.499627 103.396271 297.000000
4.499627 103.880226 297.000000
4.499627 104.364182 297.000000
4.499627 104.848145 297.000000
4.499627 105.332100 297.000000
4.484477 105.459770 296.000000
4.469326 105.584190 295.000000
4.469326 106.064888 295.000000
4.469326 106.545593 295.000000
4.454176 106.663483 294.000000
4.454176 107.142563 294.000000
4.454176 107.621628 294.000000
4.439026 107.733009 293.000000
4.439026 108.210449 293.000000
4.423876 108.316940 292.000000
4.423876 108.792747 292.000000
4.423876 109.268562 292.000000
4.423876 109.744370 292.000000
4.408725 109.842712 291.000000
4.408725 110.316895 291.000000
4.408725 110.791077 291.000000
4.393575 110.882896 290.000000
4.393575 111.355446 290.000000
4.393575 111.828003 290.000000
4.408143 112.672905 290.961548
4.408143 113.147018 290.961548
4.408143 113.621140 290.961548
4.405555 114.028290 290.790771
4.403052 114.437073 290.625549
4.403052 114.910645 290.625549
4.401114 115.333420 290.497620
4.401707 115.822380 290.536743
4.401707 116.295815 290.536743
4.401707 116.769241 290.536743
4.401168 117.228302 290.501160
4.401168 117.701668 290.501160
4.401355 118.180061 290.513489
4.401734 118.663673 290.538544
4.401734 119.137100 290.538544
4.402550 119.632713 290.592407
4.402550 120.106232 290.592407
4.402550 120.579750 290.592407
4.401990 121.037872 290.555481
4.401634 121.501488 290.531952
