-5.997796 124.114334 290.000000
-5.997796 124.586884 290.000000
-5.997796 125.059441 290.000000
-6.018478 125.964859 291.000000
-6.018478 126.439041 291.000000
-6.018478 126.913223 291.000000
-6.018478 127.387405 291.000000
-6.039160 128.300964 292.000000
-6.039160 128.776779 292.000000
-6.039160 129.252594 292.000000
-6.039160 129.728409 292.000000
-6.039160 130.204208 292.000000
-6.039160 130.680023 292.000000
-6.039160 131.155838 292.000000
-6.039160 131.631638 292.000000
-6.039160 132.107452 292.000000
-6.039160 132.583267 292.000000
-6.039160 133.059082 292.000000
-6.039160 133.534882 292.000000
-6.039160 134.010696 292.000000
-6.039160 134.486511 292.000000
-6.039160 134.962311 292.000000
-6.039160 135.438126 292.000000
-6.039160 135.913940 292.000000
-6.039160 136.389740 292.000000
-6.039160 136.865555 292.000000
-6.039160 137.341370 292.000000
-6.039160 137.817184 292.000000
-6.039160 138.292984 292.000000
-6.039160 138.768799 292.000000
-6.039160 139.244614 292.000000
-6.039160 139.720413 292.000000
-6.039160 140.196228 292.000000
-6.039160 140.672043 292.000000
-6.039160 141.147842 292.000000
-6.039160 141.623657 292.000000
-6.039160 142.099472 292.000000
-6.039160 142.575287 292.000000
-6.039160 143.051086 292.000000
-6.039160 143.526901 292.000000
-6.039160 144.002716 292.000000
-6.018478 143.983734 291.000000
-6.018478 144.457916 291.000000
-6.018478 144.932098 291.000000
-6.018478 145.406281 291.000000
-6.018478 145.880447 291.000000
-5.997796 145.851700 290.000000
-5.997796 146.324249 290.000000
-5.997796 146.796799 290.000000
-5.997796 147.269348 290.000000
-6.000078 152.998169 290.110352
-6.000078 153.470901 290.110352
-6.000078 153.943634 290.110352
-6.000839 154.435944 290.147125
-6.000839 154.908722 290.147125
-6.000839 155.381516 290.147125
-6.000839 155.854309 290.147125
-6.000121 156.308380 290.112396
-6.035137 10.656904 316.750000
-6.035137 11.173045 316.750000
-6.035137 11.689185 316.750000
-6.036499 12.208077 316.821442
-6.036499 12.724334 316.821442
-6.036499 13.240590 316.821442
-6.035500 13.754571 316.769043
-6.035500 14.270743 316.769043
-6.035500 14.786914 316.769043
-6.035500 15.303085 316.769043
-6.035500 15.819256 316.769043
-6.035500 16.335428 316.769043
-6.035500 16.851599 316.769043
-6.035500 17.367769 316.769043
-6.035500 17.883940 316.769043
-6.035500 18.400112 316.769043
-6.035536 18.916395 316.770935
-6.035536 19.432571 316.770935
-6.035576 19.948877 316.773041
-6.035576 20.465055 316.773041
-6.035576 20.981234 316.773041
-6.012802 21.416294 315.577759
-6.012037 21.927734 315.537628
-6.012037 22.441900 315.537628
-6.009875 22.947809 315.424164
-6.009875 23.461788 315.424164
-6.009875 23.975769 315.424164
-6.003673 24.464472 315.098602
-5.986332 24.905777 314.188507
-5.954390 25.282120 312.512054
-5.954390 25.791353 312.512054
-5.964958 26.347265 313.066681
-5.968768 26.874559 313.266663
-5.968768 27.385025 313.266663
-5.968768 27.895487 313.266663
-5.944634 28.291096 312.000000
-5.944634 28.799496 312.000000
-5.811261 28.650347 305.000000
-5.811261 29.147341 305.000000
-5.811261 29.644335 305.000000
-5.811261 30.141327 305.000000
-5.811261 30.638321 305.000000
-5.811261 31.135315 305.000000
-5.811261 31.632309 305.000000
-5.811261 32.129303 305.000000
-5.811261 32.626297 305.000000
-5.811261 33.123291 305.000000
-5.811261 33.620285 305.000000
-5.811261 34.117275 305.000000
-5.811261 34.614269 305.000000
-5.811261 35.111263 305.000000
-5.811261 35.608257 305.000000
-5.811261 36.105251 305.000000
-5.811261 36.602245 305.000000
-5.811261 37.099239 305.000000
-5.811261 37.596233 305.000000
-5.811261 38.093227 305.000000
-5.811261 38.590221 305.000000
-5.811261 39.087212 305.000000
-5.811261 39.584206 305.000000
-5.811261 40.081200 305.000000
-5.811261 40.578194 305.000000
-5.811261 41.075188 305.000000
-5.811261 41.572182 305.000000
-5.811261 42.069176 305.000000
-5.811261 42.566170 305.000000
-5.811261 43.063164 305.000000
-5.811261 43.560158 305.000000
-5.811261 44.057148 305.000000
-5.811261 44.554142 305.000000
-5.811261 45.051136 305.000000
-5.830314 45.697468 306.000000
-5.830314 46.196091 306.000000
-5.830314 46.694714 306.000000
-5.830314 47.193336 306.000000
-5.830314 47.691959 306.000000
-5.830314 48.190582 306.000000
-5.830314 48.689205 306.000000
-5.849367 49.348576 307.000000
-5.849367 49.848827 307.000000
-5.849367 50.349083 307.000000
-5.849367 50.849335 307.000000
-5.849367 51.349586 307.000000
-5.849367 51.849838 307.000000
-5.849367 52.350090 307.000000
-5.849367 52.850346 307.000000
-5.849367 53.350597 307.000000
-5.868421 54.026257 308.000000
-5.868421 54.528141 308.000000
-5.868421 55.030022 308.000000
-5.868421 55.531906 308.000000
-5.868421 56.033787 308.000000
-5.868421 56.535667 308.000000
-5.887474 57.222740 309.000000
-5.887474 57.726250 309.000000
-5.887474 58.229763 309.000000
-5.887474 58.733273 309.000000
-5.887474 59.236786 309.000000
-5.887474 59.740295 309.000000
-5.887474 60.243809 309.000000
-5.887474 60.747322 309.000000
-5.887474 61.250832 309.000000
-5.887474 61.754345 309.000000
-5.887474 62.257854 309.000000
-5.887474 62.761368 309.000000
-5.887474 63.264877 309.000000
-5.887474 63.768391 309.000000
-5.887474 64.271904 309.000000
-5.906527 64.985039 310.000000
-5.906527 65.490181 310.000000
-5.906527 65.995323 310.000000
-5.906527 66.500458 310.000000
-5.906527 67.005600 310.000000
-5.906527 67.510742 310.000000
-5.906527 68.015884 310.000000
-5.906527 68.521027 310.000000
-5.906527 69.026169 310.000000
-5.906527 69.531311 310.000000
-5.906527 70.036446 310.000000
-5.906527 70.541588 310.000000
-5.906527 71.046730 310.000000
-5.906527 71.551872 310.000000
-5.906527 72.057014 310.000000
-5.906527 72.562157 310.000000
-5.906527 73.067299 310.000000
-5.906527 73.572433 310.000000
-5.906527 74.077576 310.000000
-5.906527 74.582718 310.000000
-5.906527 75.087860 310.000000
-5.906527 75.593002 310.000000
-5.906527 76.098145 310.000000
-5.887474 76.356178 309.000000
-5.887474 76.859688 309.000000
-5.887474 77.363205 309.000000
-5.887474 77.866714 309.000000
-5.887474 78.370224 309.000000
-5.887474 78.873741 309.000000
-5.887474 79.377251 309.000000
-5.887474 79.880760 309.000000
-5.887474 80.384270 309.000000
-5.906527 81.149551 310.000000
-5.906527 81.654694 310.000000
-5.906527 82.159836 310.000000
-5.906527 82.664978 310.000000
-5.906527 83.170120 310.000000
-5.789826 82.021996 303.875000
-5.771894 82.261589 302.933838
-5.771894 82.755219 302.933838
-5.756016 83.019829 302.100494
-5.740973 83.293854 301.311005
-5.740973 83.784836 301.311005
-5.696794 83.627274 298.992279
-5.684968 83.939865 298.371582
-5.684968 84.426056 298.371582
-5.620728 83.952751 295.000000
-5.620728 84.433449 295.000000
-5.620728 84.914146 295.000000
-5.620728 85.394844 295.000000
-5.620728 85.875542 295.000000
-5.620728 86.356239 295.000000
-5.620728 86.836937 295.000000
-5.620728 87.317642 295.000000
-5.601674 87.500717 294.000000
-5.601674 87.979782 294.000000
-5.601674 88.458855 294.000000
-5.601674 88.937920 294.000000
-5.601674 89.416992 294.000000
-5.601674 89.896065 294.000000
-5.601674 90.375130 294.000000
-5.601674 90.854202 294.000000
-5.601674 91.333267 294.000000
-5.582621 91.500053 293.000000
-5.582621 91.977493 293.000000
-5.601674 92.770477 294.000000
-5.601674 93.249550 294.000000
-5.601674 93.728615 294.000000
-5.601674 94.207687 294.000000
-5.601674 94.686752 294.000000
-5.601674 95.165825 294.000000
-5.601674 95.644890 294.000000
-5.601674 96.123962 294.000000
-5.601674 96.603035 294.000000
-5.601674 97.082100 294.000000
-5.601674 97.561172 294.000000
-5.601674 98.040237 294.000000
-5.601674 98.519310 294.000000
-5.620728 99.335106 295.000000
-5.620728 99.815811 295.000000
-5.620728 100.296509 295.000000
-5.620728 100.777206 295.000000
-5.620728 101.257904 295.000000
-5.620728 101.738602 295.000000
-5.620728 102.219299 295.000000
-5.620728 102.699997 295.000000
-5.620728 103.180702 295.000000
-5.601674 103.309998 294.000000
-5.601674 103.789070 294.000000
-5.601674 104.268143 294.000000
-5.601674 104.747208 294.000000
-5.601674 105.226280 294.000000
-5.601674 105.705345 294.000000
-5.601674 106.184418 294.000000
-5.601674 106.663483 294.000000
-5.601674 107.142563 294.000000
-5.601674 107.621628 294.000000
-5.601674 108.100700 294.000000
-5.601674 108.579773 294.000000
-5.601674 109.058838 294.000000
-5.601674 109.537910 294.000000
-5.601674 110.016975 294.000000
-5.582621 110.120209 293.000000
-5.582621 110.597649 293.000000
-5.582621 111.075089 293.000000
-5.582621 111.552528 293.000000
-5.582621 112.029968 293.000000
-5.582621 112.507408 293.000000
-5.582621 112.984848 293.000000
-5.582621 113.462288 293.000000
-5.582621 113.939728 293.000000
-5.581744 114.399193 292.953979
-5.581955 114.880898 292.965057
-5.581955 115.358284 292.965057
-5.581955 115.835663 292.965057
-5.576550 116.200409 292.681366
-5.563568 116.405716 292.000000
-5.563568 116.881523 292.000000
-5.563568 117.357338 292.000000
-5.563568 117.833145 292.000000
-5.563568 118.308952 292.000000
-5.563568 118.784767 292.000000
-5.563568 119.260574 292.000000
-5.563568 119.736389 292.000000
-5.563568 120.212196 292.000000
-5.563568 120.688004 292.000000
-5.563568 121.163818 292.000000
-5.563568 121.639626 292.000000
-5.563568 122.115440 292.000000
-5.563568 122.591248 292.000000
-5.563568 123.067055 292.000000
-5.563568 123.542870 292.000000
-5.563568 124.018677 292.000000
-5.563568 124.494492 292.000000
-5.563568 124.970299 292.000000
-5.563568 125.446106 292.000000
-5.563568 125.921921 292.000000
-5.563568 126.397728 292.000000
-5.563568 126.873543 292.000000
-5.563568 127.349350 292.000000
-5.563568 127.825165 292.000000
-5.582621 128.740356 293.000000
-5.582621 129.217804 293.000000
-5.582621 129.695236 293.000000
-5.582621 130.172684 293.000000
-5.582621 130.650116 293.000000
-5.582621 131.127563 293.000000
-5.582621 131.604996 293.000000
-5.582621 132.082443 293.000000
-5.563568 132.107452 292.000000
-5.563568 132.583267 292.000000
-5.563568 133.059082 292.000000
-5.563568 133.534882 292.000000
-5.563568 134.010696 292.000000
-5.563568 134.486511 292.000000
-5.563568 134.962311 292.000000
-5.563568 135.438126 292.000000
-5.563568 135.913940 292.000000
-5.563568 136.389740 292.000000
-5.563568 136.865555 292.000000
-5.563568 137.341370 292.000000
-5.582621 138.289154 293.000000
-5.582621 138.766602 293.000000
-5.582621 139.244034 293.000000
-5.582621 139.721481 293.000000
-5.563568 139.720413 292.000000
-5.563568 140.196228 292.000000
-5.563568 140.672043 292.000000
-5.563568 141.147842 292.000000
-5.563568 141.623657 292.000000
-5.563568 142.099472 292.000000
-5.563568 142.575287 292.000000
-5.563568 143.051086 292.000000
-5.563568 143.526901 292.000000
-5.563568 144.002716 292.000000
-5.563568 144.478516 292.000000
-5.563568 144.954330 292.000000
-5.544514 144.932098 291.000000
-5.544514 145.406281 291.000000
-5.544514 145.880447 291.000000
-5.525461 145.851700 290.000000
-5.525461 146.324249 290.000000
-5.525461 146.796799 290.000000
-5.525461 147.269348 290.000000
-5.527564 152.998169 290.110352
-5.527564 153.470901 290.110352
-5.527564 153.943634 290.110352
-5.528264 154.435944 290.147125
-5.528264 154.908722 290.147125
-5.528264 155.381516 290.147125
-5.528264 155.854309 290.147125
-5.527603 156.308380 290.112396
-5.519233 10.656904 316.750000
-5.519233 11.173045 316.750000
-5.519233 11.689185 316.750000
-5.520478 12.208077 316.821442
-5.520478 12.724334 316.821442
-5.520478 13.240590 316.821442
-5.519565 13.754571 316.769043
-5.519565 14.270743 316.769043
-5.519565 14.786914 316.769043
-5.519565 15.303085 316.769043
-5.519565 15.819256 316.769043
-5.519565 16.335428 316.769043
-5.519565 16.851599 316.769043
-5.519565 17.367769 316.769043
-5.519565 17.883940 316.769043
-5.519565 18.400112 316.769043
-5.519598 18.916395 316.770935
-5.519598 19.432571 316.770935
-5.519635 19.948877 316.773041
-5.519635 20.465055 316.773041
-5.519635 20.981234 316.773041
-5.498807 21.416294 315.577759
-5.498108 21.927734 315.537628
-5.498108 22.441900 315.537628
-5.496131 22.947809 315.424164
-5.496131 23.461788 315.424164
-5.496131 23.975769 315.424164
-5.490458 24.464472 315.098602
-5.474600 24.905777 314.188507
-5.445389 25.282120 312.512054
-5.445389 25.791353 312.512054
-5.455053 26.347265 313.066681
-5.458538 26.874559 313.266663
-5.458538 27.385025 313.266663
-5.458538 27.895487 313.266663
-5.436467 28.291096 312.000000
-5.436467 28.799496 312.000000
-5.314495 28.650347 305.000000
-5.314495 29.147341 305.000000
-5.314495 29.644335 305.000000
-5.314495 30.141327 305.000000
-5.314495 30.638321 305.000000
-5.314495 31.135315 305.000000
-5.314495 31.632309 305.000000
-5.314495 32.129303 305.000000
-5.314495 32.626297 305.000000
-5.314495 33.123291 305.000000
-5.314495 33.620285 305.000000
-5.314495 34.117275 305.000000
-5.314495 34.614269 305.000000
-5.314495 35.111263 305.000000
-5.314495 35.608257 305.000000
-5.314495 36.105251 305.000000
-5.314495 36.602245 305.000000
-5.314495 37.099239 305.000000
-5.314495 37.596233 305.000000
-5.314495 38.093227 305.000000
-5.314495 38.590221 305.000000
-5.314495 39.087212 305.000000
-5.314495 39.584206 305.000000
-5.314495 40.081200 305.000000
-5.314495 40.578194 305.000000
-5.314495 41.075188 305.000000
-5.314495 41.572182 305.000000
-5.314495 42.069176 305.000000
-5.314495 42.566170 305.000000
-5.314495 43.063164 305.000000
-5.314495 43.560158 305.000000
-5.314495 44.057148 305.000000
-5.331919 44.700222 306.000000
-5.331919 45.198845 306.000000
-5.331919 45.697468 306.000000
-5.331919 46.196091 306.000000
-5.331919 46.694714 306.000000
-5.331919 47.193336 306.000000
-5.331919 47.691959 306.000000
-5.331919 48.190582 306.000000
-5.349344 48.848324 307.000000
-5.349344 49.348576 307.000000
-5.349344 49.848827 307.000000
-5.349344 50.349083 307.000000
-5.349344 50.849335 307.000000
-5.349344 51.349586 307.000000
-5.349344 51.849838 307.000000
-5.349344 52.350090 307.000000
-5.349344 52.850346 307.000000
-5.366768 53.524376 308.000000
-5.366768 54.026257 308.000000
-5.366768 54.528141 308.000000
-5.366768 55.030022 308.000000
-5.366768 55.531906 308.000000
-5.366768 56.033787 308.000000
-5.366768 56.535667 308.000000
-5.384193 57.222740 309.000000
-5.384193 57.726250 309.000000
-5.384193 58.229763 309.000000
-5.384193 58.733273 309.000000
-5.401617 59.428486 310.000000
-5.401617 59.933628 310.000000
-5.401617 60.438766 310.000000
-5.401617 60.943909 310.000000
-5.401617 61.449051 310.000000
-5.401617 61.954193 310.000000
-5.384193 62.257854 309.000000
-5.384193 62.761368 309.000000
-5.384193 63.264877 309.000000
-5.401617 63.974754 310.000000
-5.401617 64.479897 310.000000
-5.401617 64.985039 310.000000
-5.401617 65.490181 310.000000
-5.401617 65.995323 310.000000
-5.401617 66.500458 310.000000
-5.419042 67.221748 311.000000
-5.419042 67.728523 311.000000
-5.419042 68.235291 311.000000
-5.419042 68.742065 311.000000
-5.419042 69.248833 311.000000
-5.419042 69.755608 311.000000
-5.419042 70.262375 311.000000
-5.419042 70.769142 311.000000
-5.419042 71.275917 311.000000
-5.419042 71.782684 311.000000
-5.419042 72.289459 311.000000
-5.419042 72.796227 311.000000
-5.419042 73.303001 311.000000
-5.419042 73.809769 311.000000
-5.419042 74.316536 311.000000
-5.419042 74.823311 311.000000
-5.401617 75.087860 310.000000
-5.401617 75.593002 310.000000
-5.401617 76.098145 310.000000
-5.401617 76.603279 310.000000
-5.401617 77.108421 310.000000
-5.401617 77.613564 310.000000
-5.419042 78.370705 311.000000
-5.419042 78.877472 311.000000
-5.419042 79.384247 311.000000
-5.419042 79.891014 311.000000
-5.419042 80.397789 311.000000
-5.401617 80.644409 310.000000
-5.401617 81.149551 310.000000
-5.401617 81.654694 310.000000
-5.401617 82.159836 310.000000
-5.419042 82.931641 311.000000
-5.419042 83.438408 311.000000
-5.419042 83.945183 311.000000
-5.317980 82.876968 305.200012
-5.317980 83.374283 305.200012
-5.301644 83.613976 304.262512
-5.285244 83.849579 303.321320
-5.285244 84.343842 303.321320
-5.209813 83.627274 298.992279
-5.198997 83.939865 298.371582
-5.198997 84.426056 298.371582
-5.140249 83.952751 295.000000
-5.140249 84.433449 295.000000
-5.140249 84.914146 295.000000
-5.140249 85.394844 295.000000
-5.140249 85.875542 295.000000
-5.140249 86.356239 295.000000
-5.140249 86.836937 295.000000
-5.140249 87.317642 295.000000
-5.140249 87.798340 295.000000
-5.140249 88.279037 295.000000
-5.140249 88.759735 295.000000
-5.122824 88.937920 294.000000
-5.122824 89.416992 294.000000
-5.122824 89.896065 294.000000
-5.122824 90.375130 294.000000
-5.122824 90.854202 294.000000
-5.122824 91.333267 294.000000
-5.122824 91.812340 294.000000
-5.122824 92.291405 294.000000
-5.122824 92.770477 294.000000
-5.122824 93.249550 294.000000
-5.122824 93.728615 294.000000
-5.122824 94.207687 294.000000
-5.122824 94.686752 294.000000
-5.122824 95.165825 294.000000
-5.122824 95.644890 294.000000
-5.122824 96.123962 294.000000
-5.122824 96.603035 294.000000
-5.122824 97.082100 294.000000
-5.140249 97.893013 295.000000
-5.140249 98.373711 295.000000
-5.140249 98.854408 295.000000
-5.140249 99.335106 295.000000
-5.140249 99.815811 295.000000
-5.140249 100.296509 295.000000
-5.140249 100.777206 295.000000
-5.140249 101.257904 295.000000
-5.140249 101.738602 295.000000
-5.140249 102.219299 295.000000
-5.140249 102.699997 295.000000
-5.140249 103.180702 295.000000
-5.140249 103.661400 295.000000
-5.140249 104.142097 295.000000
-5.140249 104.622795 295.000000
-5.140249 105.103493 295.000000
-5.140249 105.584190 295.000000
-5.140249 106.064888 295.000000
-5.140249 106.545593 295.000000
-5.122824 106.663483 294.000000
-5.122824 107.142563 294.000000
-5.122824 107.621628 294.000000
-5.122824 108.100700 294.000000
-5.122824 108.579773 294.000000
-5.122824 109.058838 294.000000
-5.122824 109.537910 294.000000
-5.122824 110.016975 294.000000
-5.122824 110.496048 294.000000
-5.122824 110.975113 294.000000
-5.122824 111.454185 294.000000
-5.122824 111.933258 294.000000
-5.122824 112.412323 294.000000
-5.122824 112.891396 294.000000
-5.122824 113.370461 294.000000
-5.122824 113.849533 294.000000
-5.122824 114.328598 294.000000
-5.122824 114.807671 294.000000
-5.113266 115.071625 293.451447
-5.113210 115.548538 293.448242
-5.113210 116.026718 293.448242
-5.108921 116.407143 293.202057
-5.108363 116.872154 293.170044
-5.108363 117.349861 293.170044
-5.105400 117.759247 293.000000
-5.105400 118.236687 293.000000
-5.105400 118.714127 293.000000
-5.105400 119.191566 293.000000
-5.105400 119.669006 293.000000
-5.105400 120.146446 293.000000
-5.105400 120.623886 293.000000
-5.105400 121.101326 293.000000
-5.105400 121.578766 293.000000
-5.105400 122.056206 293.000000
-5.105400 122.533646 293.000000
-5.105400 123.011086 293.000000
-5.105400 123.488525 293.000000
-5.105400 123.965965 293.000000
-5.105400 124.443405 293.000000
-5.105400 124.920845 293.000000
-5.105400 125.398285 293.000000
-5.105400 125.875725 293.000000
-5.105400 126.353165 293.000000
-5.105400 126.830605 293.000000
-5.105400 127.308044 293.000000
-5.105400 127.785484 293.000000
-5.105400 128.262924 293.000000
-5.105400 128.740356 293.000000
-5.105400 129.217804 293.000000
-5.105400 129.695236 293.000000
-5.105400 130.172684 293.000000
-5.105400 130.650116 293.000000
-5.105400 131.127563 293.000000
-5.105400 131.604996 293.000000
-5.105400 132.082443 293.000000
-5.105400 132.559875 293.000000
-5.105400 133.037323 293.000000
-5.105400 133.514755 293.000000
-5.105400 133.992203 293.000000
-5.105400 134.469635 293.000000
-5.105400 134.947083 293.000000
-5.105400 135.424515 293.000000
-5.105400 135.901962 293.000000
-5.105400 136.379395 293.000000
-5.105400 136.856842 293.000000
-5.122824 137.802994 294.000000
-5.122824 138.282059 294.000000
-5.122824 138.761139 294.000000
-5.122824 139.240204 294.000000
-5.122824 139.719269 294.000000
-5.122824 140.198349 294.000000
-5.122824 140.677414 294.000000
-5.122824 141.156479 294.000000
-5.105400 141.153793 293.000000
-5.105400 141.631241 293.000000
-5.105400 142.108673 293.000000
-5.087975 142.099472 292.000000
-5.087975 142.575287 292.000000
-5.087975 143.051086 292.000000
-5.087975 143.526901 292.000000
-5.087975 144.002716 292.000000
-5.087975 144.478516 292.000000
-5.087975 144.954330 292.000000
-5.087975 145.430145 292.000000
-5.070550 145.406281 291.000000
-5.070550 145.880447 291.000000
-5.070550 146.354630 291.000000
-5.070550 146.828812 291.000000
-5.070550 147.302994 291.000000
-5.053126 147.269348 290.000000
-5.054087 153.441711 290.055176
-5.054087 153.914352 290.055176
-5.055583 154.432663 290.140991
-5.056081 154.920731 290.169617
-5.056081 155.393555 290.169617
-5.056081 155.866379 290.169617
-5.055832 156.331497 290.155304
-5.055832 156.804306 290.155304
-5.055832 157.277115 290.155304
-5.053086 9.199065 319.899994
-5.072963 9.758574 321.158325
-5.072963 10.281897 321.158325
-5.072963 10.805221 321.158325
-5.063025 11.306351 320.529175
-5.063025 11.828650 320.529175
-5.063025 12.350947 320.529175
-5.063025 12.873246 320.529175
-5.063025 13.395545 320.529175
-5.063025 13.917843 320.529175
-5.063025 14.440140 320.529175
-5.063025 14.962439 320.529175
-5.063025 15.484736 320.529175
-5.063025 16.007034 320.529175
-5.063025 16.529333 320.529175
-5.063025 17.051632 320.529175
-5.064019 17.577381 320.592102
-5.064019 18.099781 320.592102
-5.064019 18.622181 320.592102
-5.063134 19.141237 320.536102
-5.063134 19.663548 320.536102
-5.063145 20.185902 320.536804
-5.063145 20.708212 320.536804
-5.063145 21.230522 320.536804
-5.024129 21.585209 318.066803
-5.022206 22.095034 317.945038
-5.022206 22.613121 317.945038
-5.029155 23.163216 318.384979
-5.029155 23.682018 318.384979
-5.029155 24.200825 318.384979
-5.028723 24.717506 318.357635
-5.019547 25.190212 317.776672
-4.997811 25.596703 316.400635
-4.997811 26.112276 316.400635
-4.974766 26.505062 314.941681
-4.977924 27.035410 315.141663
-4.977924 27.548931 315.141663
-4.977924 28.062452 315.141663
-4.959891 28.472446 314.000000
-4.959891 28.984106 314.000000
-4.954626 29.464455 313.666656
-4.956731 29.988312 313.799988
-4.956731 30.499643 313.799988
-4.958838 31.024153 313.933319
-4.979636 31.667969 315.250000
-4.979636 32.181667 315.250000
-4.979636 32.695362 315.250000
-4.817729 32.129303 305.000000
-4.817729 32.626297 305.000000
-4.817729 33.123291 305.000000
-4.817729 33.620285 305.000000
-4.817729 34.117275 305.000000
-4.817729 34.614269 305.000000
-4.817729 35.111263 305.000000
-4.817729 35.608257 305.000000
-4.817729 36.105251 305.000000
-4.817729 36.602245 305.000000
-4.817729 37.099239 305.000000
-4.817729 37.596233 305.000000
-4.817729 38.093227 305.000000
-4.817729 38.590221 305.000000
-4.817729 39.087212 305.000000
-4.817729 39.584206 305.000000
-4.817729 40.081200 305.000000
-4.817729 40.578194 305.000000
-4.817729 41.075188 305.000000
-4.817729 41.572182 305.000000
-4.817729 42.069176 305.000000
-4.817729 42.566170 305.000000
-4.817729 43.063164 305.000000
-4.817729 43.560158 305.000000
-4.817729 44.057148 305.000000
-4.833524 44.700222 306.000000
-4.833524 45.198845 306.000000
-4.833524 45.697468 306.000000
-4.833524 46.196091 306.000000
-4.833524 46.694714 306.000000
-4.833524 47.193336 306.000000
-4.833524 47.691959 306.000000
-4.833524 48.190582 306.000000
-4.849320 48.848324 307.000000
-4.849320 49.348576 307.000000
-4.849320 49.848827 307.000000
-4.849320 50.349083 307.000000
-4.849320 50.849335 307.000000
-4.849320 51.349586 307.000000
-4.849320 51.849838 307.000000
-4.849320 52.350090 307.000000
-4.849320 52.850346 307.000000
-4.865116 53.524376 308.000000
-4.865116 54.026257 308.000000
-4.865116 54.528141 308.000000
-4.865116 55.030022 308.000000
-4.865116 55.531906 308.000000
-4.865116 56.033787 308.000000
-4.865116 56.535667 308.000000
-4.880912 57.222740 309.000000
-4.880912 57.726250 309.000000
-4.880912 58.229763 309.000000
-4.880912 58.733273 309.000000
-4.896708 59.428486 310.000000
-4.896708 59.933628 310.000000
-4.896708 60.438766 310.000000
-4.896708 60.943909 310.000000
-4.896708 61.449051 310.000000
-4.896708 61.954193 310.000000
-4.880912 62.257854 309.000000
-4.880912 62.761368 309.000000
-4.880912 63.264877 309.000000
-4.896708 63.974754 310.000000
-4.896708 64.479897 310.000000
-4.896708 64.985039 310.000000
-4.896708 65.490181 310.000000
-4.896708 65.995323 310.000000
-4.896708 66.500458 310.000000
-4.912503 67.221748 311.000000
-4.912503 67.728523 311.000000
-4.912503 68.235291 311.000000
-4.912503 68.742065 311.000000
-4.912503 69.248833 311.000000
-4.912503 69.755608 311.000000
-4.912503 70.262375 311.000000
-4.912503 70.769142 311.000000
-4.912503 71.275917 311.000000
-4.912503 71.782684 311.000000
-4.912503 72.289459 311.000000
-4.912503 72.796227 311.000000
-4.912503 73.303001 311.000000
-4.912503 73.809769 311.000000
-4.912503 74.316536 311.000000
-4.912503 74.823311 311.000000
-4.896708 75.087860 310.000000
-4.896708 75.593002 310.000000
-4.896708 76.098145 310.000000
-4.896708 76.603279 310.000000
-4.896708 77.108421 310.000000
-4.896708 77.613564 310.000000
-4.912503 78.370705 311.000000
-4.912503 78.877472 311.000000
-4.912503 79.384247 311.000000
-4.912503 79.891014 311.000000
-4.912503 80.397789 311.000000
-4.896708 80.644409 310.000000
-4.896708 81.149551 310.000000
-4.896708 81.654694 310.000000
-4.896708 82.159836 310.000000
-4.912503 82.931641 311.000000
-4.912503 83.438408 311.000000
-4.912503 83.945183 311.000000
-4.828370 83.005592 305.673676
-4.828370 83.503677 305.673676
-4.828370 84.001770 305.673676
-4.791212 83.849579 303.321320
-4.791212 84.343842 303.321320
-4.744563 84.012085 300.368073
-4.733085 84.297089 299.641388
-4.733085 84.785362 299.641388
-4.718207 85.005577 298.699524
-4.708403 85.314659 298.078857
-4.675566 85.201988 296.000000
-4.675566 85.684311 296.000000
-4.675566 86.166641 296.000000
-4.675566 86.648972 296.000000
-4.675566 87.131302 296.000000
-4.659770 87.317642 295.000000
-4.659770 87.798340 295.000000
-4.659770 88.279037 295.000000
-4.659770 88.759735 295.000000
-4.643974 88.937920 294.000000
-4.643974 89.416992 294.000000
-4.643974 89.896065 294.000000
-4.643974 90.375130 294.000000
-4.643974 90.854202 294.000000
-4.643974 91.333267 294.000000
-4.643974 91.812340 294.000000
-4.643974 92.291405 294.000000
-4.643974 92.770477 294.000000
-4.643974 93.249550 294.000000
-4.643974 93.728615 294.000000
-4.643974 94.207687 294.000000
-4.643974 94.686752 294.000000
-4.643974 95.165825 294.000000
-4.643974 95.644890 294.000000
-4.643974 96.123962 294.000000
-4.643974 96.603035 294.000000
-4.643974 97.082100 294.000000
-4.659770 97.893013 295.000000
-4.659770 98.373711 295.000000
-4.659770 98.854408 295.000000
-4.659770 99.335106 295.000000
-4.659770 99.815811 295.000000
-4.659770 100.296509 295.000000
-4.659770 100.777206 295.000000
-4.659770 101.257904 295.000000
-4.659770 101.738602 295.000000
-4.659770 102.219299 295.000000
-4.659770 102.699997 295.000000
-4.659770 103.180702 295.000000
-4.659770 103.661400 295.000000
-4.659770 104.142097 295.000000
-4.659770 104.622795 295.000000
-4.659770 105.103493 295.000000
-4.659770 105.584190 295.000000
-4.659770 106.064888 295.000000
-4.659770 106.545593 295.000000
-4.643974 106.663483 294.000000
-4.643974 107.142563 294.000000
-4.643974 107.621628 294.000000
-4.643974 108.100700 294.000000
-4.643974 108.579773 294.000000
-4.643974 109.058838 294.000000
-4.643974 109.537910 294.000000
-4.643974 110.016975 294.000000
-4.643974 110.496048 294.000000
-4.643974 110.975113 294.000000
-4.643974 111.454185 294.000000
-4.643974 111.933258 294.000000
-4.643974 112.412323 294.000000
-4.643974 112.891396 294.000000
-4.643974 113.370461 294.000000
-4.643974 113.849533 294.000000
-4.643974 114.328598 294.000000
-4.643974 114.807671 294.000000
-4.635309 115.071625 293.451447
-4.635259 115.548538 293.448242
-4.635259 116.026718 293.448242
-4.631370 116.407143 293.202057
-4.630865 116.872154 293.170044
-4.630865 117.349861 293.170044
-4.628179 117.759247 293.000000
-4.628179 118.236687 293.000000
-4.628179 118.714127 293.000000
-4.628179 119.191566 293.000000
-4.628179 119.669006 293.000000
-4.628179 120.146446 293.000000
-4.628179 120.623886 293.000000
-4.628179 121.101326 293.000000
-4.628179 121.578766 293.000000
-4.628179 122.056206 293.000000
-4.628179 122.533646 293.000000
-4.628179 123.011086 293.000000
-4.628179 123.488525 293.000000
-4.628179 123.965965 293.000000
-4.628179 124.443405 293.000000
-4.628179 124.920845 293.000000
-4.628179 125.398285 293.000000
-4.628179 125.875725 293.000000
-4.628179 126.353165 293.000000
-4.628179 126.830605 293.000000
-4.628179 127.308044 293.000000
-4.628179 127.785484 293.000000
-4.628179 128.262924 293.000000
-4.628179 128.740356 293.000000
-4.628179 129.217804 293.000000
-4.628179 129.695236 293.000000
-4.628179 130.172684 293.000000
-4.628179 130.650116 293.000000
-4.628179 131.127563 293.000000
-4.628179 131.604996 293.000000
-4.628179 132.082443 293.000000
-4.628179 132.559875 293.000000
-4.628179 133.037323 293.000000
-4.628179 133.514755 293.000000
-4.628179 133.992203 293.000000
-4.628179 134.469635 293.000000
-4.628179 134.947083 293.000000
-4.628179 135.424515 293.000000
-4.628179 135.901962 293.000000
-4.628179 136.379395 293.000000
-4.628179 136.856842 293.000000
-4.643974 137.802994 294.000000
-4.643974 138.282059 294.000000
-4.643974 138.761139 294.000000
-4.643974 139.240204 294.000000
-4.643974 139.719269 294.000000
-4.643974 140.198349 294.000000
-4.643974 140.677414 294.000000
-4.643974 141.156479 294.000000
-4.628179 141.153793 293.000000
-4.628179 141.631241 293.000000
-4.628179 142.108673 293.000000
-4.612382 142.099472 292.000000
-4.612382 142.575287 292.000000
-4.612382 143.051086 292.000000
-4.612382 143.526901 292.000000
-4.612382 144.002716 292.000000
-4.612382 144.478516 292.000000
-4.612382 144.954330 292.000000
-4.612382 145.430145 292.000000
-4.596587 145.406281 291.000000
-4.596587 145.880447 291.000000
-4.596587 146.354630 291.000000
-4.596587 146.828812 291.000000
-4.596587 147.302994 291.000000
-4.580791 147.269348 290.000000
-4.580791 147.741898 290.000000
-4.580791 148.214447 290.000000
-4.583470 154.920731 290.169617
-4.583470 155.393555 290.169617
-4.583470 155.866379 290.169617
-4.583244 156.331497 290.155304
-4.583244 156.804306 290.155304
-4.583244 157.277115 290.155304
-4.583244 157.749924 290.155304
-4.532052 9.199065 319.899994
-4.549879 9.758574 321.158325
-4.549879 10.281897 321.158325
-4.549879 10.805221 321.158325
-4.540965 11.306351 320.529175
-4.540965 11.828650 320.529175
-4.540965 12.350947 320.529175
-4.540965 12.873246 320.529175
-4.540965 13.395545 320.529175
-4.540965 13.917843 320.529175
-4.540965 14.440140 320.529175
-4.540965 14.962439 320.529175
-4.540965 15.484736 320.529175
-4.540965 16.007034 320.529175
-4.540965 16.529333 320.529175
-4.540965 17.051632 320.529175
-4.541857 17.577381 320.592102
-4.541857 18.099781 320.592102
-4.541857 18.622181 320.592102
-4.541063 19.141237 320.536102
-4.541063 19.663548 320.536102
-4.541073 20.185902 320.536804
-4.541073 20.708212 320.536804
-4.541073 21.230522 320.536804
-4.506081 21.585209 318.066803
-4.504355 22.095034 317.945038
-4.504355 22.613121 317.945038
-4.510588 23.163216 318.384979
-4.510588 23.682018 318.384979
-4.510588 24.200825 318.384979
-4.510201 24.717506 318.357635
-4.501970 25.190212 317.776672
-4.482476 25.596703 316.400635
-4.482476 26.112276 316.400635
-4.486807 26.653576 316.706360
-4.489641 27.186804 316.906372
-4.489641 27.703197 316.906372
-4.489641 28.219593 316.906372
-4.475029 28.642467 315.875000
-4.475029 29.157181 315.875000
-4.470307 29.640581 315.541656
-4.472196 30.167496 315.674988
-4.472196 30.681885 315.674988
-4.473199 31.203274 315.745819
-4.490342 31.839331 316.955872
-4.490342 32.355804 316.955872
-4.490342 32.872280 316.955872
-4.480134 33.312847 316.235291
-4.480134 33.828152 316.235291
-4.478467 34.330677 316.117645
-4.464404 34.736366 315.125000
-4.464404 35.249855 315.125000
-4.434154 35.521023 312.989777
-4.429335 35.991875 312.649597
-4.429335 36.501335 312.649597
-4.320962 36.105251 305.000000
-4.320962 36.602245 305.000000
-4.320962 37.099239 305.000000
-4.320962 37.596233 305.000000
-4.320962 38.093227 305.000000
-4.320962 38.590221 305.000000
-4.320962 39.087212 305.000000
-4.320962 39.584206 305.000000
-4.320962 40.081200 305.000000
-4.320962 40.578194 305.000000
-4.320962 41.075188 305.000000
-4.320962 41.572182 305.000000
-4.320962 42.069176 305.000000
-4.320962 42.566170 305.000000
-4.320962 43.063164 305.000000
-4.320962 43.560158 305.000000
-4.335129 44.201599 306.000000
-4.335129 44.700222 306.000000
-4.335129 45.198845 306.000000
-4.335129 45.697468 306.000000
-4.335129 46.196091 306.000000
-4.335129 46.694714 306.000000
-4.335129 47.193336 306.000000
-4.349296 47.847816 307.000000
-4.349296 48.348072 307.000000
-4.349296 48.848324 307.000000
-4.349296 49.348576 307.000000
-4.349296 49.848827 307.000000
-4.349296 50.349083 307.000000
-4.349296 50.849335 307.000000
-4.349296 51.349586 307.000000
-4.349296 51.849838 307.000000
-4.363463 52.520611 308.000000
-4.363463 53.022495 308.000000
-4.363463 53.524376 308.000000
-4.363463 54.026257 308.000000
-4.363463 54.528141 308.000000
-4.363463 55.030022 308.000000
-4.363463 55.531906 308.000000
-4.377631 56.215717 309.000000
-4.377631 56.719227 309.000000
-4.377631 57.222740 309.000000
-4.377631 57.726250 309.000000
-4.377631 58.229763 309.000000
-4.391798 58.923344 310.000000
-4.391798 59.428486 310.000000
-4.391798 59.933628 310.000000
-4.391798 60.438766 310.000000
-4.391798 60.943909 310.000000
-4.391798 61.449051 310.000000
-4.391798 61.954193 310.000000
-4.391798 62.459332 310.000000
-4.391798 62.964474 310.000000
-4.391798 63.469616 310.000000
-4.391798 63.974754 310.000000
-4.391798 64.479897 310.000000
-4.391798 64.985039 310.000000
-4.405965 65.701439 311.000000
-4.405965 66.208206 311.000000
-4.405965 66.714981 311.000000
-4.405965 67.221748 311.000000
-4.405965 67.728523 311.000000
-4.405965 68.235291 311.000000
-4.405965 68.742065 311.000000
-4.405965 69.248833 311.000000
-4.405965 69.755608 311.000000
-4.405965 70.262375 311.000000
-4.405965 70.769142 311.000000
-4.405965 71.275917 311.000000
-4.405965 71.782684 311.000000
-4.405965 72.289459 311.000000
-4.405965 72.796227 311.000000
-4.405965 73.303001 311.000000
-4.405965 73.809769 311.000000
-4.405965 74.316536 311.000000
-4.405965 74.823311 311.000000
-4.405965 75.330078 311.000000
-4.405965 75.836853 311.000000
-4.420132 76.589104 312.000000
-4.420132 77.097504 312.000000
-4.420132 77.605904 312.000000
-4.420132 78.114304 312.000000
-4.420132 78.622704 312.000000
-4.420132 79.131104 312.000000
-4.420132 79.639503 312.000000
-4.420132 80.147903 312.000000
-4.420132 80.656303 312.000000
-4.420132 81.164703 312.000000
-4.405965 81.411324 311.000000
-4.405965 81.918098 311.000000
-4.405965 82.424866 311.000000
-4.405965 82.931641 311.000000
-4.405965 83.438408 311.000000
-4.420132 84.215103 312.000000
-4.420132 84.723503 312.000000
-4.420132 85.231903 312.000000
-4.330506 84.001770 305.673676
-4.297180 83.849579 303.321320
-4.297180 84.343842 303.321320
-4.255342 84.012085 300.368073
-4.258756 84.569344 300.609131
-4.258756 85.059181 300.609131
-4.258756 85.549019 300.609131
-4.248986 85.841469 299.919464
-4.237309 86.092926 299.095215
-4.237309 86.580299 299.095215
-4.227050 86.856880 298.371094
-4.207625 86.941704 297.000000
-4.207625 87.425659 297.000000
-4.193459 87.613625 296.000000
-4.179291 87.798340 295.000000
-4.179291 88.279037 295.000000
-4.179291 88.759735 295.000000
-4.179291 89.240433 295.000000
-4.179291 89.721130 295.000000
-4.179291 90.201836 295.000000
-4.179291 90.682533 295.000000
-4.179291 91.163231 295.000000
-4.179291 91.643929 295.000000
-4.179291 92.124626 295.000000
-4.179291 92.605324 295.000000
-4.179291 93.086021 295.000000
-4.179291 93.566727 295.000000
-4.179291 94.047424 295.000000
-4.179291 94.528122 295.000000
-4.165124 94.686752 294.000000
-4.165124 95.165825 294.000000
-4.165124 95.644890 294.000000
-4.179291 96.450912 295.000000
-4.179291 96.931618 295.000000
-4.179291 97.412315 295.000000
-4.179291 97.893013 295.000000
-4.179291 98.373711 295.000000
-4.179291 98.854408 295.000000
-4.179291 99.335106 295.000000
-4.193459 100.154160 296.000000
-4.193459 100.636490 296.000000
-4.193459 101.118820 296.000000
-4.179291 101.257904 295.000000
-4.179291 101.738602 295.000000
-4.179291 102.219299 295.000000
-4.179291 102.699997 295.000000
-4.179291 103.180702 295.000000
-4.193459 104.012787 296.000000
-4.193459 104.495117 296.000000
-4.193459 104.977448 296.000000
-4.193459 105.459770 296.000000
-4.193459 105.942101 296.000000
-4.193459 106.424431 296.000000
-4.193459 106.906754 296.000000
-4.179291 107.026283 295.000000
-4.179291 107.506981 295.000000
-4.179291 107.987679 295.000000
-4.179291 108.468376 295.000000
-4.179291 108.949081 295.000000
-4.179291 109.429779 295.000000
-4.179291 109.910477 295.000000
-4.179291 110.391174 295.000000
-4.179291 110.871872 295.000000
-4.179291 111.352570 295.000000
-4.179291 111.833267 295.000000
-4.179291 112.313972 295.000000
-4.179291 112.794670 295.000000
-4.179291 113.275368 295.000000
-4.179291 113.756065 295.000000
-4.179291 114.236763 295.000000
-4.179291 114.717461 295.000000
-4.179291 115.198158 295.000000
-4.179291 115.678864 295.000000
-4.166112 115.793266 294.069763
-4.166112 116.272453 294.069763
-4.162798 116.658752 293.835815
-4.165124 117.203018 294.000000
-4.165124 117.682083 294.000000
-4.165124 118.161156 294.000000
-4.165124 118.640228 294.000000
-4.165124 119.119293 294.000000
-4.165124 119.598366 294.000000
-4.165124 120.077431 294.000000
-4.165124 120.556503 294.000000
-4.165124 121.035568 294.000000
-4.165124 121.514641 294.000000
-4.165124 121.993713 294.000000
-4.165124 122.472778 294.000000
-4.165124 122.951851 294.000000
-4.165124 123.430916 294.000000
-4.165124 123.909988 294.000000
-4.165124 124.389053 294.000000
-4.165124 124.868126 294.000000
-4.165124 125.347191 294.000000
-4.165124 125.826263 294.000000
-4.165124 126.305336 294.000000
-4.165124 126.784401 294.000000
-4.165124 127.263474 294.000000
-4.165124 127.742538 294.000000
-4.165124 128.221603 294.000000
-4.165124 128.700684 294.000000
-4.165124 129.179749 294.000000
-4.165124 129.658813 294.000000
-4.165124 130.137894 294.000000
-4.165124 130.616959 294.000000
-4.165124 131.096024 294.000000
-4.165124 131.575089 294.000000
-4.165124 132.054169 294.000000
-4.165124 132.533234 294.000000
-4.165124 133.012299 294.000000
-4.165124 133.491379 294.000000
-4.165124 133.970444 294.000000
-4.165124 134.449509 294.000000
-4.165124 134.928574 294.000000
-4.165124 135.407654 294.000000
-4.165124 135.886719 294.000000
-4.165124 136.365784 294.000000
-4.165124 136.844864 294.000000
-4.165124 137.323929 294.000000
-4.165124 137.802994 294.000000
-4.165124 138.282059 294.000000
-4.165124 138.761139 294.000000
-4.165124 139.240204 294.000000
-4.165124 139.719269 294.000000
-4.165124 140.198349 294.000000
-4.165124 140.677414 294.000000
-4.165124 141.156479 294.000000
-4.165124 141.635544 294.000000
-4.165124 142.114624 294.000000
-4.165124 142.593689 294.000000
-4.165124 143.072754 294.000000
-4.150957 143.063553 293.000000
-4.150957 143.541000 293.000000
-4.150957 144.018433 293.000000
-4.136790 144.002716 292.000000
-4.136790 144.478516 292.000000
-4.136790 144.954330 292.000000
-4.136790 145.430145 292.000000
-4.136790 145.905960 292.000000
-4.136790 146.381760 292.000000
-4.122623 146.354630 291.000000
-4.122623 146.828812 291.000000
-4.122623 147.302994 291.000000
-4.108456 147.269348 290.000000
-4.108456 147.741898 290.000000
-4.108456 148.214447 290.000000
-4.110859 154.920731 290.169617
-4.110859 155.393555 290.169617
-4.110859 155.866379 290.169617
-4.110656 156.331497 290.155304
-4.110656 156.804306 290.155304
-4.110656 157.277115 290.155304
-4.110656 157.749924 290.155304
-4.080535 7.767579 325.444458
-4.081789 8.300436 325.544434
-4.081789 8.830907 325.544434
-4.081789 9.361377 325.544434
-4.064469 9.849874 324.163086
-4.064469 10.378095 324.163086
-4.070108 10.921444 324.612793
-4.070108 11.450397 324.612793
-4.070108 11.979349 324.612793
-4.070108 12.508302 324.612793
-4.070108 13.037253 324.612793
-4.070108 13.566206 324.612793
-4.070108 14.095160 324.612793
-4.070108 14.624111 324.612793
-4.070108 15.153065 324.612793
-4.070108 15.682016 324.612793
-4.082139 16.258890 325.572388
-4.082139 16.789406 325.572388
-4.093064 17.366272 326.443665
-4.096350 17.912577 326.705719
-4.096350 18.444939 326.705719
-4.099007 18.989609 326.917603
-4.101415 19.533789 327.109680
-4.101415 20.066809 327.109680
-4.101415 20.599829 327.109680
-4.037763 20.804880 322.033081
-4.037763 21.329628 322.033081
-4.034838 21.838547 321.799835
-4.033268 22.354214 321.674622
-4.033268 22.878380 321.674622
-4.031262 23.390905 321.514648
-3.992022 23.682018 318.384979
-4.029314 24.426903 321.359253
-4.029314 24.950552 321.359253
-4.029314 25.474203 321.359253
-4.014305 25.901014 320.162201
-4.014305 26.422714 320.162201
-4.010492 26.918823 319.858093
-3.973482 27.186804 316.906372
-3.973482 27.703197 316.906372
-3.973482 28.219593 316.906372
-3.960551 28.642467 315.875000
-3.960551 29.157181 315.875000
-3.956371 29.640581 315.541656
-3.958043 30.167496 315.674988
-3.958043 30.681885 315.674988
-3.958931 31.203274 315.745819
-3.974103 31.839331 316.955872
-3.974103 32.355804 316.955872
-3.974103 32.872280 316.955872
-3.965068 33.312847 316.235291
-3.965068 33.828152 316.235291
-3.963593 34.330677 316.117645
-3.951147 34.736366 315.125000
-3.951147 35.249855 315.125000
-3.924374 35.521023 312.989777
-3.920109 35.991875 312.649597
-3.920109 36.501335 312.649597
-3.824196 36.105251 305.000000
-3.909535 37.419037 311.806213
-3.909535 37.927124 311.806213
-3.909535 38.435207 311.806213
-3.901607 38.864319 311.173920
-3.901607 39.371376 311.173920
-3.894049 39.801186 310.571198
-3.824196 39.584206 305.000000
-3.824196 40.081200 305.000000
-3.824196 40.578194 305.000000
-3.824196 41.075188 305.000000
-3.836735 41.708481 306.000000
-3.836735 42.207104 306.000000
-3.836735 42.705730 306.000000
-3.836735 43.204353 306.000000
-3.836735 43.702976 306.000000
-3.836735 44.201599 306.000000
-3.836735 44.700222 306.000000
-3.836735 45.198845 306.000000
-3.836735 45.697468 306.000000
-3.836735 46.196091 306.000000
-3.836735 46.694714 306.000000
-3.836735 47.193336 306.000000
-3.849273 47.847816 307.000000
-3.849273 48.348072 307.000000
-3.849273 48.848324 307.000000
-3.849273 49.348576 307.000000
-3.849273 49.848827 307.000000
-3.861811 50.513084 308.000000
-3.861811 51.014965 308.000000
-3.861811 51.516846 308.000000
-3.861811 52.018730 308.000000
-3.861811 52.520611 308.000000
-3.861811 53.022495 308.000000
-3.861811 53.524376 308.000000
-3.861811 54.026257 308.000000
-3.861811 54.528141 308.000000
-3.861811 55.030022 308.000000
-3.861811 55.531906 308.000000
-3.874350 56.215717 309.000000
-3.874350 56.719227 309.000000
-3.874350 57.222740 309.000000
-3.874350 57.726250 309.000000
-3.874350 58.229763 309.000000
-3.886888 58.923344 310.000000
-3.886888 59.428486 310.000000
-3.886888 59.933628 310.000000
-3.886888 60.438766 310.000000
-3.886888 60.943909 310.000000
-3.886888 61.449051 310.000000
-3.886888 61.954193 310.000000
-3.886888 62.459332 310.000000
-3.886888 62.964474 310.000000
-3.886888 63.469616 310.000000
-3.899426 64.181129 311.000000
-3.899426 64.687897 311.000000
-3.899426 65.194672 311.000000
-3.899426 65.701439 311.000000
-3.899426 66.208206 311.000000
-3.899426 66.714981 311.000000
-3.899426 67.221748 311.000000
-3.899426 67.728523 311.000000
-3.911964 68.454697 312.000000
-3.911964 68.963097 312.000000
-3.911964 69.471497 312.000000
-3.911964 69.979897 312.000000
-3.911964 70.488304 312.000000
-3.911964 70.996704 312.000000
-3.911964 71.505104 312.000000
-3.911964 72.013504 312.000000
-3.911964 72.521904 312.000000
-3.911964 73.030304 312.000000
-3.911964 73.538704 312.000000
-3.911964 74.047104 312.000000
-3.911964 74.555504 312.000000
-3.911964 75.063904 312.000000
-3.911964 75.572304 312.000000
-3.911964 76.080704 312.000000
-3.911964 76.589104 312.000000
-3.911964 77.097504 312.000000
-3.911964 77.605904 312.000000
-3.911964 78.114304 312.000000
-3.924503 78.874702 313.000000
-3.924503 79.384727 313.000000
-3.924503 79.894760 313.000000
-3.924503 80.404785 313.000000
-3.924503 80.914818 313.000000
-3.924503 81.424850 313.000000
-3.924503 81.934875 313.000000
-3.924503 82.444908 313.000000
-3.924503 82.954933 313.000000
-3.911964 83.198303 312.000000
-3.911964 83.706703 312.000000
-3.924503 84.485023 313.000000
-3.924503 84.995056 313.000000
-3.924503 85.505081 313.000000
-3.924503 86.015114 313.000000
-3.872421 85.376854 308.846161
-3.872421 85.880119 308.846161
-3.857195 86.043747 307.631866
-3.782313 84.864876 301.659637
-3.782313 85.356430 301.659637
-3.769142 85.549019 300.609131
-3.760495 85.841469 299.919464
-3.750160 86.092926 299.095215
-3.750160 86.580299 299.095215
-3.741081 86.856880 298.371094
-3.723889 86.941704 297.000000
-3.723889 87.425659 297.000000
-3.711351 87.613625 296.000000
-3.698812 87.798340 295.000000
-3.698812 88.279037 295.000000
-3.698812 88.759735 295.000000
-3.698812 89.240433 295.000000
-3.698812 89.721130 295.000000
-3.698812 90.201836 295.000000
-3.698812 90.682533 295.000000
-3.698812 91.163231 295.000000
-3.704447 91.783516 295.449341
-3.704447 92.264946 295.449341
-3.704447 92.746376 295.449341
-3.701321 93.149155 295.200073
-3.699682 93.588722 295.069366
-3.699682 94.069534 295.069366
-3.698812 94.528122 295.000000
-3.696066 94.938278 294.780975
-3.696066 95.418625 294.780975
-3.698812 95.970215 295.000000
-3.698812 96.450912 295.000000
-3.698812 96.931618 295.000000
-3.698812 97.412315 295.000000
-3.698812 97.893013 295.000000
-3.711351 98.707176 296.000000
-3.711351 99.189507 296.000000
-3.711351 99.671837 296.000000
-3.711351 100.154160 296.000000
-3.711351 100.636490 296.000000
-3.711351 101.118820 296.000000
-3.711351 101.601143 296.000000
-3.711351 102.083473 296.000000
-3.711351 102.565804 296.000000
-3.711351 103.048134 296.000000
-3.711351 103.530457 296.000000
-3.711351 104.012787 296.000000
-3.711351 104.495117 296.000000
-3.711351 104.977448 296.000000
-3.711351 105.459770 296.000000
-3.711351 105.942101 296.000000
-3.711351 106.424431 296.000000
-3.711351 106.906754 296.000000
-3.698812 107.026283 295.000000
-3.698812 107.506981 295.000000
-3.711351 108.353745 296.000000
-3.711351 108.836067 296.000000
-3.711351 109.318398 296.000000
-3.711351 109.800728 296.000000
-3.711351 110.283058 296.000000
-3.711351 110.765381 296.000000
-3.711351 111.247711 296.000000
-3.711351 111.730042 296.000000
-3.711351 112.212372 296.000000
-3.711351 112.694695 296.000000
-3.711351 113.177025 296.000000
-3.711351 113.659355 296.000000
-3.711351 114.141678 296.000000
-3.711351 114.624008 296.000000
-3.711351 115.106339 296.000000
-3.711351 115.588669 296.000000
-3.711351 116.070992 296.000000
-3.711351 116.553322 296.000000
-3.711351 117.035652 296.000000
-3.711351 117.517982 296.000000
-3.698812 117.601654 295.000000
-3.698812 118.082352 295.000000
-3.698812 118.563049 295.000000
-3.686274 118.640228 294.000000
-3.686274 119.119293 294.000000
-3.686274 119.598366 294.000000
-3.686274 120.077431 294.000000
-3.686274 120.556503 294.000000
-3.698812 121.447243 295.000000
-3.698812 121.927948 295.000000
-3.698812 122.408646 295.000000
-3.698812 122.889343 295.000000
-3.698812 123.370041 295.000000
-3.698812 123.850739 295.000000
-3.698812 124.331436 295.000000
-3.698812 124.812134 295.000000
-3.698812 125.292839 295.000000
-3.698812 125.773537 295.000000
-3.698812 126.254234 295.000000
-3.698812 126.734932 295.000000
-3.698812 127.215630 295.000000
-3.698812 127.696327 295.000000
-3.698812 128.177032 295.000000
-3.686274 128.221603 294.000000
-3.698812 129.138428 295.000000
-3.698812 129.619125 295.000000
-3.698812 130.099823 295.000000
-3.698812 130.580521 295.000000
-3.698812 131.061218 295.000000
-3.698812 131.541916 295.000000
-3.698812 132.022614 295.000000
-3.698812 132.503311 295.000000
