0.147967 107.241180 301.000000
0.147967 107.731659 301.000000
0.147967 108.222137 301.000000
0.147967 108.712608 301.000000
0.147967 109.203087 301.000000
0.147967 109.693565 301.000000
0.147475 109.817986 300.000000
0.147475 110.306839 300.000000
0.147475 110.795685 300.000000
0.147475 111.284531 300.000000
0.147475 111.773376 300.000000
0.147475 112.262222 300.000000
0.147475 112.751068 300.000000
0.147475 113.239914 300.000000
0.147475 113.728760 300.000000
0.147475 114.217606 300.000000
0.147475 114.706451 300.000000
0.147475 115.195297 300.000000
0.147475 115.684143 300.000000
0.146984 115.785744 299.000000
0.146984 116.272964 299.000000
0.146984 116.760178 299.000000
0.146984 117.247398 299.000000
0.146492 117.340851 298.000000
0.146492 117.826439 298.000000
0.146492 118.312019 298.000000
0.146492 118.797607 298.000000
0.146492 119.283195 298.000000
0.146984 120.170692 299.000000
0.146984 120.657913 299.000000
0.146984 121.145126 299.000000
0.146984 121.632347 299.000000
0.146984 122.119560 299.000000
0.146984 122.606781 299.000000
0.146984 123.093994 299.000000
0.146984 123.581215 299.000000
0.146984 124.068428 299.000000
0.146984 124.555649 299.000000
0.146984 125.042862 299.000000
0.146984 125.530083 299.000000
0.146984 126.017296 299.000000
0.147475 126.927605 300.000000
0.147475 127.416451 300.000000
0.147475 127.905296 300.000000
0.147475 128.394150 300.000000
0.147475 128.882996 300.000000
0.147475 129.371841 300.000000
0.147475 129.860687 300.000000
0.147475 130.349533 300.000000
0.147475 130.838379 300.000000
0.147475 131.327225 300.000000
0.147475 131.816071 300.000000
0.147475 132.304916 300.000000
0.146492 131.908463 298.000000
0.146492 132.394058 298.000000
0.146492 132.879639 298.000000
0.146492 133.365234 298.000000
0.146984 134.299973 299.000000
0.146984 134.787201 299.000000
0.147475 135.726837 300.000000
0.148459 137.123779 302.000000
0.148459 137.615891 302.000000
0.148459 138.107986 302.000000
0.148459 138.600098 302.000000
0.148459 139.092194 302.000000
0.148459 139.584305 302.000000
0.148459 140.076416 302.000000
0.148459 140.568512 302.000000
0.148459 141.060623 302.000000
0.148459 141.552719 302.000000
0.148459 142.044830 302.000000
0.148459 142.536942 302.000000
0.147967 142.555435 301.000000
0.147967 143.045914 301.000000
0.147475 143.059525 300.000000
0.147475 143.548370 300.000000
0.147475 144.037216 300.000000
0.147475 144.526077 300.000000
0.147370 144.910751 299.784515
0.147263 145.294037 299.567596
0.147263 145.782181 299.567596
0.146984 145.993179 299.000000
0.146984 146.480392 299.000000
0.146984 146.967621 299.000000
0.146984 147.454834 299.000000
0.146984 147.942047 299.000000
0.146984 148.429260 299.000000
0.146492 148.418427 298.000000
0.146492 148.904022 298.000000
0.146492 149.389603 298.000000
0.146001 149.372253 297.000000
0.146001 149.856216 297.000000
0.146001 150.340164 297.000000
0.145018 149.808472 295.000000
0.145018 150.289169 295.000000
0.145018 150.769867 295.000000
0.145018 151.250565 295.000000
0.144526 151.216934 294.000000
0.144526 151.695999 294.000000
0.144526 152.175079 294.000000
0.144526 152.654144 294.000000
0.144526 153.133209 294.000000
0.144034 153.089783 293.000000
0.143543 153.043106 292.000000
0.143543 153.518921 292.000000
0.143543 153.994720 292.000000
0.143543 154.470535 292.000000
0.143543 154.946350 292.000000
0.143543 155.422165 292.000000
0.143051 155.364075 291.000000
0.143051 155.838257 291.000000
0.143051 156.312439 291.000000
0.142560 156.247818 290.000000
0.732573 27.387844 345.500000
0.732573 27.950832 345.500000
0.732573 28.513821 345.500000
0.632917 35.822193 298.500000
0.632917 36.308598 298.500000
0.632917 36.794998 298.500000
0.633050 37.289207 298.562500
0.633050 37.775711 298.562500
0.633343 38.279953 298.700897
0.633343 38.766682 298.700897
0.633525 39.264683 298.786652
0.633525 39.751549 298.786652
0.633906 40.262604 298.966248
0.633906 40.749767 298.966248
0.633906 41.236927 298.966248
0.633883 41.722565 298.955322
0.634277 42.235954 299.141205
0.634277 42.723400 299.141205
0.634682 43.238457 299.332336
0.635301 43.768818 299.623993
0.635301 44.257053 299.623993
0.635509 44.759964 299.722290
0.635854 45.272892 299.884796
0.635854 45.761551 299.884796
0.636158 46.272369 300.028473
0.636158 46.761261 300.028473
0.636158 47.250153 300.028473
0.636098 47.734516 300.000000
0.638218 48.384106 301.000000
0.638218 48.874584 301.000000
0.640339 49.529060 302.000000
0.640339 50.021164 302.000000
0.640339 50.513271 302.000000
0.640339 51.005375 302.000000
0.640339 51.497482 302.000000
0.640339 51.989586 302.000000
0.638218 52.307911 301.000000
0.638218 52.798389 301.000000
0.638218 53.288864 301.000000
0.638218 53.779339 301.000000
0.636098 54.089516 300.000000
0.636098 54.578362 300.000000
0.636098 55.067207 300.000000
0.636098 55.556053 300.000000
0.636098 56.044899 300.000000
0.636098 56.533745 300.000000
0.636098 57.022591 300.000000
0.636098 57.511440 300.000000
0.636098 58.000286 300.000000
0.638218 58.684097 301.000000
0.638218 59.174572 301.000000
0.638218 59.665047 301.000000
0.638218 60.155525 301.000000
0.638218 60.646000 301.000000
0.638218 61.136475 301.000000
0.640339 61.831692 302.000000
0.640339 62.323799 302.000000
0.640339 62.815903 302.000000
0.640339 63.308010 302.000000
0.640339 63.800114 302.000000
0.640339 64.292221 302.000000
0.640339 64.784325 302.000000
0.640339 65.276428 302.000000
0.640339 65.768532 302.000000
0.640339 66.260643 302.000000
0.640339 66.752747 302.000000
0.640339 67.244850 302.000000
0.640339 67.736954 302.000000
0.640339 68.229057 302.000000
0.640339 68.721169 302.000000
0.640339 69.213272 302.000000
0.642459 69.936188 303.000000
0.642459 70.429916 303.000000
0.642459 70.923653 303.000000
0.642459 71.417389 303.000000
0.642459 71.911125 303.000000
0.642459 72.404854 303.000000
0.642459 72.898590 303.000000
0.642459 73.392326 303.000000
0.642459 73.886063 303.000000
0.644579 74.625275 304.000000
0.644579 75.120644 304.000000
0.644579 75.616005 304.000000
0.646700 76.361740 305.000000
0.646700 76.858727 305.000000
0.646700 77.355721 305.000000
0.646700 77.852715 305.000000
0.646700 78.349709 305.000000
0.646700 78.846703 305.000000
0.648820 79.603844 306.000000
0.648820 80.102470 306.000000
0.648820 80.601089 306.000000
0.648820 81.099716 306.000000
0.650940 81.864990 307.000000
0.650940 82.365242 307.000000
0.650940 82.865501 307.000000
0.650940 83.365753 307.000000
0.650940 83.866005 307.000000
0.650940 84.366257 307.000000
0.650940 84.866508 307.000000
0.650940 85.366760 307.000000
0.650940 85.867012 307.000000
0.650940 86.367264 307.000000
0.650940 86.867516 307.000000
0.650940 87.367775 307.000000
0.650940 87.868027 307.000000
0.650940 88.368279 307.000000
0.650940 88.868530 307.000000
0.650940 89.368782 307.000000
0.650940 89.869034 307.000000
0.650940 90.369286 307.000000
0.650940 90.869537 307.000000
0.648820 91.072174 306.000000
0.648820 91.570801 306.000000
0.648820 92.069420 306.000000
0.646700 92.265533 305.000000
0.646700 92.762527 305.000000
0.646700 93.259521 305.000000
0.646700 93.756516 305.000000
0.646700 94.253510 305.000000
0.646700 94.750504 305.000000
0.646700 95.247498 305.000000
0.646700 95.744492 305.000000
0.646700 96.241486 305.000000
0.646700 96.738480 305.000000
0.646700 97.235466 305.000000
0.646700 97.732460 305.000000
0.644579 97.907394 304.000000
0.644579 98.402756 304.000000
0.644579 98.898117 304.000000
0.642459 99.066528 303.000000
0.642459 99.560265 303.000000
0.642459 100.054001 303.000000
0.642459 100.547737 303.000000
0.642459 101.041466 303.000000
0.642459 101.535202 303.000000
0.642459 102.028938 303.000000
0.640339 102.184319 302.000000
0.640339 102.676422 302.000000
0.640339 103.168526 302.000000
0.640339 103.660637 302.000000
0.640339 104.152740 302.000000
0.640339 104.644844 302.000000
0.640339 105.136948 302.000000
0.640339 105.629051 302.000000
0.640339 106.121162 302.000000
0.640339 106.613266 302.000000
0.640339 107.105362 302.000000
0.638218 107.241180 301.000000
0.638218 107.731659 301.000000
0.638218 108.222137 301.000000
0.638218 108.712608 301.000000
0.638218 109.203087 301.000000
0.638218 109.693565 301.000000
0.636098 109.817986 300.000000
0.636098 110.306839 300.000000
0.636098 110.795685 300.000000
0.636098 111.284531 300.000000
0.636098 111.773376 300.000000
0.636098 112.262222 300.000000
0.636098 112.751068 300.000000
0.636098 113.239914 300.000000
0.636098 113.728760 300.000000
0.636098 114.217606 300.000000
0.636098 114.706451 300.000000
0.636098 115.195297 300.000000
0.636098 115.684143 300.000000
0.633978 115.785744 299.000000
0.633978 116.272964 299.000000
0.633978 116.760178 299.000000
0.633978 117.247398 299.000000
0.631857 117.340851 298.000000
0.631857 117.826439 298.000000
0.631857 118.312019 298.000000
0.631857 118.797607 298.000000
0.631857 119.283195 298.000000
0.633978 120.170692 299.000000
0.633978 120.657913 299.000000
0.633978 121.145126 299.000000
0.633978 121.632347 299.000000
0.633978 122.119560 299.000000
0.633978 122.606781 299.000000
0.633978 123.093994 299.000000
0.633978 123.581215 299.000000
0.633978 124.068428 299.000000
0.633978 124.555649 299.000000
0.633978 125.042862 299.000000
0.633978 125.530083 299.000000
0.633978 126.017296 299.000000
0.636098 126.927605 300.000000
0.636098 127.416451 300.000000
0.636098 127.905296 300.000000
0.636098 128.394150 300.000000
0.636098 128.882996 300.000000
0.636098 129.371841 300.000000
0.636098 129.860687 300.000000
0.636098 130.349533 300.000000
0.636098 130.838379 300.000000
0.636098 131.327225 300.000000
0.636098 131.816071 300.000000
0.636098 132.304916 300.000000
0.633978 134.299973 299.000000
0.633978 134.787201 299.000000
0.636098 135.726837 300.000000
0.640339 137.123779 302.000000
0.640339 137.615891 302.000000
0.640339 138.107986 302.000000
0.640339 138.600098 302.000000
0.640339 139.092194 302.000000
0.640339 139.584305 302.000000
0.640339 140.076416 302.000000
0.640339 140.568512 302.000000
0.640339 141.060623 302.000000
0.640339 141.552719 302.000000
0.640339 142.044830 302.000000
0.640339 142.536942 302.000000
0.638218 142.555435 301.000000
0.638218 143.045914 301.000000
0.636098 143.059525 300.000000
0.636098 143.548370 300.000000
0.636098 144.037216 300.000000
0.636098 144.526077 300.000000
0.635641 144.910751 299.784515
0.635181 145.294037 299.567596
0.635181 145.782181 299.567596
0.633978 145.993179 299.000000
0.633978 146.480392 299.000000
0.633978 146.967621 299.000000
0.633978 147.454834 299.000000
0.633978 147.942047 299.000000
0.633978 148.429260 299.000000
0.633978 148.916489 299.000000
0.633978 149.403702 299.000000
0.633978 149.890915 299.000000
0.633978 150.378128 299.000000
0.631857 150.360779 298.000000
0.631857 150.846375 298.000000
0.629737 150.824127 297.000000
0.627617 150.798630 296.000000
0.627617 151.280960 296.000000
0.625496 151.250565 295.000000
0.625496 151.731262 295.000000
0.625496 152.211960 295.000000
0.625496 152.692673 295.000000
0.623376 152.654144 294.000000
0.623376 153.133209 294.000000
0.621256 153.089783 293.000000
0.619135 153.043106 292.000000
0.619135 153.518921 292.000000
0.619135 153.994720 292.000000
0.619135 154.470535 292.000000
0.619135 154.946350 292.000000
0.619135 155.422165 292.000000
0.619135 155.897964 292.000000
0.617015 155.838257 291.000000
0.617015 156.312439 291.000000
0.614895 156.247818 290.000000
0.614895 156.720383 290.000000
0.614895 157.192932 290.000000
1.119847 35.846199 298.700012
1.119847 36.332928 298.700012
1.120286 36.834099 298.817200
1.120473 37.327244 298.867035
1.120473 37.814243 298.867035
1.120898 38.315758 298.980286
1.121059 38.808544 299.023438
1.121373 39.306808 299.107239
1.121373 39.794201 299.107239
1.124720 40.401825 300.000000
1.124720 40.890671 300.000000
1.124720 41.379517 300.000000
1.124720 41.868362 300.000000
1.124720 42.357208 300.000000
1.124720 42.846054 300.000000
1.124720 43.334904 300.000000
1.124720 43.823750 300.000000
1.124720 44.312595 300.000000
1.124720 44.801441 300.000000
1.124720 45.290287 300.000000
1.124720 45.779133 300.000000
1.124720 46.267979 300.000000
1.124720 46.756824 300.000000
1.124720 47.245670 300.000000
1.124720 47.734516 300.000000
1.128469 48.384106 301.000000
1.128469 48.874584 301.000000
1.128469 49.365059 301.000000
1.128469 49.855534 301.000000
1.128469 50.346008 301.000000
1.128469 50.836487 301.000000
1.128469 51.326962 301.000000
1.128469 51.817436 301.000000
1.128469 52.307911 301.000000
1.128469 52.798389 301.000000
1.128469 53.288864 301.000000
1.124720 53.600670 300.000000
1.124720 54.089516 300.000000
1.124720 54.578362 300.000000
1.124720 55.067207 300.000000
1.124720 55.556053 300.000000
1.124720 56.044899 300.000000
1.124720 56.533745 300.000000
1.124720 57.022591 300.000000
1.124720 57.511440 300.000000
1.124720 58.000286 300.000000
1.124720 58.489132 300.000000
1.124720 58.977978 300.000000
1.124720 59.466824 300.000000
1.124720 59.955669 300.000000
1.128469 60.646000 301.000000
1.128469 61.136475 301.000000
1.128469 61.626949 301.000000
1.128469 62.117428 301.000000
1.128469 62.607903 301.000000
1.128469 63.098377 301.000000
1.128469 63.588852 301.000000
1.128469 64.079330 301.000000
1.128469 64.569801 301.000000
1.128469 65.060280 301.000000
1.128469 65.550758 301.000000
1.128469 66.041229 301.000000
1.132219 66.752747 302.000000
1.132219 67.244850 302.000000
1.132219 67.736954 302.000000
1.132219 68.229057 302.000000
1.132219 68.721169 302.000000
1.132219 69.213272 302.000000
1.135968 69.936188 303.000000
1.135968 70.429916 303.000000
1.135968 70.923653 303.000000
1.135968 71.417389 303.000000
1.135968 71.911125 303.000000
1.135968 72.404854 303.000000
1.135968 72.898590 303.000000
1.139717 73.634544 304.000000
1.139717 74.129913 304.000000
1.139717 74.625275 304.000000
1.143466 75.367752 305.000000
1.143466 75.864746 305.000000
1.143466 76.361740 305.000000
1.143466 76.858727 305.000000
1.143466 77.355721 305.000000
1.143466 77.852715 305.000000
1.147215 78.606598 306.000000
1.147215 79.105217 306.000000
1.147215 79.603844 306.000000
1.147215 80.102470 306.000000
1.147215 80.601089 306.000000
1.150964 81.364738 307.000000
1.150964 81.864990 307.000000
1.150964 82.365242 307.000000
1.150964 82.865501 307.000000
1.150964 83.365753 307.000000
1.150964 83.866005 307.000000
1.150964 84.366257 307.000000
1.150964 84.866508 307.000000
1.150964 85.366760 307.000000
1.150964 85.867012 307.000000
1.150964 86.367264 307.000000
1.150964 86.867516 307.000000
1.150964 87.367775 307.000000
1.150964 87.868027 307.000000
1.150964 88.368279 307.000000
1.150964 88.868530 307.000000
1.150964 89.368782 307.000000
1.150964 89.869034 307.000000
1.150964 90.369286 307.000000
1.150964 90.869537 307.000000
1.150964 91.369789 307.000000
1.150964 91.870049 307.000000
1.147215 92.069420 306.000000
1.147215 92.568047 306.000000
1.147215 93.066666 306.000000
1.147215 93.565292 306.000000
1.143466 93.756516 305.000000
1.143466 94.253510 305.000000
1.143466 94.750504 305.000000
1.143466 95.247498 305.000000
1.143466 95.744492 305.000000
1.143466 96.241486 305.000000
1.143466 96.738480 305.000000
1.143466 97.235466 305.000000
1.143466 97.732460 305.000000
1.143466 98.229454 305.000000
1.143466 98.726448 305.000000
1.139717 98.898117 304.000000
1.135968 99.066528 303.000000
1.135968 99.560265 303.000000
1.135968 100.054001 303.000000
1.135968 100.547737 303.000000
1.135968 101.041466 303.000000
1.135968 101.535202 303.000000
1.135968 102.028938 303.000000
1.135968 102.522675 303.000000
1.135968 103.016411 303.000000
1.135968 103.510139 303.000000
1.132219 103.660637 302.000000
1.132219 104.152740 302.000000
1.132219 104.644844 302.000000
1.132219 105.136948 302.000000
1.132219 105.629051 302.000000
1.132219 106.121162 302.000000
1.132219 106.613266 302.000000
1.132219 107.105362 302.000000
1.132219 107.597466 302.000000
1.132219 108.089577 302.000000
1.132219 108.581680 302.000000
1.128469 108.712608 301.000000
1.128469 109.203087 301.000000
1.128469 109.693565 301.000000
1.128469 110.184036 301.000000
1.128469 110.674515 301.000000
1.128469 111.164993 301.000000
1.124720 111.284531 300.000000
1.124720 111.773376 300.000000
1.124720 112.262222 300.000000
1.124720 112.751068 300.000000
1.124720 113.239914 300.000000
1.124720 113.728760 300.000000
1.124720 114.217606 300.000000
1.124720 114.706451 300.000000
1.124720 115.195297 300.000000
1.124720 115.684143 300.000000
1.124720 116.172989 300.000000
1.124720 116.661835 300.000000
1.124720 117.150681 300.000000
1.124720 117.639526 300.000000
1.120971 117.734612 299.000000
1.120971 118.221825 299.000000
1.120971 118.709045 299.000000
1.120971 119.196259 299.000000
1.120971 119.683479 299.000000
1.120971 120.170692 299.000000
1.120971 120.657913 299.000000
1.120971 121.145126 299.000000
1.120971 121.632347 299.000000
1.120971 122.119560 299.000000
1.120971 122.606781 299.000000
1.120971 123.093994 299.000000
1.124720 123.994530 300.000000
1.124720 124.483376 300.000000
1.124720 124.972221 300.000000
1.120971 125.042862 299.000000
1.120971 125.530083 299.000000
1.124720 126.438759 300.000000
1.124720 126.927605 300.000000
1.124720 127.416451 300.000000
1.124720 127.905296 300.000000
1.124720 128.394150 300.000000
1.124720 128.882996 300.000000
1.124720 129.371841 300.000000
1.124720 129.860687 300.000000
1.124720 130.349533 300.000000
1.124720 130.838379 300.000000
1.124720 131.327225 300.000000
1.124720 131.816071 300.000000
1.124720 132.304916 300.000000
1.118756 134.034561 298.409088
1.118756 134.520813 298.409088
1.119571 135.105423 298.626495
1.121958 135.881149 299.263245
1.121958 136.368805 299.263245
1.122429 136.913803 299.388672
1.132219 138.600098 302.000000
1.132219 139.092194 302.000000
1.135968 140.046509 303.000000
1.135968 140.540237 303.000000
1.135968 141.033981 303.000000
1.135968 141.527710 303.000000
1.132219 141.552719 302.000000
1.132219 142.044830 302.000000
1.132219 142.536942 302.000000
1.132219 143.029037 302.000000
1.132219 143.521149 302.000000
1.128469 143.536392 301.000000
1.127202 143.865051 300.661804
1.127202 144.354965 300.661804
1.126812 144.794846 300.557922
1.126534 145.248688 300.483612
1.126036 145.673950 300.350922
1.126036 146.163376 300.350922
1.125323 146.559937 300.160736
1.124720 146.970306 300.000000
1.124720 147.459152 300.000000
1.124720 147.947998 300.000000
1.124720 148.436844 300.000000
1.124720 148.925690 300.000000
1.120971 148.916489 299.000000
1.120971 149.403702 299.000000
1.120971 149.890915 299.000000
1.120971 150.378128 299.000000
1.117222 150.360779 298.000000
1.117222 150.846375 298.000000
1.113473 150.824127 297.000000
1.109724 150.798630 296.000000
1.109724 151.280960 296.000000
1.105975 151.250565 295.000000
1.105975 151.731262 295.000000
1.105975 152.211960 295.000000
1.105975 152.692673 295.000000
1.102226 152.654144 294.000000
1.102226 153.133209 294.000000
1.098477 153.089783 293.000000
1.098477 153.567230 293.000000
1.098477 154.044662 293.000000
1.094728 153.994720 292.000000
1.094728 154.470535 292.000000
1.094728 154.946350 292.000000
1.094728 155.422165 292.000000
1.094728 155.897964 292.000000
1.090979 155.838257 291.000000
1.090979 156.312439 291.000000
1.087230 156.247818 290.000000
1.087230 156.720383 290.000000
1.087230 157.192932 290.000000
1.087230 157.665482 290.000000
1.607505 35.384857 298.914459
1.607524 35.872360 298.918030
1.607524 36.359444 298.918030
1.613343 36.979900 300.000000
1.613343 37.468746 300.000000
1.613343 37.957592 300.000000
1.613343 38.446442 300.000000
1.613343 38.935287 300.000000
1.613343 39.424133 300.000000
1.613343 39.912979 300.000000
1.613343 40.401825 300.000000
1.613343 40.890671 300.000000
1.613343 41.379517 300.000000
1.613343 41.868362 300.000000
1.613343 42.357208 300.000000
1.613343 42.846054 300.000000
1.613343 43.334904 300.000000
1.613343 43.823750 300.000000
1.613343 44.312595 300.000000
1.613343 44.801441 300.000000
1.613343 45.290287 300.000000
1.613343 45.779133 300.000000
1.613343 46.267979 300.000000
1.613343 46.756824 300.000000
1.613343 47.245670 300.000000
1.613343 47.734516 300.000000
1.618721 48.384106 301.000000
1.618721 48.874584 301.000000
1.618721 49.365059 301.000000
1.618721 49.855534 301.000000
1.618721 50.346008 301.000000
1.618721 50.836487 301.000000
1.618721 51.326962 301.000000
1.618721 51.817436 301.000000
1.618721 52.307911 301.000000
1.613343 52.622978 300.000000
1.613343 53.111828 300.000000
1.613343 53.600670 300.000000
1.613343 54.089516 300.000000
1.613343 54.578362 300.000000
1.613343 55.067207 300.000000
1.613343 55.556053 300.000000
1.613343 56.044899 300.000000
1.613343 56.533745 300.000000
1.613343 57.022591 300.000000
1.613343 57.511440 300.000000
1.613343 58.000286 300.000000
1.613343 58.489132 300.000000
1.613343 58.977978 300.000000
1.613343 59.466824 300.000000
1.613343 59.955669 300.000000
1.613343 60.444515 300.000000
1.613343 60.933361 300.000000
1.613343 61.422207 300.000000
1.618721 62.117428 301.000000
1.618721 62.607903 301.000000
1.618721 63.098377 301.000000
1.618721 63.588852 301.000000
1.618721 64.079330 301.000000
1.618721 64.569801 301.000000
1.618721 65.060280 301.000000
1.618721 65.550758 301.000000
1.618721 66.041229 301.000000
1.624099 66.752747 302.000000
1.624099 67.244850 302.000000
1.624099 67.736954 302.000000
1.624099 68.229057 302.000000
1.624099 68.721169 302.000000
1.624099 69.213272 302.000000
1.629476 69.936188 303.000000
1.629476 70.429916 303.000000
1.629476 70.923653 303.000000
1.629476 71.417389 303.000000
1.629476 71.911125 303.000000
1.629476 72.404854 303.000000
1.629476 72.898590 303.000000
1.634854 73.634544 304.000000
1.634854 74.129913 304.000000
1.634854 74.625275 304.000000
1.640232 75.367752 305.000000
1.640232 75.864746 305.000000
1.640232 76.361740 305.000000
1.640232 76.858727 305.000000
1.640232 77.355721 305.000000
1.640232 77.852715 305.000000
1.645610 78.606598 306.000000
1.645610 79.105217 306.000000
1.645610 79.603844 306.000000
1.645610 80.102470 306.000000
1.645610 80.601089 306.000000
1.650988 81.364738 307.000000
1.650988 81.864990 307.000000
1.650988 82.365242 307.000000
1.650988 82.865501 307.000000
1.650988 83.365753 307.000000
1.650988 83.866005 307.000000
1.650988 84.366257 307.000000
1.650988 84.866508 307.000000
1.650988 85.366760 307.000000
1.650988 85.867012 307.000000
1.650988 86.367264 307.000000
1.650988 86.867516 307.000000
1.650988 87.367775 307.000000
1.650988 87.868027 307.000000
1.650988 88.368279 307.000000
1.650988 88.868530 307.000000
1.650988 89.368782 307.000000
1.650988 89.869034 307.000000
1.650988 90.369286 307.000000
1.650988 90.869537 307.000000
1.650988 91.369789 307.000000
1.650988 91.870049 307.000000
1.645610 92.069420 306.000000
1.645610 92.568047 306.000000
1.645610 93.066666 306.000000
1.645610 93.565292 306.000000
1.640232 93.756516 305.000000
1.640232 94.253510 305.000000
1.640232 94.750504 305.000000
1.640232 95.247498 305.000000
1.640232 95.744492 305.000000
1.640232 96.241486 305.000000
1.640232 96.738480 305.000000
1.640232 97.235466 305.000000
1.640232 97.732460 305.000000
1.640232 98.229454 305.000000
1.640232 98.726448 305.000000
1.634854 98.898117 304.000000
1.629476 99.066528 303.000000
1.629476 99.560265 303.000000
1.629476 100.054001 303.000000
1.629476 100.547737 303.000000
1.629476 101.041466 303.000000
1.629476 101.535202 303.000000
1.629476 102.028938 303.000000
1.629476 102.522675 303.000000
1.629476 103.016411 303.000000
1.629476 103.510139 303.000000
1.629476 104.003876 303.000000
1.629476 104.497612 303.000000
1.624099 104.644844 302.000000
1.624099 105.136948 302.000000
1.624099 105.629051 302.000000
1.624099 106.121162 302.000000
1.624099 106.613266 302.000000
1.624099 107.105362 302.000000
1.624099 107.597466 302.000000
1.624099 108.089577 302.000000
1.624099 108.581680 302.000000
1.624099 109.073784 302.000000
1.624099 109.565887 302.000000
1.624099 110.057991 302.000000
1.618721 110.184036 301.000000
1.618721 110.674515 301.000000
1.618721 111.164993 301.000000
1.618721 111.655464 301.000000
1.618721 112.145943 301.000000
1.618721 112.636414 301.000000
1.618721 113.126892 301.000000
1.618721 113.617371 301.000000
1.618721 114.107841 301.000000
1.613343 114.217606 300.000000
1.613343 114.706451 300.000000
1.613343 115.195297 300.000000
1.613343 115.684143 300.000000
1.613343 116.172989 300.000000
1.613343 116.661835 300.000000
1.613343 117.150681 300.000000
1.613343 117.639526 300.000000
1.613343 118.128372 300.000000
1.613343 118.617218 300.000000
1.613343 119.106064 300.000000
1.607965 119.196259 299.000000
1.607965 119.683479 299.000000
1.607965 120.170692 299.000000
1.607965 120.657913 299.000000
1.607965 121.145126 299.000000
1.613343 122.039146 300.000000
1.613343 122.527992 300.000000
1.613343 123.016838 300.000000
1.613343 123.505684 300.000000
1.613343 123.994530 300.000000
1.613343 124.483376 300.000000
1.613343 124.972221 300.000000
1.613343 125.461067 300.000000
1.613343 125.949913 300.000000
1.613343 126.438759 300.000000
1.613343 126.927605 300.000000
1.613343 127.416451 300.000000
1.613343 127.905296 300.000000
1.613343 128.394150 300.000000
1.613343 128.882996 300.000000
1.613343 129.371841 300.000000
1.613343 129.860687 300.000000
1.613343 130.349533 300.000000
1.613343 130.838379 300.000000
1.613343 131.327225 300.000000
1.609381 135.881149 299.263245
1.609381 136.368805 299.263245
1.610055 136.913803 299.388672
1.612810 137.636749 299.900940
1.612810 138.125443 299.900940
1.629476 140.046509 303.000000
1.634854 141.004074 304.000000
1.634854 141.499435 304.000000
1.634854 141.994797 304.000000
1.629476 142.021439 303.000000
1.629476 142.515182 303.000000
1.629476 143.008911 303.000000
1.624099 143.029037 302.000000
1.624099 143.521149 302.000000
1.621088 143.746277 301.440125
1.620384 144.174820 301.309204
1.619842 144.617447 301.208496
1.619842 145.108261 301.208496
1.619050 145.527893 301.061249
1.617765 145.902618 300.822357
1.617765 146.392807 300.822357
1.616600 146.777176 300.605652
1.618721 147.460190 301.000000
1.618721 147.950668 301.000000
1.618721 148.441147 301.000000
1.613343 148.436844 300.000000
1.613343 148.925690 300.000000
1.613343 149.414536 300.000000
1.613343 149.903381 300.000000
1.613343 150.392227 300.000000
1.613343 150.881073 300.000000
1.607965 150.865341 299.000000
1.607965 151.352570 299.000000
1.597209 150.824127 297.000000
1.591832 150.798630 296.000000
1.591832 151.280960 296.000000
1.586454 151.250565 295.000000
1.586454 151.731262 295.000000
1.586454 152.211960 295.000000
1.586454 152.692673 295.000000
1.586454 153.173370 295.000000
1.586454 153.654068 295.000000
1.581076 153.612289 294.000000
1.575698 153.567230 293.000000
1.575698 154.044662 293.000000
1.570320 153.994720 292.000000
1.570320 154.470535 292.000000
1.570320 154.946350 292.000000
1.570320 155.422165 292.000000
1.570320 155.897964 292.000000
1.564943 155.838257 291.000000
1.564943 156.312439 291.000000
1.559565 156.247818 290.000000
1.559565 156.720383 290.000000
1.559565 157.192932 290.000000
1.559565 157.665482 290.000000
2.094359 35.384857 298.914459
2.094384 35.872360 298.918030
2.094384 36.359444 298.918030
2.101965 36.979900 300.000000
2.101965 37.468746 300.000000
2.101965 37.957592 300.000000
2.101965 38.446442 300.000000
2.101965 38.935287 300.000000
2.101965 39.424133 300.000000
2.101965 39.912979 300.000000
2.101965 40.401825 300.000000
2.101965 40.890671 300.000000
2.101965 41.379517 300.000000
2.101965 41.868362 300.000000
2.101965 42.357208 300.000000
2.101965 42.846054 300.000000
2.101965 43.334904 300.000000
2.101965 43.823750 300.000000
2.101965 44.312595 300.000000
2.101965 44.801441 300.000000
2.101965 45.290287 300.000000
2.101965 45.779133 300.000000
2.101965 46.267979 300.000000
2.101965 46.756824 300.000000
2.101965 47.245670 300.000000
2.101965 47.734516 300.000000
2.108972 48.384106 301.000000
2.108972 48.874584 301.000000
2.108972 49.365059 301.000000
2.108972 49.855534 301.000000
2.108972 50.346008 301.000000
2.108972 50.836487 301.000000
2.108972 51.326962 301.000000
2.108972 51.817436 301.000000
2.108972 52.307911 301.000000
2.101965 52.622978 300.000000
2.101965 53.111828 300.000000
2.101965 53.600670 300.000000
2.101965 54.089516 300.000000
2.101965 54.578362 300.000000
2.101965 55.067207 300.000000
2.101965 55.556053 300.000000
2.101965 56.044899 300.000000
2.101965 56.533745 300.000000
2.101965 57.022591 300.000000
2.101965 57.511440 300.000000
2.101965 58.000286 300.000000
2.101965 58.489132 300.000000
2.101965 58.977978 300.000000
2.101965 59.466824 300.000000
2.101965 59.955669 300.000000
2.101965 60.444515 300.000000
2.101965 60.933361 300.000000
2.101965 61.422207 300.000000
2.108972 62.117428 301.000000
2.108972 62.607903 301.000000
2.108972 63.098377 301.000000
2.108972 63.588852 301.000000
2.108972 64.079330 301.000000
2.108972 64.569801 301.000000
2.108972 65.060280 301.000000
2.108972 65.550758 301.000000
2.108972 66.041229 301.000000
2.115978 66.752747 302.000000
2.115978 67.244850 302.000000
2.115978 67.736954 302.000000
2.115978 68.229057 302.000000
2.115978 68.721169 302.000000
2.115978 69.213272 302.000000
2.122985 69.936188 303.000000
2.122985 70.429916 303.000000
2.122985 70.923653 303.000000
2.122985 71.417389 303.000000
2.122985 71.911125 303.000000
2.122985 72.404854 303.000000
2.129992 73.139183 304.000000
2.129992 73.634544 304.000000
2.129992 74.129913 304.000000
2.136998 74.870758 305.000000
2.136998 75.367752 305.000000
2.136998 75.864746 305.000000
2.136998 76.361740 305.000000
2.136998 76.858727 305.000000
2.136998 77.355721 305.000000
2.136998 77.852715 305.000000
2.144005 78.606598 306.000000
2.144005 79.105217 306.000000
2.144005 79.603844 306.000000
2.151011 80.364235 307.000000
2.151011 80.864487 307.000000
2.151011 81.364738 307.000000
2.151011 81.864990 307.000000
2.151011 82.365242 307.000000
2.151011 82.865501 307.000000
2.151011 83.365753 307.000000
2.151011 83.866005 307.000000
2.151011 84.366257 307.000000
2.151011 84.866508 307.000000
2.151011 85.366760 307.000000
2.151011 85.867012 307.000000
2.151011 86.367264 307.000000
2.151011 86.867516 307.000000
2.151011 87.367775 307.000000
2.151011 87.868027 307.000000
2.151011 88.368279 307.000000
2.151011 88.868530 307.000000
2.151011 89.368782 307.000000
2.151011 89.869034 307.000000
2.151011 90.369286 307.000000
2.151011 90.869537 307.000000
2.151011 91.369789 307.000000
2.151011 91.870049 307.000000
2.151011 92.370300 307.000000
2.144005 92.568047 306.000000
2.144005 93.066666 306.000000
2.144005 93.565292 306.000000
2.144005 94.063911 306.000000
2.144005 94.562538 306.000000
2.136998 94.750504 305.000000
2.136998 95.247498 305.000000
2.136998 95.744492 305.000000
2.136998 96.241486 305.000000
2.136998 96.738480 305.000000
2.136998 97.235466 305.000000
2.136998 97.732460 305.000000
2.136998 98.229454 305.000000
2.136998 98.726448 305.000000
2.136998 99.223442 305.000000
2.129992 99.393486 304.000000
2.129992 99.888847 304.000000
2.122985 100.054001 303.000000
2.122985 100.547737 303.000000
2.122985 101.041466 303.000000
2.122985 101.535202 303.000000
2.122985 102.028938 303.000000
2.122985 102.522675 303.000000
2.122985 103.016411 303.000000
2.122985 103.510139 303.000000
2.122985 104.003876 303.000000
2.122985 104.497612 303.000000
2.115978 104.644844 302.000000
2.115978 105.136948 302.000000
2.115978 105.629051 302.000000
2.115978 106.121162 302.000000
2.115978 106.613266 302.000000
2.115978 107.105362 302.000000
2.115978 107.597466 302.000000
2.115978 108.089577 302.000000
2.115978 108.581680 302.000000
2.115978 109.073784 302.000000
2.115978 109.565887 302.000000
2.115978 110.057991 302.000000
2.108972 110.184036 301.000000
2.108972 110.674515 301.000000
2.108972 111.164993 301.000000
2.108972 111.655464 301.000000
2.108972 112.145943 301.000000
2.108972 112.636414 301.000000
2.108972 113.126892 301.000000
2.108972 113.617371 301.000000
2.108972 114.107841 301.000000
2.101965 114.217606 300.000000
2.101965 114.706451 300.000000
2.101965 115.195297 300.000000
2.101965 115.684143 300.000000
2.101965 116.172989 300.000000
2.101965 116.661835 300.000000
2.101965 117.150681 300.000000
2.101965 117.639526 300.000000
2.101965 118.128372 300.000000
2.101965 118.617218 300.000000
2.101965 119.106064 300.000000
2.094959 119.196259 299.000000
2.094959 119.683479 299.000000
2.094959 120.170692 299.000000
2.094959 120.657913 299.000000
2.094959 121.145126 299.000000
2.101965 122.039146 300.000000
2.101965 122.527992 300.000000
2.101965 123.016838 300.000000
2.101965 123.505684 300.000000
2.101965 123.994530 300.000000
2.101965 124.483376 300.000000
2.101965 124.972221 300.000000
2.101965 125.461067 300.000000
2.101965 125.949913 300.000000
2.101965 126.438759 300.000000
2.101965 126.927605 300.000000
2.101965 127.416451 300.000000
2.101965 127.905296 300.000000
2.101965 128.394150 300.000000
2.101965 128.882996 300.000000
2.101965 129.371841 300.000000
2.101965 129.860687 300.000000
2.101965 130.349533 300.000000
2.101965 130.838379 300.000000
2.101965 131.327225 300.000000
2.096803 135.881149 299.263245
2.096803 136.368805 299.263245
2.097682 136.913803 299.388672
2.101271 137.636749 299.900940
2.101271 138.125443 299.900940
2.122985 140.046509 303.000000
2.129992 141.004074 304.000000
2.129992 141.499435 304.000000
2.129992 141.994797 304.000000
2.122985 142.021439 303.000000
2.122985 142.515182 303.000000
2.122985 143.008911 303.000000
2.115978 143.029037 302.000000
2.115978 143.521149 302.000000
2.112056 143.746277 301.440125
2.111138 144.174820 301.309204
2.110433 144.617447 301.208496
2.110433 145.108261 301.208496
2.109401 145.527893 301.061249
2.107727 145.902618 300.822357
2.107727 146.392807 300.822357
2.106209 146.777176 300.605652
2.108972 147.460190 301.000000
2.108972 147.950668 301.000000
2.108972 148.441147 301.000000
2.101965 148.436844 300.000000
2.101965 148.925690 300.000000
2.101965 149.414536 300.000000
2.101965 149.903381 300.000000
2.101965 150.392227 300.000000
2.101965 150.881073 300.000000
2.094959 150.865341 299.000000
2.094959 151.352570 299.000000
2.085931 151.185440 297.711487
2.085931 151.670563 297.711487
2.085931 152.155670 297.711487
2.082773 152.409714 297.260803
2.066933 151.731262 295.000000
2.066933 152.211960 295.000000
2.066933 152.692673 295.000000
2.066933 153.173370 295.000000
2.066933 153.654068 295.000000
2.066933 154.134766 295.000000
2.059926 154.091354 294.000000
2.059926 154.570419 294.000000
2.052919 154.522110 293.000000
2.052919 154.999542 293.000000
2.052919 155.476990 293.000000
2.045913 155.422165 292.000000
2.045913 155.897964 292.000000
2.045913 156.373779 292.000000
2.045913 156.849594 292.000000
2.038907 156.786606 291.000000
2.031900 156.720383 290.000000
2.031900 157.192932 290.000000
2.031900 157.665482 290.000000
2.590588 28.180670 300.000000
2.590588 28.669516 300.000000
2.590588 29.158361 300.000000
2.587709 29.614265 299.666656
2.580273 30.989864 298.805542
2.580273 31.476767 298.805542
2.580273 31.963665 298.805542
2.580804 32.944233 298.866943
2.580804 33.431232 298.866943
2.581300 33.924767 298.924500
2.590588 34.535671 300.000000
2.590588 35.024517 300.000000
2.590588 35.513363 300.000000
2.581953 35.882198 299.000000
2.581953 36.369415 299.000000
2.590588 36.979900 300.000000
2.590588 37.468746 300.000000
2.590588 37.957592 300.000000
2.590588 38.446442 300.000000
2.590588 38.935287 300.000000
2.590588 39.424133 300.000000
2.590588 39.912979 300.000000
2.590588 40.401825 300.000000
2.590588 40.890671 300.000000
2.590588 41.379517 300.000000
2.590588 41.868362 300.000000
2.590588 42.357208 300.000000
2.590588 42.846054 300.000000
2.590588 43.334904 300.000000
2.590588 43.823750 300.000000
2.590588 44.312595 300.000000
2.590588 44.801441 300.000000
2.590588 45.290287 300.000000
2.590588 45.779133 300.000000
2.590588 46.267979 300.000000
2.590588 46.756824 300.000000
2.590588 47.245670 300.000000
2.590588 47.734516 300.000000
2.590588 48.223366 300.000000
2.590588 48.712212 300.000000
2.590588 49.201057 300.000000
2.590588 49.689903 300.000000
2.590588 50.178749 300.000000
2.590588 50.667595 300.000000
2.590588 51.156441 300.000000
2.590588 51.645287 300.000000
2.590588 52.134132 300.000000
2.590588 52.622978 300.000000
2.590588 53.111828 300.000000
2.590588 53.600670 300.000000
2.590588 54.089516 300.000000
2.590588 54.578362 300.000000
2.590588 55.067207 300.000000
2.590588 55.556053 300.000000
2.590588 56.044899 300.000000
2.590588 56.533745 300.000000
2.581953 56.832523 299.000000
2.590588 57.511440 300.000000
2.590588 58.000286 300.000000
2.590588 58.489132 300.000000
2.590588 58.977978 300.000000
2.590588 59.466824 300.000000
2.590588 59.955669 300.000000
2.590588 60.444515 300.000000
2.590588 60.933361 300.000000
2.590588 61.422207 300.000000
2.590588 61.911053 300.000000
2.590588 62.399902 300.000000
2.590588 62.888748 300.000000
2.599223 63.588852 301.000000
2.599223 64.079330 301.000000
2.599223 64.569801 301.000000
2.599223 65.060280 301.000000
2.599223 65.550758 301.000000
2.599223 66.041229 301.000000
2.599223 66.531708 301.000000
2.599223 67.022186 301.000000
2.607858 67.736954 302.000000
2.607858 68.229057 302.000000
2.607858 68.721169 302.000000
2.607858 69.213272 302.000000
2.616494 69.936188 303.000000
2.616494 70.429916 303.000000
2.616494 70.923653 303.000000
2.616494 71.417389 303.000000
2.625129 72.148453 304.000000
2.625129 72.643822 304.000000
2.625129 73.139183 304.000000
2.633764 73.876770 305.000000
2.633764 74.373764 305.000000
2.633764 74.870758 305.000000
2.633764 75.367752 305.000000
2.633764 75.864746 305.000000
2.633764 76.361740 305.000000
2.633764 76.858727 305.000000
2.633764 77.355721 305.000000
2.642400 78.107971 306.000000
2.642400 78.606598 306.000000
2.642400 79.105217 306.000000
2.642400 79.603844 306.000000
2.651035 80.364235 307.000000
2.651035 80.864487 307.000000
2.651035 81.364738 307.000000
2.651035 81.864990 307.000000
2.651035 82.365242 307.000000
2.651035 82.865501 307.000000
2.651035 83.365753 307.000000
2.651035 83.866005 307.000000
2.651035 84.366257 307.000000
2.651035 84.866508 307.000000
2.659670 85.644829 308.000000
2.659670 86.146713 308.000000
2.659670 86.648598 308.000000
2.659670 87.150475 308.000000
2.659670 87.652359 308.000000
2.659670 88.154243 308.000000
2.651035 88.368279 307.000000
2.651035 88.868530 307.000000
2.651035 89.368782 307.000000
2.651035 89.869034 307.000000
2.651035 90.369286 307.000000
2.651035 90.869537 307.000000
2.651035 91.369789 307.000000
2.651035 91.870049 307.000000
2.651035 92.370300 307.000000
2.651035 92.870552 307.000000
2.651035 93.370804 307.000000
2.642400 93.565292 306.000000
2.642400 94.063911 306.000000
2.642400 94.562538 306.000000
2.642400 95.061157 306.000000
2.642400 95.559784 306.000000
2.642400 96.058411 306.000000
2.642400 96.557030 306.000000
2.642400 97.055656 306.000000
2.642400 97.554276 306.000000
2.642400 98.052902 306.000000
2.642400 98.551521 306.000000
2.642400 99.050148 306.000000
2.633764 99.223442 305.000000
2.633764 99.720436 305.000000
2.633764 100.217430 305.000000
2.625129 100.384209 304.000000
2.616494 100.547737 303.000000
2.616494 101.041466 303.000000
2.616494 101.535202 303.000000
2.616494 102.028938 303.000000
2.616494 102.522675 303.000000
2.616494 103.016411 303.000000
2.616494 103.510139 303.000000
2.616494 104.003876 303.000000
2.616494 104.497612 303.000000
2.607858 104.644844 302.000000
2.607858 105.136948 302.000000
2.607858 105.629051 302.000000
2.607858 106.121162 302.000000
2.607858 106.613266 302.000000
2.607858 107.105362 302.000000
2.607858 107.597466 302.000000
2.607858 108.089577 302.000000
2.607858 108.581680 302.000000
2.607858 109.073784 302.000000
2.607858 109.565887 302.000000
2.607858 110.057991 302.000000
2.607858 110.550102 302.000000
2.607858 111.042206 302.000000
2.607858 111.534309 302.000000
2.607858 112.026413 302.000000
2.607858 112.518524 302.000000
2.607858 113.010628 302.000000
2.607858 113.502731 302.000000
2.599223 113.617371 301.000000
2.599223 114.107841 301.000000
2.599223 114.598320 301.000000
2.599223 115.088799 301.000000
2.599223 115.579269 301.000000
2.599223 116.069748 301.000000
2.599223 116.560219 301.000000
2.599223 117.050697 301.000000
2.599223 117.541176 301.000000
2.590588 117.639526 300.000000
2.590588 118.128372 300.000000
2.590588 118.617218 300.000000
2.590588 119.106064 300.000000
2.590588 119.594910 300.000000
2.590588 120.083763 300.000000
2.590588 120.572609 300.000000
2.590588 121.061455 300.000000
2.590588 121.550301 300.000000
2.590588 122.039146 300.000000
2.590588 122.527992 300.000000
2.590588 123.016838 300.000000
2.590588 123.505684 300.000000
2.590588 123.994530 300.000000
2.590588 124.483376 300.000000
2.590588 124.972221 300.000000
2.590588 125.461067 300.000000
2.590588 125.949913 300.000000
2.590588 126.438759 300.000000
2.590588 126.927605 300.000000
2.590588 127.416451 300.000000
2.590588 127.905296 300.000000
2.590588 128.394150 300.000000
2.590588 128.882996 300.000000
2.590588 129.371841 300.000000
2.590588 129.860687 300.000000
2.590588 130.349533 300.000000
2.590588 130.838379 300.000000
2.589732 137.636749 299.900940
2.589732 138.125443 299.900940
2.591106 138.687668 300.060059
2.625129 141.004074 304.000000
2.625129 141.499435 304.000000
2.625129 141.994797 304.000000
2.616494 142.021439 303.000000
2.616494 142.515182 303.000000
2.616494 143.008911 303.000000
2.607858 143.029037 302.000000
2.607858 143.521149 302.000000
2.603024 143.746277 301.440125
2.601893 144.174820 301.309204
2.601023 144.617447 301.208496
2.601023 145.108261 301.208496
2.599752 145.527893 301.061249
2.597689 145.902618 300.822357
2.597689 146.392807 300.822357
2.595818 146.777176 300.605652
2.616494 148.440002 303.000000
2.616494 148.933731 303.000000
2.616494 149.427460 303.000000
2.616494 149.921204 303.000000
2.616494 150.414932 303.000000
2.590588 149.414536 300.000000
2.590588 149.903381 300.000000
2.590588 150.392227 300.000000
2.590588 150.881073 300.000000
2.590588 151.369919 300.000000
2.590588 151.858765 300.000000
2.590588 152.347610 300.000000
2.570826 151.670563 297.711487
2.570826 152.155670 297.711487
2.566934 152.409714 297.260803
2.547411 151.731262 295.000000
2.547411 152.211960 295.000000
2.547411 152.692673 295.000000
2.547411 153.173370 295.000000
2.547411 153.654068 295.000000
2.547411 154.134766 295.000000
2.538776 154.091354 294.000000
2.538776 154.570419 294.000000
2.538776 155.049484 294.000000
2.530141 154.999542 293.000000
2.530141 155.476990 293.000000
2.521505 155.422165 292.000000
2.521505 155.897964 292.000000
2.521505 156.373779 292.000000
2.521505 156.849594 292.000000
2.512870 156.786606 291.000000
2.504235 156.720383 290.000000
2.504235 157.192932 290.000000
2.504235 157.665482 290.000000
3.079210 28.180670 300.000000
3.079210 28.669516 300.000000
3.079210 29.158361 300.000000
3.075789 29.614265 299.666656
3.066950 30.989864 298.805542
3.066950 31.476767 298.805542
3.066950 31.963665 298.805542
3.080407 32.592949 300.116608
3.080407 33.081982 300.116608
3.080407 33.571018 300.116608
3.079299 34.047806 300.008667
3.079210 34.535671 300.000000
3.079210 35.024517 300.000000
3.079210 35.513363 300.000000
3.068946 35.882198 299.000000
3.068946 36.369415 299.000000
3.068946 36.856632 299.000000
3.068946 37.343849 299.000000
3.068946 37.831066 299.000000
3.079210 38.446442 300.000000
3.079210 38.935287 300.000000
3.079210 39.424133 300.000000
3.079210 39.912979 300.000000
3.079210 40.401825 300.000000
3.079210 40.890671 300.000000
3.079210 41.379517 300.000000
3.079210 41.868362 300.000000
3.079210 42.357208 300.000000
3.079210 42.846054 300.000000
3.079210 43.334904 300.000000
3.079210 43.823750 300.000000
3.079210 44.312595 300.000000
3.068946 44.652100 299.000000
3.068946 45.139317 299.000000
3.068946 45.626534 299.000000
3.068946 46.113750 299.000000
3.068946 46.600967 299.000000
3.068946 47.088184 299.000000
3.079210 47.734516 300.000000
3.079210 48.223366 300.000000
3.079210 48.712212 300.000000
3.079210 49.201057 300.000000
3.079210 49.689903 300.000000
3.079210 50.178749 300.000000
3.079210 50.667595 300.000000
3.079210 51.156441 300.000000
3.079210 51.645287 300.000000
3.079210 52.134132 300.000000
3.079210 52.622978 300.000000
3.079210 53.111828 300.000000
3.079210 53.600670 300.000000
3.079210 54.089516 300.000000
3.079210 54.578362 300.000000
3.079210 55.067207 300.000000
3.068946 55.370872 299.000000
3.068946 55.858089 299.000000
3.068946 56.345306 299.000000
3.068946 56.832523 299.000000
3.068946 57.319736 299.000000
3.068946 57.806953 299.000000
3.079210 58.489132 300.000000
3.079210 58.977978 300.000000
3.079210 59.466824 300.000000
3.079210 59.955669 300.000000
3.079210 60.444515 300.000000
3.079210 60.933361 300.000000
3.079210 61.422207 300.000000
3.079210 61.911053 300.000000
3.079210 62.399902 300.000000
3.079210 62.888748 300.000000
3.079210 63.377594 300.000000
3.079210 63.866440 300.000000
3.089474 64.569801 301.000000
3.089474 65.060280 301.000000
3.089474 65.550758 301.000000
3.089474 66.041229 301.000000
3.089474 66.531708 301.000000
3.089474 67.022186 301.000000
3.099738 67.736954 302.000000
3.099738 68.229057 302.000000
3.099738 68.721169 302.000000
3.099738 69.213272 302.000000
3.110003 69.936188 303.000000
3.110003 70.429916 303.000000
3.110003 70.923653 303.000000
3.110003 71.417389 303.000000
3.120266 72.148453 304.000000
3.120266 72.643822 304.000000
3.120266 73.139183 304.000000
3.130530 73.876770 305.000000
3.130530 74.373764 305.000000
3.130530 74.870758 305.000000
3.130530 75.367752 305.000000
3.130530 75.864746 305.000000
3.130530 76.361740 305.000000
3.130530 76.858727 305.000000
3.130530 77.355721 305.000000
3.140795 78.107971 306.000000
3.140795 78.606598 306.000000
3.140795 79.105217 306.000000
3.140795 79.603844 306.000000
3.151059 80.364235 307.000000
3.151059 80.864487 307.000000
3.151059 81.364738 307.000000
3.151059 81.864990 307.000000
3.151059 82.365242 307.000000
3.151059 82.865501 307.000000
3.151059 83.365753 307.000000
3.151059 83.866005 307.000000
3.151059 84.366257 307.000000
3.151059 84.866508 307.000000
3.161323 85.644829 308.000000
3.161323 86.146713 308.000000
3.161323 86.648598 308.000000
3.161323 87.150475 308.000000
3.161323 87.652359 308.000000
3.161323 88.154243 308.000000
3.151059 88.368279 307.000000
3.151059 88.868530 307.000000
3.151059 89.368782 307.000000
3.151059 89.869034 307.000000
3.151059 90.369286 307.000000
3.151059 90.869537 307.000000
3.151059 91.369789 307.000000
3.151059 91.870049 307.000000
3.151059 92.370300 307.000000
3.151059 92.870552 307.000000
3.151059 93.370804 307.000000
3.140795 93.565292 306.000000
3.140795 94.063911 306.000000
3.140795 94.562538 306.000000
3.140795 95.061157 306.000000
3.140795 95.559784 306.000000
3.140795 96.058411 306.000000
3.140795 96.557030 306.000000
3.140795 97.055656 306.000000
3.140795 97.554276 306.000000
3.140795 98.052902 306.000000
3.140795 98.551521 306.000000
3.140795 99.050148 306.000000
3.130530 99.223442 305.000000
3.130530 99.720436 305.000000
3.130530 100.217430 305.000000
3.120266 100.384209 304.000000
3.110003 100.547737 303.000000
3.110003 101.041466 303.000000
3.110003 101.535202 303.000000
3.110003 102.028938 303.000000
3.110003 102.522675 303.000000
3.110003 103.016411 303.000000
3.110003 103.510139 303.000000
3.110003 104.003876 303.000000
3.110003 104.497612 303.000000
3.099738 104.644844 302.000000
3.099738 105.136948 302.000000
3.099738 105.629051 302.000000
3.099738 106.121162 302.000000
3.099738 106.613266 302.000000
3.099738 107.105362 302.000000
3.099738 107.597466 302.000000
3.099738 108.089577 302.000000
3.099738 108.581680 302.000000
3.099738 109.073784 302.000000
3.099738 109.565887 302.000000
3.099738 110.057991 302.000000
3.099738 110.550102 302.000000
3.099738 111.042206 302.000000
3.099738 111.534309 302.000000
3.099738 112.026413 302.000000
3.099738 112.518524 302.000000
3.099738 113.010628 302.000000
3.099738 113.502731 302.000000
3.099738 113.994835 302.000000
3.099738 114.486938 302.000000
3.099738 114.979050 302.000000
3.099738 115.471153 302.000000
3.099738 115.963257 302.000000
3.099738 116.455360 302.000000
