12.097037 96.952850 348.666443
12.097037 97.520996 348.666443
12.082656 97.972534 348.251923
12.032985 98.134918 346.820313
12.032985 98.700058 346.820313
12.017839 99.140251 346.383759
11.952184 101.966690 344.491394
11.952184 102.528038 344.491394
11.952184 103.089386 344.491394
11.934874 103.500618 343.992493
11.972704 104.390991 345.082855
11.972704 104.953300 345.082855
11.972704 105.515610 345.082855
11.967950 106.035797 344.945831
11.967950 106.597878 344.945831
11.957111 107.062920 344.633423
11.946989 107.533386 344.341675
11.946989 108.094490 344.341675
11.946989 108.655579 344.341675
11.946989 109.216682 344.341675
11.946989 109.777786 344.341675
11.946989 110.338890 344.341675
11.946989 110.899979 344.341675
11.787558 109.973640 339.746460
11.787558 110.527260 339.746460
11.746617 110.695076 338.566498
11.880737 112.516945 342.432129
11.880737 113.074928 342.432129
11.880737 113.632927 342.432129
11.875206 114.137749 342.272705
11.875206 114.695480 342.272705
11.869120 115.194153 342.097321
11.862428 115.686317 341.904419
11.862428 116.243454 341.904419
11.855065 116.728088 341.692200
11.698935 115.740234 337.192139
11.698935 116.289673 337.192139
11.698935 116.839134 337.192139
11.679174 117.190315 336.622620
11.679174 117.738838 336.622620
11.670143 118.195885 336.362305
11.663770 118.679138 336.178619
11.663770 119.226944 336.178619
11.659015 119.725906 336.041565
11.640539 120.082878 335.509033
11.640539 120.629585 335.509033
11.620983 120.972733 334.945404
11.600306 121.302284 334.349396
11.171841 117.346603 322.000000
11.171841 117.871300 322.000000
11.554185 122.447983 333.020111
11.554185 122.990623 333.020111
11.554185 123.533279 333.020111
11.539710 123.920486 332.602905
11.525764 124.312035 332.200928
11.525764 124.853355 332.200928
11.511326 125.237602 331.784790
11.496081 125.611671 331.345398
11.496081 126.151588 331.345398
11.479788 126.511963 330.875793
11.463713 126.873207 330.412476
11.463713 127.411613 330.412476
11.447986 127.774467 329.959167
11.458844 128.433853 330.272156
11.458844 128.972031 330.272156
11.491015 129.873795 331.199402
11.491015 130.413483 331.199402
11.491015 130.953171 331.199402
11.130226 127.364311 320.800568
11.103485 127.579781 320.029816
11.103485 128.101273 320.029816
11.076612 128.311462 319.255280
11.047545 128.493622 318.417511
11.047545 129.012466 318.417511
10.165682 152.134903 293.000000
10.165682 152.612350 293.000000
10.165682 153.089783 293.000000
10.165682 153.567230 293.000000
10.165682 154.044662 293.000000
10.165682 154.522110 293.000000
10.130985 154.470535 292.000000
10.130985 154.946350 292.000000
10.130985 155.422165 292.000000
10.130985 155.897964 292.000000
10.096291 155.838257 291.000000
10.096291 156.312439 291.000000
10.061596 156.247818 290.000000
10.082413 157.044632 290.600006
10.082413 157.518158 290.600006
10.082413 157.991684 290.600006
15.144382 50.034203 416.926117
15.144382 50.713577 416.926117
15.144382 51.392952 416.926117
15.138986 52.053776 416.777557
15.138986 52.732910 416.777557
15.138986 53.412045 416.777557
15.135506 54.078747 416.681763
15.133291 54.749706 416.620789
15.133291 55.428585 416.620789
15.133291 56.107464 416.620789
14.615956 67.302834 402.378510
14.615956 67.958504 402.378510
14.615956 68.614174 402.378510
14.603397 69.210320 402.032745
14.603397 69.865425 402.032745
14.602181 70.514664 401.999298
14.616580 71.239899 402.395660
14.616580 71.895592 402.395660
14.616580 72.551292 402.395660
14.612956 73.188843 402.295929
14.612956 73.844383 402.295929
14.599761 74.432640 401.932648
14.360687 73.858009 395.350922
14.360687 74.502228 395.350922
14.453287 75.631004 397.900208
14.453287 76.279381 397.900208
14.453287 76.927757 397.900208
14.507718 77.868279 399.398712
14.507718 78.519096 399.398712
14.507718 79.169907 399.398712
14.498151 79.768082 399.135315
14.490354 80.375221 398.920654
14.490354 81.025261 398.920654
14.479171 81.612259 398.612762
14.465429 82.183731 398.234497
14.450677 82.748161 397.828339
14.450677 83.396423 397.828339
14.444345 84.007851 397.654022
14.386619 84.317497 396.064819
14.386619 84.962883 396.064819
14.386619 85.608269 396.064819
14.383754 86.236473 395.985962
14.383754 86.881729 395.985962
14.347792 87.308144 394.995880
14.344142 87.929413 394.895447
14.344142 88.572899 394.895447
13.940468 86.705635 383.782257
13.940468 87.331009 383.782257
13.940468 87.956375 383.782257
13.847876 87.993385 381.233185
13.771399 88.125214 379.127777
13.771399 88.742996 379.127777
13.721560 89.037392 377.755737
13.679549 89.378441 376.599121
13.679549 89.992096 376.599121
13.641064 90.350868 375.539642
13.582979 90.575478 373.940582
13.582979 91.184814 373.940582
13.526474 91.412277 372.384979
13.467669 91.619026 370.766052
13.467669 92.223183 370.766052
13.406864 92.408234 369.092072
13.339273 92.540764 367.231323
13.339273 93.139160 367.231323
13.062839 94.724998 359.621063
13.062839 95.310997 359.621063
13.062839 95.896996 359.621063
12.924185 95.458878 355.803894
12.924185 96.038658 355.803894
12.828276 95.901443 353.163513
12.627792 94.969154 347.644196
12.627792 95.535637 347.644196
12.664925 96.384705 348.666443
12.664925 96.952850 348.666443
12.664925 97.520996 348.666443
12.649868 97.972534 348.251923
12.597866 98.134918 346.820313
12.597866 98.700058 346.820313
12.582008 99.140251 346.383759
12.513270 101.966690 344.491394
12.513270 102.528038 344.491394
12.513270 103.089386 344.491394
12.495149 103.500618 343.992493
12.534755 104.390991 345.082855
12.534755 104.953300 345.082855
12.534755 105.515610 345.082855
12.529778 106.035797 344.945831
12.529778 106.597878 344.945831
12.518430 107.062920 344.633423
12.507833 107.533386 344.341675
12.507833 108.094490 344.341675
12.507833 108.655579 344.341675
12.507833 109.216682 344.341675
12.507833 109.777786 344.341675
12.507833 110.338890 344.341675
12.507833 110.899979 344.341675
12.342070 109.983932 339.778229
12.342070 110.537598 339.778229
12.298701 110.700890 338.584290
12.438470 112.516945 342.432129
12.438470 113.074928 342.432129
12.438470 113.632927 342.432129
12.432679 114.137749 342.272705
12.432679 114.695480 342.272705
12.426309 115.194153 342.097321
12.419302 115.686317 341.904419
12.419302 116.243454 341.904419
12.411592 116.728088 341.692200
12.248134 115.740234 337.192139
12.248134 116.289673 337.192139
12.248134 116.839134 337.192139
12.227447 117.190315 336.622620
12.227447 117.738838 336.622620
12.217991 118.195885 336.362305
12.211318 118.679138 336.178619
12.211318 119.226944 336.178619
12.206340 119.725906 336.041565
12.186996 120.082878 335.509033
12.186996 120.629585 335.509033
12.166523 120.972733 334.945404
12.144874 121.302284 334.349396
12.036517 120.759987 331.366333
11.696296 117.871300 322.000000
12.096589 122.447983 333.020111
12.096589 122.990623 333.020111
12.096589 123.533279 333.020111
12.081434 123.920486 332.602905
12.066833 124.312035 332.200928
12.066833 124.853355 332.200928
12.051718 125.237602 331.784790
12.035757 125.611671 331.345398
12.035757 126.151588 331.345398
12.018699 126.511963 330.875793
12.001870 126.873207 330.412476
12.001870 127.411613 330.412476
11.985403 127.774467 329.959167
11.996773 128.433853 330.272156
11.996773 128.972031 330.272156
12.030454 129.873795 331.199402
12.030454 130.413483 331.199402
12.030454 130.953171 331.199402
10.606578 153.994720 292.000000
10.606578 154.470535 292.000000
10.606578 154.946350 292.000000
10.606578 155.422165 292.000000
10.606578 155.897964 292.000000
10.570254 155.838257 291.000000
10.570254 156.312439 291.000000
10.533931 156.247818 290.000000
10.555725 157.044632 290.600006
10.555725 157.518158 290.600006
10.555725 157.991684 290.600006
15.823447 50.034203 416.926117
15.823447 50.713577 416.926117
15.823447 51.392952 416.926117
15.817808 52.053776 416.777557
15.817808 52.732910 416.777557
15.817808 53.412045 416.777557
15.814174 54.078747 416.681763
15.811860 54.749706 416.620789
15.811860 55.428585 416.620789
15.811860 56.107464 416.620789
15.534089 62.458290 409.301941
15.534089 63.125244 409.301941
15.572179 63.948612 410.305542
15.572179 64.617203 410.305542
15.572179 65.285789 410.305542
15.537056 65.805618 409.380096
15.499480 66.311935 408.390045
15.499480 66.977402 408.390045
15.465154 67.493057 407.485596
15.446131 68.073219 406.984344
15.446131 68.736389 406.984344
15.271327 68.614174 402.378510
15.258204 69.210320 402.032745
15.258204 69.865425 402.032745
15.389768 71.128601 405.499268
15.397490 71.825371 405.702728
15.397490 72.486458 405.702728
15.397490 73.147545 405.702728
15.383488 73.741524 405.333801
15.383488 74.402008 405.333801
15.167051 74.006401 399.630981
14.985461 73.763741 394.846313
14.985461 74.407143 394.846313
15.122458 75.736656 398.456024
15.197260 76.763771 400.426941
15.197260 77.416260 400.426941
15.197260 78.068748 400.426941
15.197260 78.721237 400.426941
15.197260 79.373726 400.426941
15.197260 80.026215 400.426941
15.197260 80.678711 400.426941
15.197260 81.331200 400.426941
15.178009 81.879845 399.919708
15.156060 82.412155 399.341400
15.133319 82.938240 398.742157
15.133319 83.587982 398.742157
15.092019 84.007851 397.654022
15.101707 84.710152 397.909241
15.101707 85.358543 397.909241
15.101707 86.006935 397.909241
15.099632 86.643417 397.854584
15.099632 87.291718 397.854584
15.089869 87.883163 397.597351
15.079131 88.468033 397.314392
15.079131 89.115456 397.314392
15.067316 89.692551 397.003113
14.565550 87.331009 383.782257
14.565550 87.956375 383.782257
14.492776 88.139153 381.864746
14.415914 88.290657 379.839539
14.415914 88.909599 379.839539
14.368608 89.234756 378.593109
14.325995 89.585197 377.470306
14.325995 90.200279 377.470306
14.254708 90.363464 375.592010
14.254708 90.975487 375.592010
14.254708 91.587509 375.592010
14.202981 91.864960 374.229065
14.147056 92.110634 372.755493
14.147056 92.718025 372.755493
14.090951 92.955322 371.277222
13.937399 92.540764 367.231323
13.937399 93.139160 367.231323
13.648569 94.724998 359.621063
13.648569 95.310997 359.621063
13.648569 95.896996 359.621063
13.503697 95.458878 355.803894
13.503697 96.038658 355.803894
13.403488 95.901443 353.163513
13.249356 95.367493 349.102356
13.249356 95.936348 349.102356
13.249356 96.505203 349.102356
13.235332 96.971306 348.732819
13.235332 97.539566 348.732819
13.217080 97.972534 348.251923
13.060420 102.418732 344.124146
13.060420 102.979485 344.124146
13.060420 103.540230 344.124146
13.096806 104.390991 345.082855
13.096806 104.953300 345.082855
13.096806 105.515610 345.082855
13.056714 105.753197 344.026489
13.056714 106.313782 344.026489
13.056714 106.874374 344.026489
13.056714 107.434952 344.026489
13.056714 107.995537 344.026489
13.056714 108.556129 344.026489
13.056714 109.116714 344.026489
13.056714 109.677307 344.026489
13.056714 110.237885 344.026489
13.056714 110.798470 344.026489
12.895481 109.983932 339.778229
12.895481 110.537598 339.778229
12.850168 110.700890 338.584290
12.996203 112.516945 342.432129
12.996203 113.074928 342.432129
12.996203 113.632927 342.432129
12.990153 114.137749 342.272705
12.990153 114.695480 342.272705
12.983497 115.194153 342.097321
12.976175 115.686317 341.904419
12.976175 116.243454 341.904419
12.968122 116.728088 341.692200
12.797332 115.740234 337.192139
12.797332 116.289673 337.192139
12.797332 116.839134 337.192139
12.775718 117.190315 336.622620
12.775718 117.738838 336.622620
12.765838 118.195885 336.362305
12.758866 118.679138 336.178619
12.758866 119.226944 336.178619
12.753665 119.725906 336.041565
12.733454 120.082878 335.509033
12.733454 120.629585 335.509033
12.712062 120.972733 334.945404
12.576228 120.220024 331.366333
12.576228 120.759987 331.366333
12.182797 117.505249 321.000000
12.182797 118.028313 321.000000
12.284310 119.539192 323.674713
12.284310 120.066628 323.674713
12.284310 120.594040 323.674713
12.248714 120.770500 322.736816
12.248714 121.296394 322.736816
12.220223 121.538933 321.986115
12.187077 121.732521 321.112762
12.187077 122.255768 321.112762
12.152957 122.435272 320.213745
12.116807 122.591301 319.261230
12.116807 123.111534 319.261230
12.078447 123.240379 318.250519
12.038685 123.351547 317.202820
12.038685 123.868423 317.202820
12.023476 124.228142 316.802063
12.022928 124.738693 316.787659
12.022928 125.254898 316.787659
11.082170 154.946350 292.000000
11.082170 155.422165 292.000000
11.082170 155.897964 292.000000
11.044218 155.838257 291.000000
11.044218 156.312439 291.000000
11.006266 156.247818 290.000000
11.029037 157.044632 290.600006
11.029037 157.518158 290.600006
11.029037 157.991684 290.600006
11.015754 158.274353 290.250000
11.015754 158.747314 290.250000
11.015754 159.220276 290.250000
16.502512 50.034203 416.926117
16.502512 50.713577 416.926117
16.502512 51.392952 416.926117
16.496632 52.053776 416.777557
16.496632 52.732910 416.777557
16.496632 53.412045 416.777557
16.200735 62.458290 409.301941
16.200735 63.125244 409.301941
16.240461 63.948612 410.305542
16.240461 64.617203 410.305542
16.240461 65.285789 410.305542
16.203829 65.805618 409.380096
16.164642 66.311935 408.390045
16.164642 66.977402 408.390045
16.128843 67.493057 407.485596
16.109003 68.073219 406.984344
16.109003 68.736389 406.984344
16.050222 71.128601 405.499268
16.058275 71.825371 405.702728
16.058275 72.486458 405.702728
16.058275 73.147545 405.702728
16.043673 73.741524 405.333801
16.043673 74.402008 405.333801
15.817946 74.006401 399.630981
15.710512 74.150528 396.916718
15.710512 74.797302 396.916718
15.771441 75.736656 398.456024
15.849451 76.763771 400.426941
15.849451 77.416260 400.426941
15.849451 78.068748 400.426941
15.849451 78.721237 400.426941
15.849451 79.373726 400.426941
15.849451 80.026215 400.426941
15.849451 80.678711 400.426941
15.849451 81.331200 400.426941
15.829375 81.879845 399.919708
15.806485 82.412155 399.341400
15.782765 82.938240 398.742157
15.782765 83.587982 398.742157
15.535371 82.917305 392.491882
15.749797 84.710152 397.909241
15.749797 85.358543 397.909241
15.749797 86.006935 397.909241
15.747634 86.643417 397.854584
15.747634 87.291718 397.854584
15.737453 87.883163 397.597351
15.726253 88.468033 397.314392
15.726253 89.115456 397.314392
15.713932 89.692551 397.003113
15.605087 89.713707 394.253204
15.605087 90.356140 394.253204
15.114735 88.139153 381.864746
15.034575 88.290657 379.839539
15.034575 88.909599 379.839539
14.985238 89.234756 378.593109
15.383333 92.238663 388.650757
15.383333 92.871956 388.650757
15.383333 93.505264 388.650757
14.866451 90.975487 375.592010
14.866451 91.587509 375.592010
14.812504 91.864960 374.229065
14.817952 92.508781 374.366730
14.817952 93.118805 374.366730
14.817952 93.728828 374.366730
14.509856 95.961411 366.582855
14.509856 96.558746 366.582855
14.509856 97.156090 366.582855
14.234300 95.896996 359.621063
14.083210 95.458878 355.803894
14.083210 96.038658 355.803894
13.978700 95.901443 353.163513
13.817954 95.367493 349.102356
13.817954 95.936348 349.102356
13.817954 96.505203 349.102356
13.803327 96.971306 348.732819
13.803327 97.539566 348.732819
13.620910 102.418732 344.124146
13.620910 102.979485 344.124146
13.620910 103.540230 344.124146
13.597314 103.920639 343.528015
13.597314 104.480415 343.528015
13.597314 105.040184 343.528015
13.595368 105.584862 343.478882
13.595368 106.144554 343.478882
13.595368 106.704247 343.478882
13.595368 107.263947 343.478882
13.595368 107.823639 343.478882
13.595368 108.383324 343.478882
13.595368 108.943031 343.478882
13.595368 109.502724 343.478882
13.595368 110.062408 343.478882
13.491074 109.773483 340.843903
13.448892 109.983932 339.778229
13.448892 110.537598 339.778229
13.403371 110.715240 338.628174
13.528690 112.307365 341.794281
13.528690 112.864304 341.794281
13.528690 113.421257 341.794281
13.522022 113.922028 341.625824
13.522022 114.478706 341.625824
13.514688 114.972984 341.440521
13.506619 115.460381 341.236664
13.506619 116.016418 341.236664
13.237636 114.250931 334.440948
13.299759 115.334633 336.010468
13.299759 115.882149 336.010468
13.299759 116.429672 336.010468
13.239340 116.445786 334.484009
13.239340 116.990829 334.484009
13.223221 117.392761 334.076782
13.209496 117.814735 333.730042
13.209496 118.358543 333.730042
13.196912 118.789078 333.412109
13.171391 119.101585 332.767334
13.171391 119.643837 332.767334
13.144420 119.939957 332.085907
13.115937 120.220024 331.366333
13.115937 120.759987 331.366333
12.745205 117.871300 322.000000
12.745205 118.395996 322.000000
12.705624 118.551376 321.000000
12.705624 119.074448 321.000000
11.557763 154.946350 292.000000
11.557763 155.422165 292.000000
11.557763 155.897964 292.000000
11.518182 155.838257 291.000000
11.518182 156.312439 291.000000
11.478601 156.247818 290.000000
11.478601 156.720383 290.000000
11.478601 157.192932 290.000000
11.488497 157.801407 290.250000
11.490970 158.308441 290.312500
11.490970 158.781494 290.312500
11.491589 159.263123 290.328125
11.491589 159.736221 290.328125
11.491589 160.209305 290.328125
11.489424 160.652130 290.273438
17.147003 60.103653 416.087158
17.147003 60.781662 416.087158
17.147003 61.459667 416.087158
17.090706 61.933662 414.721039
17.033955 62.401550 413.343933
17.033955 63.075089 413.343933
17.033955 63.748627 413.343933
16.908743 63.948612 410.305542
16.908743 64.617203 410.305542
16.908743 65.285789 410.305542
16.870605 65.805618 409.380096
16.829803 66.311935 408.390045
16.829803 66.977402 408.390045
16.792532 67.493057 407.485596
16.771875 68.073219 406.984344
16.771875 68.736389 406.984344
16.710676 71.128601 405.499268
16.719059 71.825371 405.702728
16.719059 72.486458 405.702728
16.719059 73.147545 405.702728
16.703857 73.741524 405.333801
16.703857 74.402008 405.333801
16.468842 74.006401 399.630981
16.356987 74.150528 396.916718
16.356987 74.797302 396.916718
16.420422 75.736656 398.456024
16.501644 76.763771 400.426941
16.501644 77.416260 400.426941
16.501644 78.068748 400.426941
16.501644 78.721237 400.426941
16.501644 79.373726 400.426941
16.501644 80.026215 400.426941
16.501644 80.678711 400.426941
16.501644 81.331200 400.426941
16.480742 81.879845 399.919708
16.456907 82.412155 399.341400
16.432213 82.938240 398.742157
16.432213 83.587982 398.742157
16.275282 83.433243 394.934082
16.397888 84.710152 397.909241
16.397888 85.358543 397.909241
16.397888 86.006935 397.909241
16.395636 86.643417 397.854584
16.395636 87.291718 397.854584
16.385036 87.883163 397.597351
16.373375 88.468033 397.314392
16.373375 89.115456 397.314392
16.360546 89.692551 397.003113
16.247223 89.713707 394.253204
16.247223 90.356140 394.253204
15.843287 88.736168 384.451294
15.747850 88.824333 382.135468
15.747850 89.447014 382.135468
16.160053 92.427277 392.137909
16.165810 93.099426 392.277618
16.165810 93.738632 392.277618
16.165810 94.377846 392.277618
16.134949 94.835670 391.528748
16.134949 95.473656 391.528748
15.556469 92.665794 377.491425
15.493041 92.900597 375.952332
15.493041 93.513206 375.952332
15.427699 93.728828 374.366730
15.106925 95.961411 366.582855
15.106925 96.558746 366.582855
15.106925 97.156090 366.582855
14.386552 95.367493 349.102356
14.386552 95.936348 349.102356
14.386552 96.505203 349.102356
14.371322 96.971306 348.732819
14.371322 97.539566 348.732819
14.181398 102.418732 344.124146
14.181398 102.979485 344.124146
14.181398 103.540230 344.124146
14.156833 103.920639 343.528015
14.156833 104.480415 343.528015
14.156833 105.040184 343.528015
14.154808 105.584862 343.478882
14.154808 106.144554 343.478882
14.154808 106.704247 343.478882
14.154808 107.263947 343.478882
14.154808 107.823639 343.478882
14.154808 108.383324 343.478882
14.154808 108.943031 343.478882
14.154808 109.502724 343.478882
14.154808 110.062408 343.478882
14.041926 109.739937 340.739746
13.995555 109.930931 339.614502
13.995555 110.484337 339.614502
13.954909 110.715240 338.628174
13.924689 111.026085 337.894867
13.924689 111.576675 337.894867
13.924608 112.126617 337.892883
13.899776 112.476265 337.290314
13.899776 113.025879 337.290314
13.857080 113.226624 336.254272
13.809807 113.386398 335.107147
13.809807 113.932457 335.107147
13.734573 113.854851 333.281525
13.658574 113.764915 331.437347
13.658574 114.304985 331.437347
13.621596 114.534149 330.540070
13.570232 114.638840 329.293640
13.570232 115.175415 329.293640
13.541061 115.463272 328.585815
13.512605 115.754913 327.895264
13.512605 116.289215 327.895264
13.484350 116.579239 327.209656
13.450248 116.816254 326.382141
13.450248 117.348091 326.382141
13.417361 117.591698 325.584106
13.269660 116.821907 322.000000
13.269660 117.346603 322.000000
13.269660 117.871300 322.000000
13.269660 118.395996 322.000000
11.992146 155.364075 291.000000
11.992146 155.838257 291.000000
11.992146 156.312439 291.000000
11.950935 156.247818 290.000000
11.950935 156.720383 290.000000
11.950935 157.192932 290.000000
11.961239 157.801407 290.250000
11.963814 158.308441 290.312500
11.963814 158.781494 290.312500
11.964458 159.263123 290.328125
11.964458 159.736221 290.328125
11.964458 160.209305 290.328125
11.962204 160.652130 290.273438
17.824701 60.103653 416.087158
17.824701 60.781662 416.087158
17.824701 61.459667 416.087158
17.766180 61.933662 414.721039
17.707186 62.401550 413.343933
17.707186 63.075089 413.343933
17.707186 63.748627 413.343933
17.277039 70.743324 403.302887
17.284695 71.432152 403.481598
17.284695 72.089615 403.481598
17.284695 72.747086 403.481598
17.278948 73.380150 403.347473
17.278948 74.037399 403.347473
17.278948 74.694649 403.347473
17.278948 75.351898 403.347473
17.278948 76.009148 403.347473
17.278948 76.666397 403.347473
17.278948 77.323647 403.347473
17.278948 77.980896 403.347473
17.278948 78.638153 403.347473
17.278948 79.295395 403.347473
17.278948 79.952644 403.347473
17.254112 80.494026 402.767700
17.254112 81.150330 402.767700
17.251818 81.795769 402.714172
17.251818 82.451981 402.714172
17.248531 83.092369 402.637451
16.976038 82.425400 396.276550
16.976038 83.071121 396.276550
16.918528 83.433243 394.934082
17.125536 85.105499 399.766296
17.125536 85.756912 399.766296
17.125536 86.408325 399.766296
17.110193 86.981758 399.408203
17.110193 87.632591 399.408203
17.093319 88.196350 399.014252
17.079172 88.773010 398.684052
17.079172 89.422661 398.684052
17.079172 90.072304 398.684052
16.889360 89.713707 394.253204
16.889360 90.356140 394.253204
16.501034 88.906296 385.188385
16.411690 89.049179 383.102814
16.411690 89.673439 383.102814
16.798744 92.427277 392.137909
16.804729 93.099426 392.277618
16.804729 93.738632 392.277618
16.804729 94.377846 392.277618
16.772648 94.835670 391.528748
16.772648 95.473656 391.528748
16.171305 92.665794 377.491425
16.161213 93.222702 377.255859
16.161213 93.837433 377.255859
16.094995 94.065170 375.710114
16.050158 94.413628 374.663452
16.050158 95.024139 374.663452
15.703994 95.961411 366.582855
15.703994 96.558746 366.582855
15.703994 97.156090 366.582855
14.735516 102.374466 343.975403
14.735516 102.934975 343.975403
14.735516 103.495476 343.975403
14.731833 104.029976 343.889435
14.731833 104.590340 343.889435
14.731833 105.150696 343.889435
14.719343 105.621437 343.597870
14.719343 106.181320 343.597870
14.691194 106.537079 342.940765
14.673222 106.964882 342.521240
14.652665 107.372383 342.041382
14.652665 107.929733 342.041382
14.639980 108.393166 341.745270
14.634159 108.906708 341.609375
14.634159 109.463356 341.609375
14.596905 109.739937 340.739746
14.548700 109.930931 339.614502
14.548700 110.484337 339.614502
14.506447 110.715240 338.628174
14.475034 111.026085 337.894867
14.475034 111.576675 337.894867
14.474948 112.126617 337.892883
14.449134 112.476265 337.290314
14.449134 113.025879 337.290314
14.404751 113.226624 336.254272
13.794114 116.821907 322.000000
13.794114 117.346603 322.000000
13.794114 117.871300 322.000000
13.794114 118.395996 322.000000
12.466109 155.364075 291.000000
12.466109 155.838257 291.000000
12.466109 156.312439 291.000000
12.423271 156.247818 290.000000
12.423271 156.720383 290.000000
12.423271 157.192932 290.000000
12.436658 158.308441 290.312500
12.436658 158.781494 290.312500
12.437327 159.263123 290.328125
12.437327 159.736221 290.328125
12.437327 160.209305 290.328125
12.434984 160.652130 290.273438
12.424574 160.990204 290.030396
12.424574 161.462814 290.030396
18.533154 58.166142 416.778748
18.533154 58.845284 416.778748
18.533154 59.524414 416.778748
18.530621 60.195320 416.721771
18.502401 60.781662 416.087158
18.502401 61.459667 416.087158
18.441652 61.933662 414.721039
18.380415 62.401550 413.343933
18.380415 63.075089 413.343933
18.380415 63.748627 413.343933
17.864531 68.505730 401.742554
17.864531 69.160362 401.742554
17.864531 69.814995 401.742554
17.933914 70.743324 403.302887
17.941860 71.432152 403.481598
17.941860 72.089615 403.481598
17.941860 72.747086 403.481598
17.935898 73.380150 403.347473
17.935898 74.037399 403.347473
17.935898 74.694649 403.347473
17.935898 75.351898 403.347473
17.935898 76.009148 403.347473
17.935898 76.666397 403.347473
17.935898 77.323647 403.347473
17.935898 77.980896 403.347473
17.935898 78.638153 403.347473
17.935898 79.295395 403.347473
17.935898 79.952644 403.347473
17.910116 80.494026 402.767700
17.910116 81.150330 402.767700
17.907736 81.795769 402.714172
17.907736 82.451981 402.714172
17.904324 83.092369 402.637451
17.621469 82.425400 396.276550
17.621469 83.071121 396.276550
17.734051 84.251701 398.808289
17.776649 85.105499 399.766296
17.776649 85.756912 399.766296
17.776649 86.408325 399.766296
17.760727 86.981758 399.408203
17.760727 87.632591 399.408203
17.743208 88.196350 399.014252
17.728525 88.773010 398.684052
17.728525 89.422661 398.684052
17.728525 90.072304 398.684052
17.273603 88.393990 388.453613
17.273603 89.026970 388.453613
17.128407 88.906296 385.188385
17.035666 89.049179 383.102814
17.035666 89.673439 383.102814
17.437435 92.427277 392.137909
17.443647 93.099426 392.277618
17.443647 93.738632 392.277618
17.443647 94.377846 392.277618
17.410347 94.835670 391.528748
17.410347 95.473656 391.528748
17.333796 95.689064 389.807251
16.775665 93.222702 377.255859
16.775665 93.837433 377.255859
16.706930 94.065170 375.710114
16.660387 94.413628 374.663452
16.660387 95.024139 374.663452
15.407302 98.039688 346.483734
15.407302 98.604279 346.483734
15.407302 99.168861 346.483734
15.368259 99.480728 345.605743
15.368259 100.043892 345.605743
15.350410 100.490204 345.204346
15.345386 101.019630 345.091339
15.345386 101.581947 345.091339
15.353154 102.195976 345.266022
15.353154 102.758583 345.266022
15.353154 103.321190 345.266022
15.329919 103.726593 344.743530
15.292357 104.032822 343.898834
15.292357 104.593201 343.898834
15.291940 105.150696 343.889435
15.278975 105.621437 343.597870
15.278975 106.181320 343.597870
15.100009 109.364243 339.573242
15.100009 109.917580 339.573242
15.100009 110.470901 339.573242
15.023414 110.461067 337.850739
12.895606 156.247818 290.000000
12.895606 156.720383 290.000000
12.895606 157.192932 290.000000
12.899659 159.605835 290.091156
12.899659 160.078537 290.091156
12.899659 160.551239 290.091156
12.896957 160.990204 290.030396
12.896957 161.462814 290.030396
12.896113 161.924820 290.011414
12.896113 162.397385 290.011414
12.896113 162.869965 290.011414
12.896113 163.342529 290.011414
19.199621 54.735237 416.510681
19.199621 55.413937 416.510681
19.199621 56.092640 416.510681
19.199621 56.771332 416.510681
19.199621 57.450035 416.510681
19.211979 58.166142 416.778748
19.211979 58.845284 416.778748
19.211979 59.524414 416.778748
19.209352 60.195320 416.721771
18.518866 68.505730 401.742554
18.518866 69.160362 401.742554
18.518866 69.814995 401.742554
18.590790 70.743324 403.302887
18.599028 71.432152 403.481598
18.599028 72.089615 403.481598
18.599028 72.747086 403.481598
18.592846 73.380150 403.347473
18.592846 74.037399 403.347473
18.592846 74.694649 403.347473
18.592846 75.351898 403.347473
18.592846 76.009148 403.347473
18.592846 76.666397 403.347473
18.592846 77.323647 403.347473
18.592846 77.980896 403.347473
18.592846 78.638153 403.347473
18.592846 79.295395 403.347473
18.592846 79.952644 403.347473
18.566120 80.494026 402.767700
18.566120 81.150330 402.767700
18.563654 81.795769 402.714172
18.563654 82.451981 402.714172
18.560116 83.092369 402.637451
18.266901 82.425400 396.276550
18.266901 83.071121 396.276550
18.383606 84.251701 398.808289
18.427767 85.105499 399.766296
18.427767 85.756912 399.766296
18.427767 86.408325 399.766296
18.411259 86.981758 399.408203
18.411259 87.632591 399.408203
18.393101 88.196350 399.014252
18.377878 88.773010 398.684052
18.377878 89.422661 398.684052
18.377878 90.072304 398.684052
17.938505 88.553001 389.152405
17.938505 89.187119 389.152405
17.789074 89.073013 385.910706
17.685844 89.181305 383.671265
17.685844 89.806496 383.671265
18.068752 92.389587 391.977966
18.068752 93.028305 391.977966
18.068752 93.667030 391.977966
18.037268 94.141426 391.294952
18.003933 94.603874 390.571777
18.003933 95.240303 390.571777
17.968691 95.689064 389.807251
17.390118 93.222702 377.255859
17.390118 93.837433 377.255859
17.318865 94.065170 375.710114
17.270617 94.413628 374.663452
17.270617 95.024139 374.663452
15.971636 98.039688 346.483734
15.971636 98.604279 346.483734
15.971636 99.168861 346.483734
15.931164 99.480728 345.605743
15.931164 100.043892 345.605743
15.912661 100.490204 345.204346
15.907452 101.019630 345.091339
15.907452 101.581947 345.091339
15.915503 102.195976 345.266022
15.915503 102.758583 345.266022
15.915503 103.321190 345.266022
15.891418 103.726593 344.743530
15.852481 104.032822 343.898834
15.852481 104.593201 343.898834
15.852047 105.150696 343.889435
15.838607 105.621437 343.597870
15.838607 106.181320 343.597870
13.367941 156.247818 290.000000
13.367941 156.720383 290.000000
13.367941 157.192932 290.000000
13.372143 159.605835 290.091156
13.372143 160.078537 290.091156
13.372143 160.551239 290.091156
13.369342 160.990204 290.030396
13.369342 161.462814 290.030396
13.368467 161.924820 290.011414
13.368467 162.397385 290.011414
13.368467 162.869965 290.011414
13.368467 163.342529 290.011414
19.889057 50.691196 416.742126
19.889057 51.370274 416.742126
19.891916 52.056835 416.802063
19.891916 52.736008 416.802063
19.891916 53.415180 416.802063
19.888664 54.085518 416.733948
19.887266 54.760723 416.704620
19.887266 55.439743 416.704620
19.878010 56.092640 416.510681
19.878010 56.771332 416.510681
19.878010 57.450035 416.510681
19.890802 58.166142 416.778748
19.890802 58.845284 416.778748
19.890802 59.524414 416.778748
19.888084 60.195320 416.721771
19.386032 67.280472 406.202087
19.386032 67.942375 406.202087
19.386032 68.604279 406.202087
19.283733 68.900673 404.058624
19.298952 69.613976 404.377502
19.298952 70.272903 404.377502
19.298952 70.931824 404.377502
19.298952 71.590759 404.377502
19.298952 72.249687 404.377502
19.298952 72.908607 404.377502
19.298952 73.567543 404.377502
19.298952 74.226471 404.377502
19.298952 74.885399 404.377502
19.298952 75.544327 404.377502
19.298952 76.203247 404.377502
19.298952 76.862183 404.377502
19.298952 77.521111 404.377502
19.298952 78.180031 404.377502
19.290895 78.806053 404.208679
19.290895 79.464699 404.208679
19.290895 80.123360 404.208679
19.045803 79.755669 399.073181
19.125164 80.740990 400.736053
19.125164 81.393990 400.736053
19.125164 82.046982 400.736053
19.002607 82.170029 398.168091
18.961710 82.640587 397.311127
18.961710 83.288002 397.311127
19.033163 84.251701 398.808289
19.062199 85.031090 399.416748
19.062199 85.681931 399.416748
19.062199 86.332771 399.416748
19.004948 86.722366 398.217102
19.004948 87.371254 398.217102
18.988691 87.944855 397.876495
18.970808 88.509766 397.501801
18.970808 89.157494 397.501801
18.660257 88.335106 390.994720
18.572332 88.553001 389.152405
18.572332 89.187119 389.152405
18.417624 89.073013 385.910706
18.415281 89.690453 385.861664
18.415281 90.319206 385.861664
18.707184 92.389587 391.977966
18.707184 93.028305 391.977966
18.707184 93.667030 391.977966
18.674587 94.141426 391.294952
18.640074 94.603874 390.571777
18.640074 95.240303 390.571777
18.603586 95.689064 389.807251
17.995655 93.176544 377.069061
17.995655 93.790977 377.069061
17.930109 94.061554 375.695679
16.585155 94.367416 347.514374
16.585423 94.935219 347.519989
16.585423 95.501503 347.519989
16.585423 96.067780 347.519989
16.570553 96.547417 347.208405
16.570553 97.113190 347.208405
16.563747 97.638847 347.065826
16.563747 98.204391 347.065826
16.563747 98.769928 347.065826
16.535967 99.168861 346.483734
16.494066 99.480728 345.605743
16.494066 100.043892 345.605743
16.474909 100.490204 345.204346
16.469515 101.019630 345.091339
16.469515 101.581947 345.091339
16.477852 102.195976 345.266022
16.477852 102.758583 345.266022
16.477852 103.321190 345.266022
16.452915 103.726593 344.743530
16.412603 104.032822 343.898834
16.412603 104.593201 343.898834
13.840276 159.555679 290.000000
13.840276 160.028229 290.000000
13.841002 160.509201 290.015198
13.841002 160.981781 290.015198
13.841002 161.454361 290.015198
13.840821 161.924820 290.011414
13.840821 162.397385 290.011414
13.840821 162.869965 290.011414
13.840821 163.342529 290.011414
13.840311 163.809067 290.000732
13.840311 164.281616 290.000732
13.840311 164.754166 290.000732
20.578371 50.037773 416.955872
20.578371 50.717197 416.955872
20.578371 51.396622 416.955872
20.570778 52.056835 416.802063
20.570778 52.736008 416.802063
20.570778 53.415180 416.802063
20.567417 54.085518 416.733948
20.565969 54.760723 416.704620
20.565969 55.439743 416.704620
20.556398 56.092640 416.510681
20.556398 56.771332 416.510681
20.556398 57.450035 416.510681
20.059517 67.320366 406.442963
20.077349 68.043098 406.804260
20.077349 68.705978 406.804260
20.077349 69.368858 406.804260
20.077349 70.031738 406.804260
20.077349 70.694618 406.804260
20.077349 71.357506 406.804260
20.077349 72.020386 406.804260
20.077349 72.683273 406.804260
20.077349 73.346153 406.804260
20.077349 74.009033 406.804260
20.077349 74.671921 406.804260
20.077349 75.334801 406.804260
19.957579 75.544327 404.377502
19.957579 76.203247 404.377502
20.075567 77.316582 406.768127
20.077171 77.985641 406.800659
20.077171 78.648521 406.800659
20.077171 79.311394 406.800659
19.949247 79.464699 404.208679
19.949247 80.123360 404.208679
19.776518 80.082565 400.708862
19.772461 80.718956 400.626678
19.772461 81.371773 400.626678
19.766481 81.999779 400.505493
19.740442 82.543518 399.977936
19.696299 83.009232 399.083466
19.696299 83.659531 399.083466
19.635199 84.048294 397.845459
19.712746 85.031090 399.416748
19.712746 85.681931 399.416748
19.712746 86.332771 399.416748
19.520481 86.135231 395.521057
19.520481 86.779732 395.521057
19.483225 87.257378 394.766205
19.483225 87.900642 394.766205
19.483225 88.543907 394.766205
19.416433 88.881424 393.412872
19.325142 89.101578 391.563171
19.325142 89.739624 391.563171
19.158646 89.599014 388.189606
19.043753 89.690453 385.861664
19.043753 90.319206 385.861664
18.981245 90.649445 384.595154
19.207993 92.366516 389.189484
19.207993 93.000694 389.189484
19.207993 93.634872 389.189484
19.157516 94.021324 388.166748
19.157516 94.653839 388.166748
18.698374 93.002655 378.863678
18.609802 93.176544 377.069061
18.609802 93.790977 377.069061
17.337656 94.248657 351.293030
17.337656 94.821083 351.293030
17.337656 95.393509 351.293030
17.151442 94.935219 347.519989
17.151442 95.501503 347.519989
17.151442 96.067780 347.519989
17.136065 96.547417 347.208405
17.136065 97.113190 347.208405
17.129028 97.638847 347.065826
17.129028 98.204391 347.065826
17.129028 98.769928 347.065826
14.312611 159.555679 290.000000
14.312611 160.028229 290.000000
14.312611 160.500793 290.000000
14.312611 160.973343 290.000000
14.312611 161.445892 290.000000
14.312611 161.918442 290.000000
14.312753 162.392593 290.002869
14.312753 162.865158 290.002869
14.312753 163.337708 290.002869
14.312648 163.809067 290.000732
14.312648 164.281616 290.000732
14.312648 164.754166 290.000732
14.312648 165.226715 290.000732
14.312648 165.699265 290.000732
21.239687 47.959316 416.606812
21.244379 48.648918 416.698853
21.244379 49.327923 416.698853
21.257484 50.037773 416.955872
21.257484 50.717197 416.955872
21.257484 51.396622 416.955872
21.249643 52.056835 416.802063
21.249643 52.736008 416.802063
21.249643 53.415180 416.802063
21.246168 54.085518 416.733948
21.244673 54.760723 416.704620
21.244673 55.439743 416.704620
20.758347 66.113106 407.165527
20.758347 66.776573 407.165527
20.758347 67.440048 407.165527
20.739927 68.043098 406.804260
20.739927 68.705978 406.804260
20.739927 69.368858 406.804260
20.739927 70.031738 406.804260
20.739927 70.694618 406.804260
20.739927 71.357506 406.804260
20.739927 72.020386 406.804260
20.739927 72.683273 406.804260
20.739927 73.346153 406.804260
20.739927 74.009033 406.804260
20.739927 74.671921 406.804260
20.739927 75.334801 406.804260
20.616205 75.544327 404.377502
20.616205 76.203247 404.377502
20.738085 77.316582 406.768127
20.739744 77.985641 406.800659
20.739744 78.648521 406.800659
20.739744 79.311394 406.800659
20.607599 79.464699 404.208679
20.607599 80.123360 404.208679
20.429169 80.082565 400.708862
20.424978 80.718956 400.626678
20.424978 81.371773 400.626678
20.418802 81.999779 400.505493
20.391905 82.543518 399.977936
20.346302 83.009232 399.083466
20.346302 83.659531 399.083466
20.283184 84.048294 397.845459
20.363295 85.031090 399.416748
20.363295 85.681931 399.416748
20.363295 86.332771 399.416748
20.164680 86.135231 395.521057
20.164680 86.779732 395.521057
20.126198 87.257378 394.766205
20.126198 87.900642 394.766205
20.126198 88.543907 394.766205
20.057199 88.881424 393.412872
19.962898 89.101578 391.563171
19.962898 89.739624 391.563171
19.790905 89.599014 388.189606
19.672220 89.690453 385.861664
19.672220 90.319206 385.861664
19.630100 90.753235 385.035492
19.630100 91.380646 385.035492
19.630100 92.008057 385.035492
19.605925 92.521378 384.561279
19.514780 92.714989 382.773529
19.514780 93.338707 382.773529
18.279888 94.443321 358.551697
18.279888 95.027580 358.551697
18.279888 95.611832 358.551697
18.037867 94.922470 353.804535
18.037867 95.498993 353.804535
17.909822 95.393509 351.293030
17.717463 94.935219 347.519989
17.717463 95.501503 347.519989
17.717463 96.067780 347.519989
17.701578 96.547417 347.208405
17.701578 97.113190 347.208405
17.694309 97.638847 347.065826
17.694309 98.204391 347.065826
17.694309 98.769928 347.065826
14.784946 159.555679 290.000000
14.784946 160.028229 290.000000
14.784946 160.500793 290.000000
14.784946 160.973343 290.000000
14.784946 161.445892 290.000000
14.784946 161.918442 290.000000
14.785092 162.392593 290.002869
14.785092 162.865158 290.002869
14.785092 163.337708 290.002869
14.784985 163.809067 290.000732
14.784985 164.281616 290.000732
14.784985 164.754166 290.000732
14.784985 165.226715 290.000732
14.784985 165.699265 290.000732
21.918232 47.959316 416.606812
21.923075 48.648918 416.698853
21.923075 49.327923 416.698853
21.936596 50.037773 416.955872
21.936596 50.717197 416.955872
21.936596 51.396622 416.955872
21.551409 64.511513 409.634460
21.551409 65.179008 409.634460
21.551409 65.846504 409.634460
21.495979 66.342926 408.580902
21.495979 67.008705 408.580902
21.421515 67.440048 407.165527
21.402508 68.043098 406.804260
21.402508 68.705978 406.804260
21.402508 69.368858 406.804260
21.402508 70.031738 406.804260
21.402508 70.694618 406.804260
21.402508 71.357506 406.804260
21.402508 72.020386 406.804260
21.402508 72.683273 406.804260
21.402508 73.346153 406.804260
21.402508 74.009033 406.804260
21.402508 74.671921 406.804260
21.402508 75.334801 406.804260
19.308353 68.561600 367.000000
19.308353 69.159622 367.000000
21.400606 77.316582 406.768127
21.402317 77.985641 406.800659
21.402317 78.648521 406.800659
21.402317 79.311394 406.800659
21.152792 79.041870 402.057861
21.152792 79.697014 402.057861
21.081820 80.082565 400.708862
21.077497 80.718956 400.626678
21.077497 81.371773 400.626678
21.071119 81.999779 400.505493
21.043365 82.543518 399.977936
20.996305 83.009232 399.083466
20.996305 83.659531 399.083466
20.931173 84.048294 397.845459
20.863127 84.421242 396.552094
20.863127 85.067413 396.552094
20.863127 85.713585 396.552094
20.808884 86.135231 395.521057
20.808884 86.779732 395.521057
20.769169 87.257378 394.766205
20.769169 87.900642 394.766205
20.769169 88.543907 394.766205
20.697968 88.881424 393.412872
20.600653 89.101578 391.563171
20.600653 89.739624 391.563171
20.423166 89.599014 388.189606
20.234533 89.398163 384.604187
20.234533 90.024864 384.604187
20.257223 90.753235 385.035492
20.257223 91.380646 385.035492
20.257223 92.008057 385.035492
18.863876 94.443321 358.551697
18.863876 95.027580 358.551697
18.863876 95.611832 358.551697
18.614122 94.922470 353.804535
18.614122 95.498993 353.804535
18.481989 95.393509 351.293030
15.257319 163.809067 290.000732
15.257319 164.281616 290.000732
15.257319 164.754166 290.000732
15.257319 165.226715 290.000732
15.257319 165.699265 290.000732
15.257319 166.171829 290.000732
15.257319 166.644379 290.000732
15.257319 167.116928 290.000732
22.596777 47.959316 416.606812
22.601770 48.648918 416.698853
22.601770 49.327923 416.698853
22.601770 50.006927 416.698853
22.218596 64.511513 409.634460
22.218596 65.179008 409.634460
22.218596 65.846504 409.634460
22.161451 66.342926 408.580902
22.161451 67.008705 408.580902
22.084681 67.440048 407.165527
21.512714 66.339722 396.620422
21.512714 66.986008 396.620422
21.344799 67.104401 393.524658
21.344799 67.745644 393.524658
21.344799 68.386887 393.524658
21.344799 69.028130 393.524658
21.344799 69.669373 393.524658
21.344799 70.310616 393.524658
21.344799 70.951866 393.524658
21.344799 71.593109 393.524658
21.344799 72.234344 393.524658
21.243608 72.530106 391.659058
19.851860 68.374779 366.000000
19.851860 68.971169 366.000000
21.038626 73.726395 387.879883
21.038626 74.358437 387.879883
21.038626 74.990479 387.879883
21.008009 75.512474 387.315399
21.207689 76.867340 390.996826
21.207689 77.504463 390.996826
21.230728 78.226479 391.421570
21.243187 78.910576 391.651276
21.243187 79.548767 391.651276
21.243187 80.186958 391.651276
21.227423 80.765167 391.360626
21.196363 81.283775 390.787994
21.196363 81.920563 390.787994
21.149284 82.373978 389.920013
21.296518 83.587234 392.634521
21.296518 84.227020 392.634521
21.296518 84.866821 392.634521
21.282890 85.451897 392.383270
21.282890 86.091278 392.383270
21.327845 86.913857 393.212067
21.327845 87.554588 393.212067
21.327845 88.195320 393.212067
21.272894 88.607170 392.198944
21.192293 88.908112 390.712952
21.192293 89.544777 390.712952
21.022158 89.457443 387.576263
20.860952 89.398163 384.604187
20.860952 90.024864 384.604187
20.884346 90.753235 385.035492
20.884346 91.380646 385.035492
20.884346 92.008057 385.035492
19.635920 92.996941 362.018768
19.635920 93.586845 362.018768
19.635920 94.176743 362.018768
19.706390 95.106758 363.318024
19.706390 95.698784 363.318024
19.706390 96.290810 363.318024
19.447865 95.611832 358.551697
19.190378 94.922470 353.804535
19.190378 95.498993 353.804535
15.729656 164.754166 290.000732
15.729656 165.226715 290.000732
15.729656 165.699265 290.000732
15.729656 166.171829 290.000732
15.729656 166.644379 290.000732
15.729656 167.116928 290.000732
15.729656 167.589478 290.000732
22.923277 63.948612 410.305542
22.923277 64.617203 410.305542
22.923277 65.285789 410.305542
22.908413 65.911606 410.039459
22.908413 66.579758 410.039459
22.908413 67.247910 410.039459
22.410017 66.438492 401.118652
22.158707 66.339722 396.620422
22.158707 66.986008 396.620422
22.152790 67.614243 396.514526
22.152790 68.260353 396.514526
22.152790 68.906471 396.514526
22.152790 69.552589 396.514526
22.083021 69.977608 395.265717
22.083021 70.621689 395.265717
22.006605 71.019165 393.897949
21.985750 71.593109 393.524658
21.985750 72.234344 393.524658
20.447981 67.778389 366.000000
20.447981 68.374779 366.000000
20.447981 68.971169 366.000000
21.920393 74.576965 392.354828
21.920393 75.216301 392.354828
21.920393 75.855644 392.354828
21.638847 75.512474 387.315399
21.792824 76.685417 390.071442
21.792824 77.321037 390.071442
21.868252 78.226479 391.421570
21.881086 78.910576 391.651276
21.881086 79.548767 391.651276
21.881086 80.186958 391.651276
21.854361 80.726425 391.172913
21.815033 81.217415 390.468964
21.815033 81.853683 390.468964
21.763586 82.295418 389.548157
21.926373 83.550476 392.461853
21.926373 84.189987 392.461853
21.926373 84.829498 392.461853
21.910151 85.405777 392.171509
21.910151 86.044815 392.171509
21.952490 86.851364 392.929352
21.952490 87.491638 392.929352
21.952490 88.131912 392.929352
21.905993 88.584152 392.097076
21.817636 88.863205 390.515594
21.817636 89.499542 390.515594
20.617004 92.391541 369.025391
20.617004 92.992867 369.025391
20.617004 93.594185 369.025391
20.478996 93.564972 366.555176
20.458441 94.067749 366.187225
20.225554 93.586845 362.018768
20.225554 94.176743 362.018768
20.298141 95.106758 363.318024
20.298141 95.698784 363.318024
20.298141 96.290810 363.318024
16.201992 164.754166 290.000732
16.201992 165.226715 290.000732
16.201992 165.699265 290.000732
16.201992 166.171829 290.000732
16.201992 166.644379 290.000732
16.201992 167.116928 290.000732
16.201992 167.589478 290.000732
23.732063 61.639191 412.749176
23.749161 62.356655 413.046570
23.749161 63.029709 413.046570
23.749161 63.702766 413.046570
23.717640 64.290375 412.498322
23.717640 64.962532 412.498322
23.717640 65.634697 412.498322
23.717640 66.306854 412.498322
23.576260 66.579758 410.039459
23.576260 67.247910 410.039459
22.993555 66.237473 399.905029
22.798609 66.322006 396.514526
22.798609 66.968124 396.514526
22.798609 67.614243 396.514526
22.798609 68.260353 396.514526
22.798609 68.906471 396.514526
22.798609 69.552589 396.514526
22.726807 69.977608 395.265717
22.726807 70.621689 395.265717
22.648163 71.019165 393.897949
22.626699 71.593109 393.524658
22.626699 72.234344 393.524658
21.044100 67.778389 366.000000
21.044100 68.374779 366.000000
21.044100 68.971169 366.000000
22.559437 74.576965 392.354828
22.559437 75.216301 392.354828
22.559437 75.855644 392.354828
22.269684 75.512474 387.315399
22.428148 76.685417 390.071442
22.428148 77.321037 390.071442
22.505777 78.226479 391.421570
22.518984 78.910576 391.651276
22.518984 79.548767 391.651276
22.518984 80.186958 391.651276
22.491480 80.726425 391.172913
22.451004 81.217415 390.468964
22.451004 81.853683 390.468964
22.398062 82.295418 389.548157
22.565590 83.550476 392.461853
22.565590 84.189987 392.461853
22.565590 84.829498 392.461853
22.548897 85.405777 392.171509
22.548897 86.044815 392.171509
22.592472 86.851364 392.929352
22.592472 87.491638 392.929352
22.592472 88.131912 392.929352
22.544617 88.584152 392.097076
22.453686 88.863205 390.515594
22.453686 89.499542 390.515594
21.218052 92.391541 369.025391
21.218052 92.992867 369.025391
21.218052 93.594185 369.025391
21.076021 93.564972 366.555176
21.054865 94.067749 366.187225
20.815187 93.586845 362.018768
20.815187 94.176743 362.018768
20.889893 95.106758 363.318024
20.889893 95.698784 363.318024
20.889893 96.290810 363.318024
16.674330 166.171829 290.000732
16.674330 166.644379 290.000732
16.674330 167.116928 290.000732
16.674330 167.589478 290.000732
16.674330 168.062027 290.000732
16.674330 168.534592 290.000732
16.674330 169.007141 290.000732
24.404324 61.639191 412.749176
24.421907 62.356655 413.046570
24.421907 63.029709 413.046570
24.421907 63.702766 413.046570
24.389492 64.290375 412.498322
24.389492 64.962532 412.498322
24.389492 65.634697 412.498322
24.389492 66.306854 412.498322
24.244108 66.579758 410.039459
24.244108 67.247910 410.039459
24.046286 67.361900 406.693695
23.814241 67.368172 402.769135
23.814241 68.024475 402.769135
23.797745 68.633209 402.490143
23.734459 69.104805 401.419800
23.734459 69.758911 401.419800
23.647614 70.155373 399.950958
23.629417 70.752609 399.643250
23.629417 71.403816 399.643250
23.539518 71.780891 398.122742
23.539518 72.429626 398.122742
23.539518 73.078362 398.122742
21.640219 67.778389 366.000000
21.640219 68.374779 366.000000
21.640219 68.971169 366.000000
23.286879 74.861137 393.849884
