-50.351902 48.920933 292.480011
-50.342472 49.388275 292.425232
-50.342472 49.864780 292.425232
-50.342472 50.341282 292.425232
-50.342472 50.817783 292.425232
-50.342472 51.294289 292.425232
-50.342472 51.770794 292.425232
-50.342472 52.247295 292.425232
-50.342472 52.723797 292.425232
-50.342472 53.200302 292.425232
-50.342472 53.676804 292.425232
-50.329472 54.139328 292.349731
-50.329472 54.615707 292.349731
-50.303658 55.063828 292.199768
-50.284878 55.519230 292.090698
-50.270435 55.979111 292.006805
-50.270435 56.454926 292.006805
-50.985867 57.740967 296.162537
-50.985867 58.223557 296.162537
-50.985867 58.706154 296.162537
-50.955387 59.153358 295.985474
-50.266750 58.829720 291.985382
-50.266750 59.305504 291.985382
-50.263058 59.776897 291.963928
-50.259155 60.247971 291.941254
-50.259155 60.723686 291.941254
-50.097111 61.002087 291.000000
-50.097111 61.476269 291.000000
-50.097111 61.950447 291.000000
-50.097111 62.424629 291.000000
-50.097111 62.898811 291.000000
-50.097111 63.372990 291.000000
-50.065899 63.807388 290.818695
-50.065899 64.281281 290.818695
-50.065899 64.755165 290.818695
-50.095226 65.267258 290.989044
-50.095226 65.741417 290.989044
-50.095226 66.215584 290.989044
-50.078075 66.666916 290.889435
-50.059578 67.116112 290.781982
-50.059578 67.589935 290.781982
-50.021389 68.011841 290.560150
-50.009777 68.469414 290.492706
-50.009777 68.942764 290.492706
-50.006142 69.411072 290.471588
-50.000618 69.876671 290.439484
-50.012695 70.366928 290.509644
-50.012695 70.840309 290.509644
-50.012981 71.314110 290.511322
-50.025650 71.805672 290.584900
-50.025650 72.279175 290.584900
-50.025650 72.752678 290.584900
-50.019028 73.216492 290.546448
-50.019028 73.689934 290.546448
-50.013126 74.154625 290.512146
-50.009453 74.622528 290.490814
-50.009453 75.095879 290.490814
-50.021149 75.586906 290.558746
-50.026730 76.068855 290.591187
-50.026730 76.542366 290.591187
-50.026730 77.015884 290.591187
-50.010231 77.463837 290.495331
-50.010231 77.937195 290.495331
-50.016457 78.420319 290.531494
-50.036846 78.925896 290.649933
-50.036846 79.399506 290.649933
-50.036846 79.873116 290.649933
-50.041790 80.354668 290.678650
-50.041790 80.828323 290.678650
-50.041790 81.301979 290.678650
-50.013775 81.729858 290.515930
-50.013775 82.203255 290.515930
-50.014359 82.677612 290.519318
-50.015022 83.152107 290.523163
-50.015022 83.625511 290.523163
-50.015732 84.100105 290.527283
-50.016438 84.574715 290.531403
-50.017059 85.049187 290.535004
-50.017059 85.522614 290.535004
-50.017117 85.996132 290.535339
-50.017578 86.470360 290.538025
-50.017578 86.943787 290.538025
-50.018215 87.418327 290.541718
-50.018215 87.891762 290.541718
-50.018215 88.365189 290.541718
-50.016113 88.834892 290.529510
-50.354607 89.912720 292.495728
-50.354607 90.389336 292.495728
-50.459072 91.054466 293.102539
-50.514404 91.632446 293.423950
-50.514404 92.110580 293.423950
-50.514404 92.588707 293.423950
-51.938198 103.555725 301.694366
-51.938198 104.047333 301.694366
-51.944637 104.551895 301.731750
-51.944637 105.043556 301.731750
-51.944637 105.535225 301.731750
-51.946674 106.031052 301.743591
-51.984818 106.600960 301.965149
-51.984818 107.093002 301.965149
-52.021164 107.660278 302.176300
-52.050232 108.213097 302.345123
-52.050232 108.705772 302.345123
-52.051659 109.201431 302.353424
-52.051659 109.694122 302.353424
-52.051659 110.186798 302.353424
-52.102726 110.788071 302.650055
-52.102726 111.281227 302.650055
-52.102726 111.774391 302.650055
-52.112293 112.288177 302.705627
-52.169460 112.905144 303.037689
-52.169460 113.398941 303.037689
-53.195904 116.133591 309.000000
-53.195904 116.637100 309.000000
-53.195904 117.140610 309.000000
-53.195904 117.644127 309.000000
-53.540211 118.912346 311.000000
-53.540211 119.419121 311.000000
-53.540211 119.925888 311.000000
-53.540211 120.432663 311.000000
-53.540211 120.939430 311.000000
-53.540211 121.446205 311.000000
-52.182011 118.859291 303.110596
-52.250263 119.509315 303.507050
-52.250263 120.003876 303.507050
-52.279015 120.564735 303.674072
-52.279015 121.059578 303.674072
-52.279015 121.554413 303.674072
-52.247227 121.975021 303.489410
-52.253456 122.484161 303.525604
-52.253456 122.978760 303.525604
-52.291462 123.563148 303.746368
-52.291462 124.058105 303.746368
-52.291462 124.553047 303.746368
-52.263847 124.981972 303.585968
-52.313713 127.081863 303.875610
-52.313713 127.577019 303.875610
-52.319679 128.086792 303.910278
-52.339745 128.631317 304.026825
-52.339745 129.126724 304.026825
-52.339745 129.622131 304.026825
-49.861290 48.430511 292.396515
-49.861290 48.906967 292.396515
-49.861290 49.383427 292.396515
-49.853310 49.851906 292.349731
-49.853310 50.328285 292.349731
-49.853310 50.804665 292.349731
-49.853310 51.281048 292.349731
-49.853310 51.757427 292.349731
-49.853310 52.233807 292.349731
-49.853310 52.710186 292.349731
-49.853310 53.186565 292.349731
-49.853310 53.662945 292.349731
-49.853310 54.139328 292.349731
-49.853310 54.615707 292.349731
-49.827740 55.063828 292.199768
-49.809139 55.519230 292.090698
-49.794834 55.979111 292.006805
-49.794834 56.454926 292.006805
-50.503498 57.740967 296.162537
-50.503498 58.223557 296.162537
-50.503498 58.706154 296.162537
-50.473301 59.153358 295.985474
-49.791180 58.829720 291.985382
-49.791180 59.305504 291.985382
-51.339729 61.640541 301.066376
-51.339729 62.131123 301.066376
-51.339729 62.621708 301.066376
-51.128277 62.852356 299.826385
-49.623146 61.476269 291.000000
-49.623146 61.950447 291.000000
-49.623146 62.424629 291.000000
-49.623146 62.898811 291.000000
-49.623146 63.372990 291.000000
-49.623146 63.847172 291.000000
-49.452621 64.100319 290.000000
-49.452621 64.572868 290.000000
-49.621277 65.267258 290.989044
-49.621277 65.741417 290.989044
-49.621277 66.215584 290.989044
-49.604294 66.666916 290.889435
-49.592495 67.124947 290.820251
-49.592495 67.598839 290.820251
-49.592495 68.072723 290.820251
-49.536640 68.469414 290.492706
-49.536640 68.942764 290.492706
-49.533039 69.411072 290.471588
-49.527565 69.876671 290.439484
-49.527565 70.349937 290.439484
-49.523521 70.817421 290.415771
-49.534122 71.305908 290.477936
-49.552364 71.805672 290.584900
-49.552364 72.279175 290.584900
-49.552364 72.752678 290.584900
-49.545807 73.216492 290.546448
-49.545807 73.689934 290.546448
-49.539955 74.154625 290.512146
-49.535355 74.621078 290.485168
-49.535355 75.094421 290.485168
-49.534809 75.566925 290.481964
-49.534786 76.040230 290.481842
-49.534786 76.513573 290.481842
-49.535530 76.988068 290.486206
-49.537086 77.463837 290.495331
-49.537086 77.937195 290.495331
-49.543255 78.420319 290.531494
-49.543255 78.893738 290.531494
-49.543255 79.367157 290.531494
-49.539356 79.834290 290.508636
-49.568348 80.354668 290.678650
-49.568348 80.828323 290.678650
-49.568348 81.301979 290.678650
-49.540604 81.729858 290.515930
-49.540604 82.203255 290.515930
-49.541176 82.677612 290.519318
-49.541832 83.152107 290.523163
-49.541832 83.625511 290.523163
-49.542538 84.100105 290.527283
-49.543240 84.574715 290.531403
-49.543854 85.049187 290.535004
-49.543854 85.522614 290.535004
-49.543911 85.996132 290.535339
-49.544369 86.470360 290.538025
-49.544369 86.943787 290.538025
-49.544998 87.418327 290.541718
-49.679733 88.130775 291.331848
-49.679733 88.605499 291.331848
-49.705833 89.127022 291.484894
-49.878208 89.912720 292.495728
-49.878208 90.389336 292.495728
-49.942005 90.982178 292.869843
-50.036491 91.632446 293.423950
-50.036491 92.110580 293.423950
-50.036491 92.588707 293.423950
-49.936535 92.880913 292.837769
-49.936535 93.358093 292.837769
-50.438007 96.705444 295.778503
-50.438007 97.187416 295.778503
-50.438007 97.669388 295.778503
-51.441605 103.545227 301.663788
-51.441605 104.036781 301.663788
-51.441605 104.528343 301.663788
-51.492992 106.600960 301.965149
-51.492992 107.093002 301.965149
-51.492992 107.585060 301.965149
-51.555676 108.208664 302.332733
-51.555676 108.701317 302.332733
-51.559204 109.201431 302.353424
-51.559204 109.694122 302.353424
-51.559204 110.186798 302.353424
-51.637554 110.847672 302.812897
-51.637726 111.341461 302.813873
-51.637726 111.834900 302.813873
-51.649078 112.353027 302.880463
-51.675888 112.905144 303.037689
-51.675888 113.398941 303.037689
-51.753895 114.064651 303.495117
-51.753895 114.559196 303.495117
-51.753895 115.053734 303.495117
-51.696484 115.420105 303.158447
-51.710011 115.944427 303.237793
-51.710011 116.438560 303.237793
-51.710011 116.932678 303.237793
-51.739143 117.492950 303.408630
-51.739143 117.987358 303.408630
-51.739143 118.481758 303.408630
-51.688324 118.859291 303.110596
-51.755928 119.509315 303.507050
-51.755928 120.003876 303.507050
-51.784409 120.564735 303.674072
-51.784409 121.059578 303.674072
-51.784409 121.554413 303.674072
-51.752918 121.975021 303.489410
-51.759090 122.484161 303.525604
-51.759090 122.978760 303.525604
-51.796738 123.563148 303.746368
-51.796738 124.058105 303.746368
-51.796738 124.553047 303.746368
-51.769386 124.981972 303.585968
-51.818779 127.081863 303.875610
-51.818779 127.577019 303.875610
-51.824688 128.086792 303.910278
-51.844563 128.631317 304.026825
-51.844563 129.126724 304.026825
-51.844563 129.622131 304.026825
-49.372784 49.371159 292.323883
-49.372784 49.847500 292.323883
-49.372784 50.323833 292.323883
-52.959454 55.001480 313.559662
-52.959454 55.512421 313.559662
-52.959454 56.023361 313.559662
-52.959454 56.534302 313.559662
-52.959454 57.045246 313.559662
-52.959454 57.556187 313.559662
-52.959454 58.067127 313.559662
-52.959454 58.578064 313.559662
-52.959454 59.089012 313.559662
-52.536095 59.123505 311.053040
-52.316017 59.380569 309.750031
-52.316017 59.885303 309.750031
-52.323158 60.398277 309.792297
-52.323158 60.903076 309.792297
-52.323158 61.407879 309.792297
-52.114021 61.665226 308.554077
-51.304504 61.202309 303.761108
-51.304504 61.697285 303.761108
-51.070435 61.908520 302.375244
-50.849369 62.131123 301.066376
-50.849369 62.621708 301.066376
-50.639938 62.852356 299.826385
-49.149181 61.476269 291.000000
-49.149181 61.950447 291.000000
-49.149181 62.424629 291.000000
-49.149181 62.898811 291.000000
-49.149181 63.372990 291.000000
-49.149181 63.847172 291.000000
-48.980286 64.100319 290.000000
-48.980286 64.572868 290.000000
-48.980286 65.045418 290.000000
-48.980286 65.517967 290.000000
-48.980286 65.990524 290.000000
-48.980286 66.463074 290.000000
-49.118824 67.124947 290.820251
-49.118824 67.598839 290.820251
-49.118824 68.072723 290.820251
-49.053772 68.455826 290.435089
-49.053772 68.929092 290.435089
-49.054516 69.403397 290.439484
-49.054516 69.876671 290.439484
-49.054516 70.349937 290.439484
-49.047417 70.812958 290.397461
-49.048885 71.288292 290.406158
-49.057293 71.773804 290.455933
-49.057293 72.247093 290.455933
-49.102936 72.788048 290.726166
-49.110840 73.273575 290.772980
-49.110840 73.747391 290.772980
-49.117653 74.231499 290.813324
-49.186367 74.809883 291.220154
-49.186367 75.284424 291.220154
-49.186367 75.758965 291.220154
-49.084732 76.075981 290.618408
-49.084732 76.549538 290.618408
-49.087845 77.027985 290.636841
-49.092140 77.508354 290.662262
-49.092140 77.981979 290.662262
-49.096790 78.463043 290.689789
-49.101780 78.944740 290.719330
-49.101780 79.418465 290.719330
-49.106228 79.899422 290.745667
-49.106228 80.373192 290.745667
-49.106228 80.846954 290.745667
-49.104748 81.318275 290.736908
-49.104050 81.790855 290.732758
-49.104050 82.264603 290.732758
-49.104050 82.738350 290.732758
-49.097279 83.200623 290.692688
-49.097279 83.674309 290.692688
-49.098534 84.150131 290.700104
-49.099598 84.625664 290.706421
-49.100346 85.100662 290.710846
-49.100346 85.574371 290.710846
-49.100700 86.048706 290.712952
-49.100700 86.522415 290.712952
-49.100700 86.996132 290.712952
-49.100594 87.469650 290.712311
-49.205231 88.130775 291.331848
-49.205231 88.605499 291.331848
-49.231079 89.127022 291.484894
-49.369202 89.853378 292.302673
-49.369202 90.329674 292.302673
-49.422920 90.904793 292.620728
-49.498638 91.521606 293.069031
-49.498638 91.999161 293.069031
-49.498638 92.476707 293.069031
-49.459579 92.880913 292.837769
-49.459579 93.358093 292.837769
-49.732594 95.792664 294.454224
-49.956261 96.705444 295.778503
-49.956261 97.187416 295.778503
-49.956261 97.669388 295.778503
-49.794827 97.834175 294.822693
-49.794827 98.314583 294.822693
-50.950272 103.545227 301.663788
-50.950272 104.036781 301.663788
-50.950272 104.528343 301.663788
-51.001171 106.600960 301.965149
-51.001171 107.093002 301.965149
-51.001171 107.585060 301.965149
-51.063255 108.208664 302.332733
-51.063255 108.701317 302.332733
-51.066750 109.201431 302.353424
-51.066750 109.694122 302.353424
-51.066750 110.186798 302.353424
-51.144352 110.847672 302.812897
-51.144516 111.341461 302.813873
-51.144516 111.834900 302.813873
-51.155762 112.353027 302.880463
-51.218273 112.984451 303.250549
-51.218273 113.478592 303.250549
-51.321178 114.201729 303.859833
-51.321178 114.696869 303.859833
-51.321178 115.192001 303.859833
-51.231533 115.485069 303.329071
-51.202717 115.914093 303.158447
-51.202717 116.408081 303.158447
-51.266640 120.510292 303.536926
-51.266640 121.004906 303.536926
-51.266640 121.499519 303.536926
-51.258617 121.975021 303.489410
-51.274185 122.506760 303.581604
-51.274185 123.001442 303.581604
-51.314621 123.593521 303.821014
-51.314621 124.088593 303.821014
-51.314621 124.583664 303.821014
-51.308662 125.064209 303.785736
-51.323841 127.081863 303.875610
-51.323841 127.577019 303.875610
-51.329697 128.086792 303.910278
-51.372849 128.690094 304.165771
-51.372849 129.185745 304.165771
-51.372849 129.681381 304.165771
-51.317581 130.036957 303.838531
-51.317581 130.532059 303.838531
-51.317581 131.027161 303.838531
-48.896664 49.371159 292.323883
-53.676456 54.720242 320.899414
-53.676456 55.243141 320.899414
-53.676456 55.766041 320.899414
-52.448750 55.001480 313.559662
-52.448750 55.512421 313.559662
-52.448750 56.023361 313.559662
-52.448750 56.534302 313.559662
-52.448750 57.045246 313.559662
-52.448750 57.556187 313.559662
-52.448750 58.067127 313.559662
-52.448750 58.578064 313.559662
-52.448750 59.089012 313.559662
-52.029469 59.123505 311.053040
-51.811516 59.380569 309.750031
-51.811516 59.885303 309.750031
-51.818584 60.398277 309.792297
-51.818584 60.903076 309.792297
-51.818584 61.407879 309.792297
-51.611469 61.665226 308.554077
-50.809753 61.202309 303.761108
-50.809753 61.697285 303.761108
-50.577942 61.908520 302.375244
-50.359009 62.131123 301.066376
-50.359009 62.621708 301.066376
-50.151600 62.852356 299.826385
-48.675217 61.476269 291.000000
-48.675217 61.950447 291.000000
-48.675217 62.424629 291.000000
-48.675217 62.898811 291.000000
-48.675217 63.372990 291.000000
-48.675217 63.847172 291.000000
-48.507950 65.045418 290.000000
-48.675217 65.743896 291.000000
-48.675217 66.218079 291.000000
-48.675217 66.692253 291.000000
-48.645153 67.124947 290.820251
-48.645153 67.598839 290.820251
-49.753601 69.623856 297.446991
-49.753601 70.108543 297.446991
-49.753601 70.593231 297.446991
-48.580574 69.402130 290.434174
-48.580574 69.875389 290.434174
-48.580574 70.348648 290.434174
-48.572697 70.810425 290.387085
-48.573902 71.285378 290.394287
-48.584217 71.773804 290.455933
-48.584217 72.247093 290.455933
-48.629417 72.788048 290.726166
-48.637245 73.273575 290.772980
-48.637245 73.747391 290.772980
-48.675270 74.279228 291.000305
-48.712044 74.809883 291.220154
-48.712044 75.284424 291.220154
-48.712044 75.758965 291.220154
-48.611393 76.075981 290.618408
-48.611393 76.549538 290.618408
-48.614475 77.027985 290.636841
-48.618729 77.508354 290.662262
-48.618729 77.981979 290.662262
-48.623329 78.463043 290.689789
-48.628273 78.944740 290.719330
-48.628273 79.418465 290.719330
-48.632675 79.899422 290.745667
-48.632675 80.373192 290.745667
-48.632675 80.846954 290.745667
-48.631214 81.318275 290.736908
-48.630516 81.790855 290.732758
-48.630516 82.264603 290.732758
-48.630516 82.738350 290.732758
-48.623814 83.200623 290.692688
-48.623814 83.674309 290.692688
-48.625053 84.150131 290.700104
-48.626114 84.625664 290.706421
-48.626854 85.100662 290.710846
-48.626854 85.574371 290.710846
-48.627205 86.048706 290.712952
-48.627205 86.522415 290.712952
-48.627205 86.996132 290.712952
-48.627098 87.469650 290.712311
-48.730724 88.130775 291.331848
-48.730724 88.605499 291.331848
-48.756329 89.127022 291.484894
-48.893116 89.853378 292.302673
-48.893116 90.329674 292.302673
-48.946320 90.904793 292.620728
-49.021305 91.521606 293.069031
-49.021305 91.999161 293.069031
-49.021305 92.476707 293.069031
-48.982620 92.880913 292.837769
-48.982620 93.358093 292.837769
-49.253006 95.792664 294.454224
-49.474514 96.705444 295.778503
-49.474514 97.187416 295.778503
-49.474514 97.669388 295.778503
-49.314636 97.834175 294.822693
-49.314636 98.314583 294.822693
-50.651150 110.847672 302.812897
-50.655987 111.351746 302.841827
-50.655987 111.845215 302.841827
-50.667889 112.365082 302.912964
-50.737961 113.014763 303.331909
-50.737961 113.509048 303.331909
-50.826267 114.201729 303.859833
-50.826267 114.696869 303.859833
-50.826267 115.192001 303.859833
-50.740471 115.491852 303.346893
-50.740471 115.986145 303.346893
-50.740471 116.480438 303.346893
-50.779732 122.506760 303.581604
-50.779732 123.001442 303.581604
-50.819775 123.593521 303.821014
-50.819775 124.088593 303.821014
-50.819775 124.583664 303.821014
-50.813873 125.064209 303.785736
-50.877441 128.690094 304.165771
-50.877441 129.185745 304.165771
-50.877441 129.681381 304.165771
-50.822704 130.036957 303.838531
-50.822704 130.532059 303.838531
-50.822704 131.027161 303.838531
-50.822704 131.522263 303.838531
-50.822704 132.017365 303.838531
-50.822704 132.512451 303.838531
-50.822704 133.997757 303.838531
-50.822704 134.492874 303.838531
-50.822704 134.987961 303.838531
-53.153797 54.720242 320.899414
-54.239780 56.371811 327.455688
-54.239780 56.905396 327.455688
-54.239780 57.438976 327.455688
-51.938038 55.512421 313.559662
-51.938038 56.023361 313.559662
-51.938038 56.534302 313.559662
-51.938038 57.045246 313.559662
-51.938038 57.556187 313.559662
-51.938038 58.067127 313.559662
-51.938038 58.578064 313.559662
-51.938038 59.089012 313.559662
-51.522842 59.123505 311.053040
-51.307014 59.380569 309.750031
-51.307014 59.885303 309.750031
-51.314011 60.398277 309.792297
-51.314011 60.903076 309.792297
-51.314011 61.407879 309.792297
-51.108913 61.665226 308.554077
-50.315006 61.202309 303.761108
-50.315006 61.697285 303.761108
-50.085449 61.908520 302.375244
-52.964603 67.030441 319.757233
-52.964603 67.551483 319.757233
-52.964603 68.072525 319.757233
-52.763603 68.333252 318.543762
-52.548252 68.571289 317.243622
-52.548252 69.088242 317.243622
-52.317513 69.299545 315.850616
-52.070293 69.484322 314.358093
-52.070293 69.996567 314.358093
-51.912163 70.294685 313.403442
-48.366898 65.969818 292.000000
-48.366898 66.445633 292.000000
-48.201256 66.692253 291.000000
-48.035618 66.935623 290.000000
-50.121948 70.335915 302.595581
-50.121948 70.828987 302.595581
-50.121948 71.322067 302.595581
-49.269135 70.593231 297.446991
-48.107533 69.402130 290.434174
-48.107533 69.875389 290.434174
-48.107533 70.348648 290.434174
-48.099731 70.810425 290.387085
-48.100925 71.285378 290.394287
-48.111137 71.773804 290.455933
-48.111137 72.247093 290.455933
-48.155899 72.788048 290.726166
-48.163654 73.273575 290.772980
-48.163654 73.747391 290.772980
-48.201305 74.279228 291.000305
-48.237724 74.809883 291.220154
-48.237724 75.284424 291.220154
-48.237724 75.758965 291.220154
-48.138050 76.075981 290.618408
-48.138050 76.549538 290.618408
-48.141102 77.027985 290.636841
-48.145313 77.508354 290.662262
-48.145313 77.981979 290.662262
-48.149872 78.463043 290.689789
-48.154766 78.944740 290.719330
-48.154766 79.418465 290.719330
-48.159126 79.899422 290.745667
-48.159126 80.373192 290.745667
-48.159126 80.846954 290.745667
-48.157677 81.318275 290.736908
-48.156990 81.790855 290.732758
-48.156990 82.264603 290.732758
-48.156990 82.738350 290.732758
-48.150352 83.200623 290.692688
-48.150352 83.674309 290.692688
-48.151581 84.150131 290.700104
-48.152626 84.625664 290.706421
-48.153358 85.100662 290.710846
-48.153358 85.574371 290.710846
-48.153709 86.048706 290.712952
-48.153709 86.522415 290.712952
-48.153709 86.996132 290.712952
-48.153603 87.469650 290.712311
-48.153049 87.942360 290.708984
-48.153049 88.416069 290.708984
-48.246254 89.061821 291.271667
-48.381443 89.787331 292.087830
-48.381443 90.263290 292.087830
-48.421967 90.815247 292.332489
-48.474270 91.390198 292.648224
-48.474270 91.867065 292.648224
-48.474270 92.343925 292.648224
-48.398540 92.675789 292.191040
-48.398540 93.151909 292.191040
-48.348301 93.530846 291.887756
-48.623550 94.541656 293.549469
-48.623550 95.019989 293.549469
-48.773415 95.792664 294.454224
-48.871014 96.465126 295.043457
-48.871014 96.945892 295.043457
-48.871014 97.426659 295.043457
-48.834446 97.834175 294.822693
-48.834446 98.314583 294.822693
-48.879288 98.885712 295.093414
-48.879288 99.366562 295.093414
-48.879288 99.847412 295.093414
-50.188248 111.408371 302.995850
-50.188248 111.902107 302.995850
-50.198284 112.418297 303.056427
-50.243912 113.014763 303.331909
-50.243912 113.509048 303.331909
-50.331360 114.201729 303.859833
-50.331360 114.696869 303.859833
-50.331360 115.192001 303.859833
-50.265831 115.536522 303.464233
-50.265831 116.031006 303.464233
-50.265831 116.525505 303.464233
-50.285275 122.506760 303.581604
-50.285275 123.001442 303.581604
-50.324928 123.593521 303.821014
-50.324928 124.088593 303.821014
-50.324928 124.583664 303.821014
-50.319088 125.064209 303.785736
-50.382034 128.690094 304.165771
-50.382034 129.185745 304.165771
-50.382034 129.681381 304.165771
-50.327831 130.036957 303.838531
-50.327831 130.532059 303.838531
-50.327831 131.027161 303.838531
-50.327831 131.522263 303.838531
-50.327831 132.017365 303.838531
-50.327831 132.512451 303.838531
-50.327831 133.007568 303.838531
-50.327831 133.502670 303.838531
-50.327831 133.997757 303.838531
-50.327831 134.492874 303.838531
-50.327831 134.987961 303.838531
-50.327831 135.483063 303.838531
-52.631134 54.720242 320.899414
-53.706436 56.371811 327.455688
-53.706436 56.905396 327.455688
-53.706436 57.438976 327.455688
-54.460823 59.869034 332.055267
-54.460823 60.410110 332.055267
-54.460823 60.951191 332.055267
-53.750362 63.894211 327.723511
-53.750362 64.428238 327.723511
-53.750362 64.962257 327.723511
-54.890491 66.885551 334.675049
-54.890491 67.430908 334.675049
-54.890491 67.976257 334.675049
-54.174324 67.627586 330.308472
-53.522015 67.345039 326.331238
-53.522015 67.876793 326.331238
-52.991432 67.730385 323.096191
-52.443806 67.551483 319.757233
-52.443806 68.072525 319.757233
-52.244781 68.333252 318.543762
-52.031544 68.571289 317.243622
-52.031544 69.088242 317.243622
-51.803074 69.299545 315.850616
-51.558285 69.484322 314.358093
-51.558285 69.996567 314.358093
-51.401711 70.294685 313.403442
-47.891304 65.969818 292.000000
-47.891304 66.445633 292.000000
-47.891304 66.921440 292.000000
-47.727291 67.166435 291.000000
-49.629097 70.335915 302.595581
-49.629097 70.828987 302.595581
-49.629097 71.322067 302.595581
-48.784672 70.593231 297.446991
-47.633446 69.400604 290.427795
-47.633446 69.873856 290.427795
-47.633446 70.347099 290.427795
-47.624920 70.807678 290.375824
-47.625439 71.281616 290.378967
-47.633224 71.766518 290.426453
-47.633224 72.239761 290.426453
-47.643143 72.728149 290.486938
-47.643143 73.201500 290.486938
-47.643143 73.674843 290.486938
-47.727341 74.279228 291.000305
-47.747906 74.785614 291.125671
-47.747906 75.260002 291.125671
-47.747906 75.734383 291.125671
-47.707603 76.144440 290.879944
-47.707603 76.618431 290.879944
-47.656761 77.010269 290.569977
-47.660023 77.489044 290.589844
-47.660023 77.962555 290.589844
-47.663532 78.441841 290.611237
-47.667339 78.921692 290.634460
-47.667339 79.395279 290.634460
-47.670753 79.874588 290.655273
-47.673512 80.352852 290.672089
-47.673512 80.826500 290.672089
-47.673851 81.300728 290.674164
-47.673851 81.774376 290.674164
-47.673851 82.248024 290.674164
-47.669750 82.714561 290.649170
-47.665401 83.180580 290.622650
-47.665401 83.654144 290.622650
-47.678020 84.149986 290.699585
-47.678020 84.623680 290.699585
-47.678020 85.097366 290.699585
-47.668190 85.553413 290.639648
-47.668659 86.027855 290.642517
-47.668789 86.501694 290.643311
-47.668789 86.975296 290.643311
-47.668789 87.448891 290.643311
-47.668594 87.922127 290.642120
-47.668594 88.395729 290.642120
-47.699139 88.926270 290.828339
-47.836285 89.657219 291.664551
-47.836285 90.132484 291.664551
-47.858120 90.649101 291.797668
-47.887882 91.181244 291.979126
-47.887882 91.657021 291.979126
-47.887882 92.132797 291.979126
-47.872894 92.579597 291.887756
-47.872894 93.055222 291.887756
-47.962997 93.706894 292.437134
-48.145435 94.541656 293.549469
-48.145435 95.019989 293.549469
-48.145435 95.498329 293.549469
-48.197735 96.080917 293.868347
-48.197735 96.559776 293.868347
-48.197735 97.038628 293.868347
-48.265118 97.653824 294.279205
-48.265118 98.133347 294.279205
-48.398655 98.885712 295.093414
-48.398655 99.366562 295.093414
-48.398655 99.847412 295.093414
-49.694748 111.408371 302.995850
-49.694748 111.902107 302.995850
-49.704681 112.418297 303.056427
-49.749863 113.014763 303.331909
-49.749863 113.509048 303.331909
-49.749863 114.003311 303.331909
-49.745895 114.488457 303.307709
-49.745895 114.982689 303.307709
-49.771568 115.536522 303.464233
-49.819534 116.142830 303.756683
-49.819534 116.637802 303.756683
-49.819534 117.132774 303.756683
-49.832958 130.036957 303.838531
-49.832958 130.532059 303.838531
-49.832958 131.027161 303.838531
-49.832958 131.522263 303.838531
-49.832958 132.017365 303.838531
-49.832958 132.512451 303.838531
-49.832958 133.007568 303.838531
-49.832958 133.502670 303.838531
-49.832958 133.997757 303.838531
-49.832958 134.492874 303.838531
-49.832958 134.987961 303.838531
-49.832958 135.483063 303.838531
-55.075005 58.388130 339.168213
-55.075005 58.940804 339.168213
-55.075005 59.493473 339.168213
-54.890575 59.845070 338.032440
-54.890575 60.395885 338.032440
-54.840969 60.891621 337.726929
-54.681637 61.263435 336.745728
-54.681637 61.812160 336.745728
-54.681637 62.360882 336.745728
-54.681637 62.909607 336.745728
-54.681637 63.458328 336.745728
-54.681637 64.007050 336.745728
-54.681637 64.555771 336.745728
-54.681637 65.104492 336.745728
-54.681637 65.653214 336.745728
-53.216587 64.428238 327.723511
-53.216587 64.962257 327.723511
-54.345394 66.885551 334.675049
-54.345394 67.430908 334.675049
-54.345394 67.976257 334.675049
-53.636337 67.627586 330.308472
-53.205585 67.618378 327.655762
-53.205585 68.152290 327.655762
-52.735233 68.078995 324.759186
-52.166561 67.868355 321.257141
-52.166561 68.391830 321.257141
-51.963379 68.646904 320.005890
-51.744213 68.876617 318.656189
-51.744213 69.395866 318.656189
-51.509388 69.597824 317.210083
-51.325539 69.864456 316.077881
-51.325539 70.379501 316.077881
-51.133179 70.628838 314.893250
-47.415710 65.969818 292.000000
-47.415710 66.445633 292.000000
-47.415710 66.921440 292.000000
-47.253326 67.166435 291.000000
-49.136250 70.335915 302.595581
-49.136250 70.828987 302.595581
-49.136250 71.322067 302.595581
-47.090946 68.825829 290.000000
-47.159462 69.399208 290.421936
-47.159462 69.872444 290.421936
-47.159462 70.345680 290.421936
-47.150204 70.805023 290.364929
-47.150696 71.278908 290.367950
-47.154613 71.758026 290.392090
-47.154613 72.231216 290.392090
-47.165974 72.721924 290.462036
-47.165974 73.195221 290.462036
-47.165974 73.668526 290.462036
-47.172657 74.152344 290.503204
-47.236877 74.727303 290.898682
-47.236877 75.201317 290.898682
-47.236877 75.675331 290.898682
-47.233833 76.144440 290.879944
-47.233833 76.618431 290.879944
-47.175171 76.996674 290.518677
-47.177742 77.474289 290.534515
-47.177742 77.947708 290.534515
-47.180492 78.425705 290.551453
-47.183475 78.904144 290.569824
-47.183475 79.377625 290.569824
-47.186359 79.855980 290.587585
-47.198109 80.349495 290.659943
-47.198109 80.823120 290.659943
-47.198109 81.296745 290.659943
-47.194561 81.764229 290.638092
-47.194561 82.237823 290.638092
-47.194134 82.710663 290.635468
-47.190327 83.177544 290.612030
-47.190327 83.651093 290.612030
-47.204548 84.149986 290.699585
-47.204548 84.623680 290.699585
-47.204548 85.097366 290.699585
-47.190697 85.545944 290.614288
-47.191711 86.021355 290.620544
-47.192539 86.496437 290.625641
-47.192539 86.970001 290.625641
-47.193153 87.444717 290.629425
-47.212315 87.953995 290.747437
-47.212315 88.427757 290.747437
-47.225452 88.926270 290.828339
-47.303104 89.547165 291.306549
-47.303104 90.021851 291.306549
-47.382858 90.649101 291.797668
-47.412319 91.181244 291.979126
-47.412319 91.657021 291.979126
-47.412319 92.132797 291.979126
-47.397484 92.579597 291.887756
-47.397484 93.055222 291.887756
-47.486694 93.706894 292.437134
-47.667316 94.541656 293.549469
-47.667316 95.019989 293.549469
-47.667316 95.498329 293.549469
-47.719101 96.080917 293.868347
-47.719101 96.559776 293.868347
-47.719101 97.038628 293.868347
-47.785812 97.653824 294.279205
-47.785812 98.133347 294.279205
-47.918030 98.885712 295.093414
-47.918030 99.366562 295.093414
-47.918030 99.847412 295.093414
-49.201244 111.408371 302.995850
-49.201244 111.902107 302.995850
-49.218491 112.435226 303.102051
-49.218491 112.929123 303.102051
-49.218491 113.423027 303.102051
-49.277302 115.536522 303.464233
-49.382526 116.278778 304.112244
-49.382526 116.774338 304.112244
-49.605907 117.800339 305.487885
-49.605907 118.298134 305.487885
-49.605907 118.795914 305.487885
-49.338081 131.522263 303.838531
-49.338081 132.017365 303.838531
-49.338081 132.512451 303.838531
-49.338081 133.007568 303.838531
-49.338081 133.502670 303.838531
-49.338081 133.997757 303.838531
-49.338081 134.492874 303.838531
-49.338081 134.987961 303.838531
-49.338081 135.483063 303.838531
-49.338081 135.978180 303.838531
-54.522587 58.388130 339.168213
-54.522587 58.940804 339.168213
-54.522587 59.493473 339.168213
-54.340012 59.845070 338.032440
-54.340012 60.395885 338.032440
-54.290901 60.891621 337.726929
-54.500103 61.678707 339.028351
-54.500103 62.231152 339.028351
-54.500103 62.783592 339.028351
-54.479744 63.312370 338.901672
-54.479744 63.864605 338.901672
-54.479744 64.416840 338.901672
-54.479744 64.969078 338.901672
-54.479744 65.521309 338.901672
-54.133167 65.653214 336.745728
-53.476852 65.399300 332.662994
-53.476852 65.941376 332.662994
-54.051308 67.197624 336.236511
-54.051308 67.745514 336.236511
-54.051308 68.293404 336.236511
-53.261177 67.834969 331.321350
-52.671917 67.618378 327.655762
-52.671917 68.152290 327.655762
-52.206284 68.078995 324.759186
-51.656818 67.886093 321.341125
-51.656818 68.409714 321.341125
-51.656818 68.933334 321.341125
-51.394245 69.103905 319.707733
-51.394245 69.624863 319.707733
-51.119350 69.770630 317.997711
-50.878036 69.957008 316.496582
-50.878036 70.472733 316.496582
-50.625969 70.636765 314.928558
-46.940117 65.969818 292.000000
-46.940117 66.445633 292.000000
-46.940117 66.921440 292.000000
-46.940117 67.397255 292.000000
-46.940117 67.873062 292.000000
-46.779362 68.114799 291.000000
-46.618610 68.353279 290.000000
-46.618610 68.825829 290.000000
-46.686440 69.399208 290.421936
-46.686440 69.872444 290.421936
-46.686440 70.345680 290.421936
-46.677273 70.805023 290.364929
-46.677761 71.278908 290.367950
-46.681641 71.758026 290.392090
-46.681641 72.231216 290.392090
-46.692883 72.721924 290.462036
-46.692883 73.195221 290.462036
-46.692883 73.668526 290.462036
-46.699505 74.152344 290.503204
-46.763077 74.727303 290.898682
-46.763077 75.201317 290.898682
-46.763077 75.675331 290.898682
-46.760067 76.144440 290.879944
-46.760067 76.618431 290.879944
-46.701988 76.996674 290.518677
-46.704536 77.474289 290.534515
-46.704536 77.947708 290.534515
-46.707260 78.425705 290.551453
-46.710213 78.904144 290.569824
-46.710213 79.377625 290.569824
-46.713070 79.855980 290.587585
-46.724697 80.349495 290.659943
-46.724697 80.823120 290.659943
-46.724697 81.296745 290.659943
-46.721188 81.764229 290.638092
-46.721188 82.237823 290.638092
-46.720764 82.710663 290.635468
-46.716995 83.177544 290.612030
-46.716995 83.651093 290.612030
-46.731071 84.149986 290.699585
-46.731071 84.623680 290.699585
-46.731071 85.097366 290.699585
-46.717361 85.545944 290.614288
-46.718365 86.021355 290.620544
-46.719185 86.496437 290.625641
-46.719185 86.970001 290.625641
-46.719791 87.444717 290.629425
-46.738762 87.953995 290.747437
-46.738762 88.427757 290.747437
-46.751770 88.926270 290.828339
-46.828644 89.547165 291.306549
-46.828644 90.021851 291.306549
-46.831478 90.502007 291.324188
-46.836803 90.987061 291.357300
-46.836803 91.461823 291.357300
-46.836803 91.936584 291.357300
-46.801800 92.342285 291.139557
-46.801800 92.816696 291.139557
-47.010391 93.706894 292.437134
-47.055988 94.274765 292.720795
-47.055988 94.751755 292.720795
-47.055988 95.228737 292.720795
-47.092915 95.780830 292.950500
-47.092915 96.258186 292.950500
-47.092915 96.735542 292.950500
-47.094456 97.216080 292.960083
-47.094456 97.693459 292.960083
-47.246235 98.487228 293.904266
-47.246235 98.966141 293.904266
-47.246235 99.445053 293.904266
-48.720528 111.437607 303.075378
-48.720528 111.931473 303.075378
-48.729050 112.444992 303.128387
-48.772495 113.039627 303.398651
-48.772495 113.534012 303.398651
-48.772495 114.028404 303.398651
-48.887211 116.278778 304.112244
-48.887211 116.774338 304.112244
-49.108345 117.800339 305.487885
-49.108345 118.298134 305.487885
-49.108345 118.795914 305.487885
-48.913689 127.249710 304.276978
-48.913689 127.745522 304.276978
-48.924835 128.270554 304.346313
-48.924835 128.766495 304.346313
-48.924835 129.262421 304.346313
-48.843208 132.512451 303.838531
-48.881233 133.111115 304.075073
-48.881233 133.606598 304.075073
-48.881233 134.102081 304.075073
-48.880180 134.594666 304.068512
-48.880871 135.092056 304.072815
-48.880871 135.587540 304.072815
-48.880871 136.083023 304.072815
-48.879295 136.574112 304.063019
-48.879295 137.069580 304.063019
-48.879295 137.565033 304.063019
-48.879295 138.060501 304.063019
-48.879295 138.555969 304.063019
-48.879295 139.051437 304.063019
-48.879295 139.546906 304.063019
-48.879295 140.042374 304.063019
-53.970173 58.388130 339.168213
-53.970173 58.940804 339.168213
-53.970173 59.493473 339.168213
-53.789444 59.845070 338.032440
-53.789444 60.395885 338.032440
-53.740829 60.891621 337.726929
-53.947918 61.678707 339.028351
-53.947918 62.231152 339.028351
-53.947918 62.783592 339.028351
-53.927761 63.312370 338.901672
-53.927761 63.864605 338.901672
-53.927761 64.416840 338.901672
-53.927761 64.969078 338.901672
-53.927761 65.521309 338.901672
-53.584694 65.653214 336.745728
-52.935028 65.399300 332.662994
-52.935028 65.941376 332.662994
-53.503666 67.197624 336.236511
-53.503666 67.745514 336.236511
-53.503666 68.293404 336.236511
-53.252064 68.517578 334.655365
-52.497898 68.084808 329.915894
-52.497898 68.622398 329.915894
-51.934940 68.418358 326.378082
-51.489662 68.359024 323.579773
-51.489662 68.886299 323.579773
-51.133434 68.933334 321.341125
-50.873520 69.103905 319.707733
-50.873520 69.624863 319.707733
-50.601414 69.770630 317.997711
-50.362545 69.957008 316.496582
-50.362545 70.472733 316.496582
-50.113033 70.636765 314.928558
-49.763821 70.654121 312.733978
-49.763821 71.163719 312.733978
-46.464527 66.921440 292.000000
-46.464527 67.397255 292.000000
-46.464527 67.873062 292.000000
-46.305401 68.114799 291.000000
-46.146275 68.353279 290.000000
-46.146275 68.825829 290.000000
-46.146275 69.298378 290.000000
-46.201237 69.854027 290.345398
-46.202000 70.328308 290.350189
-46.202000 70.801430 290.350189
-46.202427 71.275208 290.352875
-46.206467 71.754608 290.378265
-46.206467 72.227776 290.378265
-46.218399 72.719719 290.453247
-46.218399 73.193008 290.453247
-46.218399 73.666298 290.453247
-46.676273 74.874069 293.330688
-46.676273 75.352043 293.330688
-46.676273 75.830025 293.330688
-46.490078 76.003609 292.160583
-46.249531 76.083961 290.648895
-46.249531 76.557571 290.648895
-46.254261 77.039055 290.678619
-46.295830 77.582375 290.939850
-46.295830 78.056458 290.939850
-46.305332 78.546661 290.999573
-46.305332 79.020844 290.999573
-46.305332 79.495026 290.999573
-46.286266 79.936279 290.879761
-46.286266 80.410263 290.879761
-46.286266 80.884247 290.879761
-46.285141 81.356247 290.872681
-46.285141 81.830223 290.872681
-46.285141 82.304199 290.872681
-46.266144 82.744194 290.753296
-46.259068 83.205246 290.708832
-46.259068 83.678955 290.708832
-46.265965 84.165207 290.752167
-46.266323 84.639641 290.754425
-46.275127 85.129616 290.809753
-46.275127 85.603485 290.809753
-46.275127 86.077354 290.809753
-46.267918 86.537735 290.764435
-46.267918 87.011536 290.764435
-46.258129 87.466835 290.702942
-46.295277 88.011147 290.936371
-46.295277 88.485222 290.936371
-46.295277 88.959297 290.936371
-46.364578 89.567253 291.371887
-46.364578 90.042038 291.371887
-46.368320 90.524132 291.395416
-46.373924 91.009964 291.430634
-46.373924 91.484840 291.430634
-46.373924 91.959724 291.430634
-46.340271 92.367531 291.219147
-46.340271 92.842064 291.219147
-46.423431 93.484062 291.741760
-46.470242 94.054192 292.035919
-46.470242 94.530060 292.035919
-46.470242 95.005928 292.035919
-46.495155 95.532990 292.192474
-46.495155 96.009109 292.192474
-46.495155 96.485237 292.192474
-46.449448 96.866051 291.905243
-46.449448 97.341698 291.905243
-46.449127 97.816681 291.903229
-48.226898 111.437607 303.075378
-48.226898 111.931473 303.075378
-48.235332 112.444992 303.128387
-48.278336 113.039627 303.398651
-48.278336 113.534012 303.398651
-48.278336 114.028404 303.398651
-48.391888 116.278778 304.112244
-48.391888 116.774338 304.112244
-48.610786 117.800339 305.487885
-48.610786 118.298134 305.487885
-48.610786 118.795914 305.487885
-48.418098 127.249710 304.276978
-48.418098 127.745522 304.276978
-48.429134 128.270554 304.346313
-48.429134 128.766495 304.346313
-48.429134 129.262421 304.346313
-48.348335 132.512451 303.838531
-48.385975 133.111115 304.075073
-48.385975 133.606598 304.075073
-48.385975 134.102081 304.075073
-48.384930 134.594666 304.068512
-48.385612 135.092056 304.072815
-48.385612 135.587540 304.072815
-48.385612 136.083023 304.072815
-48.384056 136.574112 304.063019
-48.384056 137.069580 304.063019
-48.384056 137.565033 304.063019
-48.384056 138.060501 304.063019
-48.384056 138.555969 304.063019
-48.384056 139.051437 304.063019
-48.384056 139.546906 304.063019
-48.384056 140.042374 304.063019
-53.395729 61.678707 339.028351
-53.395729 62.231152 339.028351
-53.395729 62.783592 339.028351
-54.468807 64.608887 345.841736
-54.468807 65.172432 345.841736
-54.468807 65.735977 345.841736
-54.392666 66.206833 345.358246
-54.392666 66.769592 345.358246
-53.629791 66.387993 340.514496
-53.551445 66.845062 340.017059
-53.551445 67.399117 340.017059
-53.476078 67.857529 339.538513
-53.441277 68.366287 339.317566
-53.441277 68.919197 339.317566
-52.706997 68.517578 334.655365
-51.960548 68.084808 329.915894
-51.960548 68.622398 329.915894
-51.403355 68.418358 326.378082
-50.962635 68.359024 323.579773
-50.962635 68.886299 323.579773
-50.610050 68.933334 321.341125
-50.352798 69.103905 319.707733
-50.352798 69.624863 319.707733
-50.083477 69.770630 317.997711
-49.847057 69.957008 316.496582
-49.847057 70.472733 316.496582
-49.600098 70.636765 314.928558
-49.254459 70.654121 312.733978
-49.254459 71.163719 312.733978
-45.988934 66.921440 292.000000
-45.988934 67.397255 292.000000
-45.988934 67.873062 292.000000
-45.673943 68.353279 290.000000
-45.673943 68.825829 290.000000
-45.831436 69.537338 291.000000
-45.831436 70.011520 291.000000
-45.831436 70.485703 291.000000
-45.727905 70.799591 290.342651
-45.728355 71.273392 290.345490
-45.732609 71.753181 290.372498
-45.732609 72.226349 290.372498
-45.745220 72.719551 290.452576
-45.745220 73.192841 290.452576
-45.745220 73.666122 290.452576
-46.198513 74.874069 293.330688
-46.198513 75.352043 293.330688
-46.198513 75.830025 293.330688
-46.014225 76.003609 292.160583
-45.829567 76.172768 290.988129
-45.829567 76.646927 290.988129
-45.829567 77.121094 290.988129
-45.831501 77.598526 291.000397
-45.831501 78.072708 291.000397
-45.848911 78.576729 291.110962
-45.946819 79.219894 291.732605
-45.946819 79.695274 291.732605
-45.946819 80.170647 291.732605
-45.876541 80.522667 291.286377
-45.876541 80.997307 291.286377
-45.880428 81.478867 291.311066
-45.880428 81.953552 291.311066
-45.880428 82.428238 291.311066
-45.847683 82.843758 291.103149
-45.822441 83.272240 290.942902
-45.822441 83.746330 290.942902
-45.812164 84.201523 290.877625
-45.812164 84.675499 290.877625
-45.812164 85.149483 290.877625
-45.810249 85.619888 290.865479
-45.810062 86.093498 290.864288
-45.808125 86.563797 290.851990
-45.808125 87.037735 290.851990
-45.800587 87.497284 290.804138
-45.821415 88.011147 290.936371
-45.821415 88.485222 290.936371
-45.837086 88.989716 291.035858
-45.895515 89.578003 291.406860
-45.895515 90.052849 291.406860
-45.898094 90.532768 291.423218
-45.902481 91.016350 291.451080
-45.902481 91.491257 291.451080
-45.929874 92.021065 291.625031
-45.929874 92.496262 291.625031
-45.929874 92.971466 291.625031
-45.874218 93.333427 291.271637
-45.913975 93.889343 291.524048
-45.913975 94.364380 291.524048
-45.946140 94.905853 291.728302
-46.022564 95.539871 292.213531
-46.022564 96.016029 292.213531
-46.022564 96.492188 292.213531
-45.977985 96.874420 291.930481
-45.977985 97.350121 291.930481
-45.965633 97.799538 291.852081
-47.733265 111.437607 303.075378
-47.733265 111.931473 303.075378
-47.741611 112.444992 303.128387
-47.806953 113.093498 303.543243
-47.806953 113.588127 303.543243
-48.030441 114.616051 304.962250
-48.030441 115.112999 304.962250
-48.030441 115.609924 304.962250
-47.922512 127.249710 304.276978
-47.922512 127.745522 304.276978
-47.933430 128.270554 304.346313
-47.933430 128.766495 304.346313
-47.933430 129.262421 304.346313
-47.890713 133.111115 304.075073
-47.890713 133.606598 304.075073
-47.890713 134.102081 304.075073
-47.889679 134.594666 304.068512
-47.890358 135.092056 304.072815
-47.890358 135.587540 304.072815
-47.890358 136.083023 304.072815
-47.888817 136.574112 304.063019
-47.888817 137.069580 304.063019
-47.888817 137.565033 304.063019
-47.888817 138.060501 304.063019
-47.888817 138.555969 304.063019
-47.888817 139.051437 304.063019
-47.888817 139.546906 304.063019
-47.888817 140.042374 304.063019
-47.868176 140.477264 303.931976
-53.905525 64.608887 345.841736
-53.905525 65.172432 345.841736
-53.905525 65.735977 345.841736
-53.830162 66.206833 345.358246
-53.830162 66.769592 345.358246
-53.075176 66.387993 340.514496
-52.997643 66.845062 340.017059
-52.997643 67.399117 340.017059
-52.923058 67.857529 339.538513
-52.888618 68.366287 339.317566
-52.888618 68.919197 339.317566
-53.072632 69.713837 340.498169
-53.072632 70.268669 340.498169
-53.072632 70.823509 340.498169
-52.572754 70.706055 337.291107
-50.435604 68.359024 323.579773
-50.435604 68.886299 323.579773
-49.424267 68.021683 317.091339
-49.040386 68.006035 314.628479
-49.040386 68.518723 314.628479
-49.979797 70.353760 320.655457
-49.979797 70.876266 320.655457
-49.979797 71.398766 320.655457
-49.979797 71.921272 320.655457
-49.979797 72.443771 320.655457
-50.055759 73.077179 321.142822
-50.055759 73.600479 321.142822
-50.055759 74.123779 321.142822
-50.119026 74.741425 321.548706
-50.119026 75.265381 321.548706
-50.119026 75.789345 321.548706
-45.201607 68.825829 290.000000
-45.357471 69.537338 291.000000
-45.357471 70.011520 291.000000
-45.357471 70.485703 291.000000
-45.255013 70.799591 290.342651
-45.255455 71.273392 290.345490
-45.259666 71.753181 290.372498
-45.259666 72.226349 290.372498
-45.272148 72.719551 290.452576
-45.272148 73.192841 290.452576
-45.272148 73.666122 290.452576
-46.045448 75.405807 295.413849
-46.045448 75.887177 295.413849
-46.045448 76.368553 295.413849
-45.851814 76.526749 294.171539
-45.582607 76.553978 292.444397
-45.582607 77.030518 292.444397
-45.355625 77.121094 290.988129
-45.357536 77.598526 291.000397
-45.357536 78.072708 291.000397
-45.374767 78.576729 291.110962
-45.471661 79.219894 291.732605
-45.471661 79.695274 291.732605
-45.471661 80.170647 291.732605
-45.402111 80.522667 291.286377
-45.402111 80.997307 291.286377
-45.405960 81.478867 291.311066
-45.405960 81.953552 291.311066
-45.405960 82.428238 291.311066
-45.373550 82.843758 291.103149
-45.348576 83.272240 290.942902
-45.348576 83.746330 290.942902
-45.338398 84.201523 290.877625
-45.338398 84.675499 290.877625
-45.338398 85.149483 290.877625
-45.336506 85.619888 290.865479
-45.336319 86.093498 290.864288
-45.334404 86.563797 290.851990
-45.334404 87.037735 290.851990
-45.326946 87.497284 290.804138
-45.347557 88.011147 290.936371
-45.347557 88.485222 290.936371
-45.363060 88.989716 291.035858
-45.420891 89.578003 291.406860
-45.420891 90.052849 291.406860
-45.423439 90.532768 291.423218
-45.427780 91.016350 291.451080
-45.427780 91.491257 291.451080
-45.454895 92.021065 291.625031
-45.454895 92.496262 291.625031
-45.454895 92.971466 291.625031
-45.399815 93.333427 291.271637
-45.439156 93.889343 291.524048
-45.439156 94.364380 291.524048
-45.470989 94.905853 291.728302
-45.546623 95.539871 292.213531
-45.546623 96.016029 292.213531
-45.546623 96.492188 292.213531
-45.502506 96.874420 291.930481
-45.502506 97.350121 291.930481
-45.490284 97.799538 291.852081
-47.312561 113.093498 303.543243
-47.312561 113.588127 303.543243
-47.533733 114.616051 304.962250
-47.533733 115.112999 304.962250
-47.533733 115.609924 304.962250
-47.366268 134.019501 303.887817
-47.370266 134.526047 303.913483
-47.374077 135.032135 303.937927
-47.374077 135.527390 303.937927
-47.378334 136.034882 303.965240
-47.378334 136.530182 303.965240
-47.378334 137.025482 303.965240
-47.378334 137.520798 303.965240
-47.378334 138.016098 303.965240
-47.378334 138.511414 303.965240
-47.378334 139.006714 303.965240
-47.378334 139.502029 303.965240
-47.378334 139.997345 303.965240
-47.376522 140.487274 303.953613
-47.376522 140.982559 303.953613
-47.376522 141.477844 303.953613
-47.376522 141.973129 303.953613
-47.377216 142.470505 303.958069
-47.377216 142.965805 303.958069
-47.377216 143.461105 303.958069
-53.342236 64.608887 345.841736
-53.342236 65.172432 345.841736
-53.342236 65.735977 345.841736
-53.267662 66.206833 345.358246
-53.267662 66.769592 345.358246
-52.520569 66.387993 340.514496
-52.443848 66.845062 340.017059
-52.443848 67.399117 340.017059
-53.370491 69.153862 346.024933
-53.370491 69.717697 346.024933
-53.370491 70.281548 346.024933
-53.139915 70.539314 344.529999
-52.518051 70.268669 340.498169
-52.518051 70.823509 340.498169
-52.023396 70.706055 337.291107
-49.430122 67.703697 320.477753
-49.430122 68.225906 320.477753
-48.907806 68.021683 317.091339
-49.457531 70.353760 320.655457
-49.457531 70.876266 320.655457
-49.457531 71.398766 320.655457
-49.457531 71.921272 320.655457
-50.061386 73.328278 324.570496
-50.061386 73.857155 324.570496
-50.061386 74.386040 324.570496
-49.532703 74.123779 321.142822
-49.595306 74.741425 321.548706
-49.595306 75.265381 321.548706
-49.595306 75.789345 321.548706
-44.883507 69.537338 291.000000
-44.883507 70.011520 291.000000
-44.883507 70.485703 291.000000
-44.729271 70.716034 290.000000
-44.781929 71.272392 290.341400
-44.786480 71.752792 290.370911
-44.786480 72.225952 290.370911
-44.798943 72.719337 290.451721
-44.798943 73.192627 290.451721
-44.798943 73.665909 290.451721
-45.564297 75.405807 295.413849
-45.564297 75.887177 295.413849
-45.564297 76.368553 295.413849
-45.372684 76.526749 294.171539
-45.106293 76.553978 292.444397
-45.106293 77.030518 292.444397
-45.339958 77.908569 293.959381
-45.339958 78.387566 293.959381
-45.339958 78.866570 293.959381
-45.012550 78.772598 291.836639
-45.254589 79.674271 293.405884
