-86.549644 84.859238 348.000000
-86.300941 85.180824 347.000000
-86.300941 85.746262 347.000000
-86.300941 86.311691 347.000000
-86.052231 86.626755 346.000000
-85.803528 86.938560 345.000000
-85.803528 87.500732 345.000000
-85.803528 88.062904 345.000000
-85.306114 88.111313 343.000000
-85.306114 88.670227 343.000000
-85.306114 89.229141 343.000000
-85.057411 89.526283 342.000000
-85.057411 90.083565 342.000000
-85.057411 90.640854 342.000000
-84.808701 90.931473 341.000000
-84.808701 91.487129 341.000000
-84.559998 91.772865 340.000000
-84.311295 92.055344 339.000000
-84.311295 92.607735 339.000000
-84.311295 93.160133 339.000000
-84.311295 93.712532 339.000000
-84.062584 93.986855 338.000000
-84.062584 94.537621 338.000000
-84.150024 95.187309 338.351593
-84.150024 95.738647 338.351593
-84.150024 96.289986 338.351593
-83.904442 96.558701 337.364136
-83.842300 97.036514 337.114288
-83.842300 97.585838 337.114288
-83.842781 98.135719 337.116211
-83.842781 98.685043 337.116211
-83.842781 99.234375 337.116211
-83.795937 99.727951 336.927856
-83.744400 100.215294 336.720642
-83.744400 100.763977 336.720642
-83.712578 101.274162 336.592682
-82.878021 100.807533 333.237091
-82.878021 101.350533 333.237091
-82.572433 101.517838 332.008362
-82.508049 101.979271 331.749512
-82.508049 102.519852 331.749512
-82.516914 103.071503 331.785156
-82.516914 103.612144 331.785156
-82.516914 104.152786 331.785156
-87.075180 80.194656 352.421051
-87.075180 80.768913 352.421051
-87.075180 81.343178 352.421051
-86.724075 81.587143 351.000000
-86.724075 82.159088 351.000000
-86.724075 82.731041 351.000000
-86.476997 83.065659 350.000000
-86.476997 83.635979 350.000000
-86.229919 83.965706 349.000000
-85.982841 84.292175 348.000000
-85.982841 84.859238 348.000000
-85.735764 85.180824 347.000000
-85.735764 85.746262 347.000000
-85.735764 86.311691 347.000000
-85.488686 86.626755 346.000000
-85.241608 86.938560 345.000000
-85.241608 87.500732 345.000000
-84.994537 87.807655 344.000000
-84.747459 88.111313 343.000000
-84.747459 88.670227 343.000000
-84.500381 88.968994 342.000000
-84.500381 89.526283 342.000000
-84.500381 90.083565 342.000000
-84.253296 90.375816 341.000000
-84.006226 90.664818 340.000000
-84.006226 91.218842 340.000000
-83.759148 91.502945 339.000000
-83.759148 92.055344 339.000000
-83.759148 92.607735 339.000000
-83.512070 92.885323 338.000000
-83.264992 93.159660 337.000000
-83.264992 93.708794 337.000000
-83.264992 94.257935 337.000000
-83.264992 94.807068 337.000000
-83.017921 95.073250 336.000000
-83.017921 95.620758 336.000000
-83.388535 96.597580 337.500000
-83.388535 97.147537 337.500000
-83.388535 97.697487 337.500000
-83.326759 98.174667 337.250000
-83.293709 98.685043 337.116211
-83.293709 99.234375 337.116211
-83.247169 99.727951 336.927856
-83.208351 100.230209 336.770752
-83.208351 100.778976 336.770752
-83.202690 101.320839 336.747833
-83.196457 101.861931 336.722595
-83.196457 102.410622 336.722595
-83.189606 102.950836 336.694885
-81.967720 101.979271 331.749512
-81.967720 102.519852 331.749512
-81.976524 103.071503 331.785156
-81.976524 103.612144 331.785156
-81.976524 104.152786 331.785156
-93.147667 66.568069 379.500000
-93.147667 67.186455 379.500000
-93.147667 67.804848 379.500000
-93.116982 68.400703 379.375000
-86.152390 81.015190 351.000000
-86.152390 81.587143 351.000000
-86.152390 82.159088 351.000000
-85.906937 82.495338 350.000000
-85.906937 83.065659 350.000000
-85.906937 83.635979 350.000000
-85.661484 83.965706 349.000000
-85.416046 84.292175 348.000000
-85.416046 84.859238 348.000000
-85.170593 85.180824 347.000000
-85.170593 85.746262 347.000000
-85.170593 86.311691 347.000000
-84.925140 86.626755 346.000000
-84.679695 86.938560 345.000000
-84.679695 87.500732 345.000000
-84.434250 87.807655 344.000000
-84.188797 88.111313 343.000000
-84.188797 88.670227 343.000000
-83.943352 88.968994 342.000000
-83.943352 89.526283 342.000000
-83.943352 90.083565 342.000000
-83.697899 90.375816 341.000000
-83.452454 90.664818 340.000000
-83.452454 91.218842 340.000000
-83.207008 91.502945 339.000000
-82.961555 91.783791 338.000000
-82.961555 92.334557 338.000000
-82.716103 92.610519 337.000000
-82.716103 93.159660 337.000000
-82.716103 93.708794 337.000000
-82.716103 94.257935 337.000000
-82.470657 94.525742 336.000000
-82.470657 95.073250 336.000000
-82.470657 95.620758 336.000000
-82.838837 96.597580 337.500000
-82.838837 97.147537 337.500000
-82.838837 97.697487 337.500000
-82.777466 98.174667 337.250000
-82.734520 98.672981 337.075012
-82.734520 99.222244 337.075012
-82.687271 99.714523 336.882507
-82.659836 100.230209 336.770752
-82.659836 100.778976 336.770752
-82.654213 101.320839 336.747833
-82.648026 101.861931 336.722595
-82.648026 102.410622 336.722595
-82.641220 102.950836 336.694885
-82.325989 103.104683 335.410583
-82.325989 103.651230 335.410583
-82.360603 104.241592 335.551636
-82.360603 104.788368 335.551636
-82.360603 105.335152 335.551636
-81.311226 104.532852 331.276276
-81.194756 104.922142 330.801727
-81.194756 105.461189 330.801727
-81.091133 105.864952 330.379578
-92.529556 66.568069 379.500000
-92.529556 67.186455 379.500000
-92.529556 67.804848 379.500000
-92.499077 68.400703 379.375000
-92.407646 68.950661 379.000000
-92.407646 69.568237 379.000000
-92.245102 70.062363 378.333344
-85.336876 81.354698 350.000000
-85.336876 81.925018 350.000000
-85.336876 82.495338 350.000000
-85.336876 83.065659 350.000000
-85.336876 83.635979 350.000000
-84.849243 83.725113 348.000000
-84.849243 84.292175 348.000000
-84.849243 84.859238 348.000000
-84.605423 85.180824 347.000000
-84.605423 85.746262 347.000000
-84.605423 86.311691 347.000000
-84.361595 86.626755 346.000000
-84.117775 86.938560 345.000000
-84.117775 87.500732 345.000000
-83.873962 87.807655 344.000000
-83.630142 88.111313 343.000000
-83.630142 88.670227 343.000000
-83.386322 88.968994 342.000000
-83.142494 89.264511 341.000000
-83.142494 89.820160 341.000000
-82.898682 90.110794 340.000000
-82.654861 90.398155 339.000000
-82.654861 90.950546 339.000000
-82.654861 91.502945 339.000000
-82.411041 91.783791 338.000000
-82.411041 92.334557 338.000000
-82.167221 92.610519 337.000000
-82.167221 93.159660 337.000000
-82.167221 93.708794 337.000000
-82.167221 94.257935 337.000000
-81.923401 94.525742 336.000000
-81.923401 95.073250 336.000000
-81.923401 95.620758 336.000000
-82.289131 96.597580 337.500000
-82.289131 97.147537 337.500000
-82.289131 97.697487 337.500000
-82.228172 98.174667 337.250000
-82.185509 98.672981 337.075012
-82.185509 99.222244 337.075012
-82.138573 99.714523 336.882507
-82.111328 100.230209 336.770752
-82.111328 100.778976 336.770752
-82.105743 101.320839 336.747833
-82.099586 101.861931 336.722595
-82.099586 102.410622 336.722595
-82.092834 102.950836 336.694885
-81.779694 103.104683 335.410583
-81.779694 103.651230 335.410583
-81.814079 104.241592 335.551636
-81.814079 104.788368 335.551636
-81.814079 105.335152 335.551636
-80.771667 104.532852 331.276276
-80.655960 104.922142 330.801727
-80.655960 105.461189 330.801727
-80.553032 105.864952 330.379578
-80.211914 105.952721 328.980530
-80.211914 106.488785 328.980530
-80.076210 106.843796 328.423950
-91.911453 66.568069 379.500000
-91.911453 67.186455 379.500000
-91.911453 67.804848 379.500000
-91.881172 68.400703 379.375000
-91.790352 68.950661 379.000000
-91.790352 69.568237 379.000000
-91.628899 70.062363 378.333344
-84.766815 81.354698 350.000000
-84.766815 81.925018 350.000000
-84.766815 82.495338 350.000000
-84.766815 83.065659 350.000000
-84.766815 83.635979 350.000000
-84.282440 83.725113 348.000000
-84.282440 84.292175 348.000000
-84.282440 84.859238 348.000000
-84.040245 85.180824 347.000000
-84.040245 85.746262 347.000000
-84.040245 86.311691 347.000000
-83.555862 86.376389 345.000000
-83.313675 86.686569 344.000000
-83.313675 87.247116 344.000000
-83.071480 87.552399 343.000000
-82.829292 87.854431 342.000000
-82.829292 88.411713 342.000000
-82.587097 88.708855 341.000000
-82.344910 89.002739 340.000000
-82.344910 89.556763 340.000000
-82.102715 89.845757 339.000000
-81.860527 90.131493 338.000000
-81.860527 90.682259 338.000000
-81.618332 90.963112 337.000000
-81.618332 91.512245 337.000000
-81.618332 92.061386 337.000000
-81.376144 92.335709 336.000000
-81.376144 92.883217 336.000000
-81.376144 93.430725 336.000000
-81.376144 93.978233 336.000000
-81.133957 94.244415 335.000000
-80.891762 94.507332 334.000000
-80.891762 95.051582 334.000000
-81.424591 96.225510 336.200012
-81.424591 96.773346 336.200012
-81.424591 97.321175 336.200012
-81.356773 97.787506 335.920013
-81.306396 98.273987 335.712006
-81.306396 98.821022 335.712006
-81.275200 99.329941 335.583191
-81.240891 99.834602 335.441528
-81.240891 100.381203 335.441528
-81.227364 100.910995 335.385681
-81.212486 101.438919 335.324249
-81.212486 101.985321 335.324249
-81.202339 102.518921 335.282349
-81.233398 103.104683 335.410583
-81.233398 103.651230 335.410583
-81.267555 104.241592 335.551636
-81.267555 104.788368 335.551636
-81.267555 105.335152 335.551636
-80.822830 105.302498 333.715393
-80.803825 105.821404 333.636932
-80.803825 106.365059 333.636932
-80.014931 105.864952 330.379578
-79.676094 105.952721 328.980530
-79.676094 106.488785 328.980530
-79.541290 106.843796 328.423950
-91.173058 68.333084 379.000000
-91.173058 68.950661 379.000000
-91.173058 69.568237 379.000000
-91.012695 70.062363 378.333344
-90.832268 70.538734 377.583344
-90.832268 71.154007 377.583344
-90.752083 71.705910 377.250000
-83.956192 82.259636 349.000000
-83.956192 82.828323 349.000000
-83.956192 83.397018 349.000000
-83.715637 83.725113 348.000000
-83.715637 84.292175 348.000000
-83.715637 84.859238 348.000000
-83.715637 85.426300 348.000000
-83.475075 85.746262 347.000000
-83.475075 86.311691 347.000000
-82.993942 86.376389 345.000000
-82.753387 86.686569 344.000000
-82.753387 87.247116 344.000000
-82.512825 87.552399 343.000000
-82.272263 87.854431 342.000000
-82.272263 88.411713 342.000000
-82.031693 88.708855 341.000000
-81.791138 89.002739 340.000000
-81.791138 89.556763 340.000000
-81.550575 89.845757 339.000000
-81.069450 89.864830 337.000000
-81.069450 90.413971 337.000000
-81.069450 90.963112 337.000000
-80.828888 91.240692 336.000000
-80.828888 91.788200 336.000000
-80.828888 92.335709 336.000000
-80.588326 92.606773 335.000000
-80.347763 92.874588 334.000000
-80.347763 93.418839 334.000000
-80.107201 93.681763 333.000000
-80.107201 94.224380 333.000000
-80.107201 94.766998 333.000000
-79.866638 95.023399 332.000000
-80.468048 96.284004 334.500000
-80.468048 96.829063 334.500000
-80.468048 97.374130 334.500000
-80.407906 97.846008 334.250000
-80.407906 98.390671 334.250000
-80.341751 98.853928 333.975006
-80.293030 99.337868 333.772491
-80.293030 99.881737 333.772491
-80.239449 100.358597 333.549744
-80.204559 100.858246 333.404724
-80.204559 101.401520 333.404724
-80.198540 101.937149 333.379700
-80.207687 102.492065 333.417694
-80.207687 103.035370 333.417694
-80.241783 103.622704 333.559448
-80.279297 104.214935 333.715393
-80.279297 104.758720 333.715393
-80.279297 105.302498 333.715393
-80.260422 105.821404 333.636932
-80.260422 106.365059 333.636932
-79.943291 106.486290 332.318634
-79.930145 107.010201 332.264008
-79.930145 107.551628 332.264008
-79.006378 106.843796 328.423950
-78.757813 107.041130 327.390686
-78.984688 107.884491 328.333801
-78.984688 108.419510 328.333801
-78.984688 108.954529 328.333801
-90.356659 68.799065 378.166687
-90.356659 69.415283 378.166687
-90.356659 70.031494 378.166687
-90.217278 70.538734 377.583344
-90.217278 71.154007 377.583344
-90.137634 71.705910 377.250000
-90.137634 72.320633 377.250000
-90.137634 72.935356 377.250000
-89.878792 73.338875 376.166656
-83.085953 81.961906 347.736847
-83.148834 82.590996 348.000000
-83.148834 83.158058 348.000000
-83.148834 83.725113 348.000000
-83.148834 84.292175 348.000000
-83.148834 84.859238 348.000000
-83.148834 85.426300 348.000000
-82.909897 85.746262 347.000000
-82.909897 86.311691 347.000000
-82.432030 86.376389 345.000000
-82.193100 86.686569 344.000000
-82.193100 87.247116 344.000000
-81.954163 87.552399 343.000000
-81.715233 87.854431 342.000000
-81.715233 88.411713 342.000000
-81.237366 88.448715 340.000000
-81.237366 89.002739 340.000000
-81.237366 89.556763 340.000000
-80.998428 89.845757 339.000000
-80.520561 89.864830 337.000000
-80.520561 90.413971 337.000000
-80.520561 90.963112 337.000000
-80.281631 91.240692 336.000000
-80.281631 91.788200 336.000000
-80.281631 92.335709 336.000000
-80.042694 92.606773 335.000000
-79.803764 92.874588 334.000000
-79.803764 93.418839 334.000000
-79.325897 93.400436 332.000000
-79.325897 93.941422 332.000000
-79.325897 94.482414 332.000000
-78.848030 94.450974 330.000000
-79.923233 96.284004 334.500000
-79.923233 96.829063 334.500000
-79.923233 97.374130 334.500000
-79.863495 97.846008 334.250000
-79.863495 98.390671 334.250000
-79.797791 98.853928 333.975006
-79.749405 99.337868 333.772491
-79.749405 99.881737 333.772491
-79.696182 100.358597 333.549744
-79.661537 100.858246 333.404724
-79.661537 101.401520 333.404724
-79.655556 101.937149 333.379700
-79.664635 102.492065 333.417694
-79.664635 103.035370 333.417694
-79.698502 103.622704 333.559448
-79.735764 104.214935 333.715393
-79.735764 104.758720 333.715393
-79.735764 105.302498 333.715393
-79.717010 105.821404 333.636932
-79.717010 106.365059 333.636932
-79.402031 106.486290 332.318634
-79.388977 107.010201 332.264008
-79.388977 107.551628 332.264008
-78.232422 106.518326 327.423523
-78.224579 107.041130 327.390686
-78.449921 107.884491 328.333801
-78.449921 108.419510 328.333801
-78.449921 108.954529 328.333801
-77.214378 107.765152 323.162750
-77.197548 108.268127 323.092285
-89.740730 68.799065 378.166687
-89.740730 69.415283 378.166687
-89.740730 70.031494 378.166687
-89.602295 70.538734 377.583344
-89.602295 71.154007 377.583344
-89.523193 71.705910 377.250000
-89.523193 72.320633 377.250000
-89.523193 72.935356 377.250000
-89.266106 73.338875 376.166656
-82.519577 81.961906 347.736847
-82.582031 82.590996 348.000000
-82.582031 83.158058 348.000000
-82.582031 83.725113 348.000000
-82.582031 84.292175 348.000000
-82.582031 84.859238 348.000000
-82.582031 85.426300 348.000000
-82.582031 85.993362 348.000000
-82.582031 86.560425 348.000000
-81.632813 86.126022 344.000000
-81.395508 86.434570 343.000000
-81.395508 86.993484 343.000000
-81.395508 87.552399 343.000000
-80.920891 87.597542 341.000000
-80.920891 88.153198 341.000000
-80.683594 88.448715 340.000000
-80.446289 88.740967 339.000000
-80.446289 89.293358 339.000000
-80.208984 89.580727 338.000000
-79.971672 89.864830 337.000000
-79.971672 90.413971 337.000000
-79.734375 90.693184 336.000000
-79.734375 91.240692 336.000000
-79.734375 91.788200 336.000000
-79.497070 92.060898 335.000000
-79.259766 92.330338 334.000000
-79.022461 92.596519 333.000000
-79.022461 93.139145 333.000000
-78.785156 93.400436 332.000000
-78.785156 93.941422 332.000000
-78.785156 94.482414 332.000000
-78.310547 94.450974 330.000000
-79.141113 95.996162 333.500000
-79.141113 96.539597 333.500000
-79.141113 97.083031 333.500000
-79.058052 97.524002 333.149994
-79.058052 98.066864 333.149994
-78.990425 98.525375 332.864990
-78.916031 98.974480 332.551514
-78.916031 99.516365 332.551514
-78.857918 99.984573 332.306641
-78.817741 100.474846 332.137329
-78.817741 101.016060 332.137329
-78.798477 101.532448 332.056152
-78.799812 102.075256 332.061768
-78.799812 102.616348 332.061768
-78.848740 103.221489 332.267944
-78.902557 103.833740 332.494751
-78.902557 104.375542 332.494751
-78.902557 104.917336 332.494751
-78.878708 105.427246 332.394226
-78.878708 105.968880 332.394226
-78.860764 106.486290 332.318634
-78.847809 107.010201 332.264008
-78.847809 107.551628 332.264008
-77.699135 106.518326 327.423523
-77.691345 107.041130 327.390686
-77.915146 107.884491 328.333801
-77.915146 108.419510 328.333801
-77.915146 108.954529 328.333801
-76.948044 108.130531 324.258423
-76.671310 108.268127 323.092285
-76.334839 108.317139 321.674377
-88.908752 70.476463 377.250000
-88.908752 71.091187 377.250000
-88.908752 71.705910 377.250000
-88.908752 72.320633 377.250000
-88.908752 72.935356 377.250000
-88.653435 73.338875 376.166656
-88.653435 73.951836 376.166656
-88.653435 74.564789 376.166656
-88.653435 75.177750 376.166656
-88.290100 75.480087 374.625000
-88.290100 76.090538 374.625000
-88.148689 76.578140 374.024994
-81.680321 82.253738 346.578949
-81.680321 82.818481 346.578949
-82.015228 83.725113 348.000000
-82.015228 84.292175 348.000000
-82.015228 84.859238 348.000000
-82.015228 85.426300 348.000000
-82.015228 85.993362 348.000000
-82.015228 86.560425 348.000000
-81.072525 86.126022 344.000000
-80.836845 86.434570 343.000000
-80.836845 86.993484 343.000000
-80.836845 87.552399 343.000000
-80.365494 87.597542 341.000000
-80.365494 88.153198 341.000000
-80.129822 88.448715 340.000000
-79.894142 88.740967 339.000000
-79.894142 89.293358 339.000000
-79.658470 89.580727 338.000000
-79.187119 89.598167 336.000000
-79.187119 90.145676 336.000000
-79.187119 90.693184 336.000000
-78.951439 90.969139 335.000000
-78.951439 91.515022 335.000000
-78.715759 91.786087 334.000000
-78.480095 92.053902 333.000000
-78.244415 92.318451 332.000000
-78.244415 92.859444 332.000000
-78.008736 93.119102 331.000000
-77.773056 93.375511 330.000000
-77.773056 93.913246 330.000000
-77.537384 94.164757 329.000000
-77.537384 94.700859 329.000000
-77.537384 95.236961 329.000000
-77.301712 95.481956 328.000000
-76.830353 95.430962 326.000000
-76.830353 95.962181 326.000000
-76.830353 96.493393 326.000000
-76.830353 97.024605 326.000000
-76.830353 97.555817 326.000000
-76.594681 97.786148 325.000000
-76.594681 98.315727 325.000000
-76.594681 98.845314 325.000000
-76.594681 99.374901 325.000000
-76.924622 100.334839 326.399994
-76.924622 100.866699 326.399994
-76.924622 101.398567 326.399994
-76.863358 101.849243 326.140015
-76.863358 102.380684 326.140015
-76.795944 102.821877 325.854004
-76.745377 103.284782 325.639404
-76.745377 103.815407 325.639404
-76.736870 104.334480 325.603333
-76.727524 104.852264 325.563660
-76.727524 105.382767 325.563660
-76.717247 105.899086 325.520050
-76.414375 106.009346 324.234955
-76.414375 106.537682 324.234955
-76.419914 107.073769 324.258423
-76.419914 107.602142 324.258423
-76.419914 108.130531 324.258423
-76.145081 108.268127 323.092285
-75.810913 108.317139 321.674377
-75.569725 108.495049 320.651001
-75.569725 109.017540 320.651001
-75.569725 109.540031 320.651001
-88.040756 72.112953 376.166656
-88.040756 72.725914 376.166656
-88.040756 73.338875 376.166656
-88.040756 73.951836 376.166656
-88.040756 74.564789 376.166656
-88.040756 75.177750 376.166656
-87.679932 75.480087 374.625000
-87.679932 76.090538 374.625000
-87.539505 76.578140 374.024994
-87.325607 76.999016 373.111115
-87.325607 77.606987 373.111115
-87.267105 78.162560 372.861115
-81.682472 83.965706 349.000000
-81.682472 84.534401 349.000000
-81.682472 85.103088 349.000000
-81.682472 85.671783 349.000000
-81.448425 85.993362 348.000000
-81.448425 86.560425 348.000000
-80.512238 86.126022 344.000000
-80.278191 86.434570 343.000000
-80.278191 86.993484 343.000000
-80.044144 87.297142 342.000000
-79.810089 87.597542 341.000000
-79.810089 88.153198 341.000000
-79.576050 88.448715 340.000000
-79.342003 88.740967 339.000000
-79.342003 89.293358 339.000000
-79.107956 89.580727 338.000000
-78.639862 89.598167 336.000000
-78.639862 90.145676 336.000000
-78.639862 90.693184 336.000000
-78.405815 90.969139 335.000000
-78.405815 91.515022 335.000000
-78.171761 91.786087 334.000000
-77.703674 91.777466 332.000000
-77.469620 92.040382 331.000000
-77.235573 92.300049 330.000000
-77.235573 92.837784 330.000000
-77.001534 93.092552 329.000000
-77.001534 93.628654 329.000000
-77.001534 94.164757 329.000000
-76.533432 94.125168 327.000000
-76.533432 94.658012 327.000000
-76.533432 95.190849 327.000000
-76.299385 95.430962 326.000000
-76.299385 95.962181 326.000000
-76.299385 96.493393 326.000000
-76.065346 96.726982 325.000000
-76.065346 97.256561 325.000000
-76.065346 97.786148 325.000000
-75.831291 98.013222 324.000000
-75.831291 98.541176 324.000000
-75.831291 99.069130 324.000000
-75.831291 99.597084 324.000000
-75.831291 100.125038 324.000000
-76.112152 101.025787 325.200012
-76.112152 101.555695 325.200012
-76.112152 102.085602 325.200012
-76.070015 102.558708 325.019989
-76.023674 103.025520 324.821991
-76.023674 103.554810 324.821991
-75.996109 104.046364 324.704193
-75.965782 104.533737 324.574615
-75.965782 105.062622 324.574615
-75.955818 105.577667 324.532074
-75.886284 106.009346 324.234955
-75.886284 106.537682 324.234955
-75.891769 107.073769 324.258423
-75.891769 107.602142 324.258423
-75.891769 108.130531 324.258423
-75.734489 108.433701 323.586395
-75.286987 108.317139 321.674377
-75.047470 108.495049 320.651001
-75.047470 109.017540 320.651001
-75.047470 109.540031 320.651001
-87.428070 72.112953 376.166656
-87.428070 72.725914 376.166656
-87.428070 73.338875 376.166656
-87.428070 73.951836 376.166656
-87.428070 74.564789 376.166656
-87.428070 75.177750 376.166656
-87.069763 75.480087 374.625000
-87.069763 76.090538 374.625000
-86.930313 76.578140 374.024994
-86.717911 76.999016 373.111115
-86.717911 77.606987 373.111115
-86.659805 78.162560 372.861115
-81.114037 83.965706 349.000000
-81.114037 84.534401 349.000000
-81.114037 85.103088 349.000000
-81.114037 85.671783 349.000000
-80.881630 85.993362 348.000000
-80.881630 86.560425 348.000000
-79.951950 86.126022 344.000000
-79.719528 86.434570 343.000000
-79.719528 86.993484 343.000000
-79.254692 87.041885 341.000000
-79.022278 87.340660 340.000000
-79.022278 87.894691 340.000000
-78.789856 88.188568 339.000000
-78.789856 88.740967 339.000000
-78.789856 89.293358 339.000000
-78.325020 89.315697 337.000000
-78.092606 89.598167 336.000000
-78.092606 90.145676 336.000000
-77.860184 90.423264 335.000000
-77.395348 90.426048 333.000000
-77.395348 90.968666 333.000000
-77.395348 91.511284 333.000000
-77.162926 91.777466 332.000000
-76.930511 92.040382 331.000000
-76.698090 92.300049 330.000000
-76.698090 92.837784 330.000000
-76.465675 93.092552 329.000000
-76.465675 93.628654 329.000000
-76.465675 94.164757 329.000000
-75.768417 93.837326 326.000000
-75.768417 94.368538 326.000000
-75.768417 94.899750 326.000000
-75.536003 95.138229 325.000000
-75.536003 95.667816 325.000000
-75.536003 96.197395 325.000000
-75.303581 96.429359 324.000000
-75.303581 96.957314 324.000000
-75.303581 97.485268 324.000000
-75.303581 98.013222 324.000000
-75.303581 98.541176 324.000000
-75.303581 99.069130 324.000000
-75.071159 99.289688 323.000000
-75.071159 99.816010 323.000000
-75.071159 100.342339 323.000000
-75.326820 101.212173 324.100006
-75.326820 101.740288 324.100006
-75.326820 102.268410 324.100006
-75.282661 102.736259 323.910004
-75.282661 103.264069 323.910004
-75.257324 103.756943 323.800995
-75.229462 104.245956 323.681091
-75.229462 104.773392 323.681091
-75.222046 105.290451 323.649200
-75.213898 105.806366 323.614136
-75.213898 106.333694 323.614136
-75.204926 106.848274 323.575531
-75.207451 107.379143 323.586395
-75.207451 107.906425 323.586395
-75.207451 108.433701 323.586395
-74.827858 108.411026 321.953186
-74.826775 108.934059 321.948486
-74.826775 109.458672 321.948486
-74.525215 109.540031 320.651001
-74.084579 109.411789 318.755157
-74.084579 109.931198 318.755157
-86.815399 72.112953 376.166656
-86.815399 72.725914 376.166656
-86.815399 73.338875 376.166656
-86.815399 73.951836 376.166656
-86.815399 74.564789 376.166656
-86.815399 75.177750 376.166656
-86.110214 76.391029 373.111115
-86.110214 76.999016 373.111115
-86.815399 78.242538 376.166656
-86.815399 78.855499 376.166656
-86.815399 79.468460 376.166656
-86.815399 80.081413 376.166656
-86.815399 80.694382 376.166656
-86.299965 80.824608 373.933319
-83.613281 80.079430 362.292053
-83.613281 80.669785 362.292053
-83.613281 81.260132 362.292053
-80.752525 83.041100 349.896545
-80.752525 83.611259 349.896545
-80.752525 84.181404 349.896545
-80.545609 84.534401 349.000000
-80.545609 85.103088 349.000000
-80.545609 85.671783 349.000000
-80.314827 85.993362 348.000000
-80.314827 86.560425 348.000000
-79.391663 86.126022 344.000000
-79.160873 86.434570 343.000000
-79.160873 86.993484 343.000000
-78.699287 87.041885 341.000000
-78.468506 87.340660 340.000000
-78.468506 87.894691 340.000000
-78.237717 88.188568 339.000000
-78.006920 88.479187 338.000000
-78.006920 89.029961 338.000000
-77.545349 89.050659 336.000000
-77.314552 89.331505 335.000000
-77.314552 89.877388 335.000000
-76.852982 89.883423 333.000000
-76.852982 90.426048 333.000000
-76.852982 90.968666 333.000000
-76.622185 91.236473 332.000000
-76.391396 91.501022 331.000000
-76.391396 92.040382 331.000000
-76.160606 92.300049 330.000000
-75.929817 92.556458 329.000000
-75.699028 92.809601 328.000000
-75.699028 93.344070 328.000000
-75.468239 93.592323 327.000000
-75.237442 93.837326 326.000000
-75.237442 94.368538 326.000000
-75.237442 94.899750 326.000000
-75.006660 95.138229 325.000000
-75.006660 95.667816 325.000000
-75.006660 96.197395 325.000000
-74.775871 96.429359 324.000000
-74.775871 96.957314 324.000000
-74.775871 97.485268 324.000000
-74.775871 98.013222 324.000000
-74.775871 98.541176 324.000000
-74.775871 99.069130 324.000000
-74.545074 99.289688 323.000000
-74.545074 99.816010 323.000000
-74.545074 100.342339 323.000000
-74.798950 101.212173 324.100006
-74.798950 101.740288 324.100006
-74.798950 102.268410 324.100006
-74.755096 102.736259 323.910004
-74.755096 103.264069 323.910004
-74.729942 103.756943 323.800995
-74.702271 104.245956 323.681091
-74.702271 104.773392 323.681091
-74.694908 105.290451 323.649200
-74.686813 105.806366 323.614136
-74.686813 106.333694 323.614136
-74.677902 106.848274 323.575531
-74.680412 107.379143 323.586395
-74.680412 107.906425 323.586395
-74.680412 108.433701 323.586395
-74.303482 108.411026 321.953186
-74.302399 108.934059 321.948486
-74.302399 109.458672 321.948486
-73.964714 109.483421 320.485291
-73.565414 109.411789 318.755157
-73.565414 109.931198 318.755157
-73.441017 110.263847 318.216156
-86.202721 72.112953 376.166656
-86.202721 72.725914 376.166656
-86.202721 73.338875 376.166656
-86.202721 73.951836 376.166656
-86.202721 74.564789 376.166656
-86.202721 75.177750 376.166656
-86.202721 78.242538 376.166656
-86.202721 78.855499 376.166656
-86.202721 79.468460 376.166656
-86.202721 80.081413 376.166656
-86.202721 80.694382 376.166656
-86.202721 81.307343 376.166656
-86.202721 81.920296 376.166656
-86.202721 82.533257 376.166656
-84.354156 81.363190 368.100006
-83.023201 80.669785 362.292053
-83.023201 81.260132 362.292053
-80.273766 79.139885 350.294220
-80.278610 79.715492 350.315369
-80.278610 80.286331 350.315369
-80.278610 80.857170 350.315369
-79.997200 81.142563 349.087372
-79.997200 81.711395 349.087372
-79.764702 82.041100 348.072815
-80.182632 83.041100 349.896545
-80.182632 83.611259 349.896545
-80.182632 84.181404 349.896545
-79.977180 84.534401 349.000000
-79.977180 85.103088 349.000000
-79.748024 85.426300 348.000000
-79.748024 85.993362 348.000000
-79.748024 86.560425 348.000000
-78.724312 86.009056 343.532806
-78.495132 86.316818 342.532715
-78.495132 86.874969 342.532715
-78.143890 87.041885 341.000000
-77.914734 87.340660 340.000000
-77.914734 87.894691 340.000000
-77.685570 88.188568 339.000000
-77.456406 88.479187 338.000000
-77.456406 89.029961 338.000000
-76.998093 89.050659 336.000000
-76.768929 89.331505 335.000000
-76.768929 89.877388 335.000000
-76.310608 89.883423 333.000000
-76.081444 90.154495 332.000000
-76.081444 90.695480 332.000000
-75.852280 90.961662 331.000000
-75.623123 91.224586 330.000000
-75.623123 91.762321 330.000000
-75.393967 92.020355 329.000000
-75.164803 92.275124 328.000000
-74.935638 92.526642 327.000000
-74.935638 93.059479 327.000000
-74.706474 93.306114 326.000000
-74.706474 93.837326 326.000000
-74.706474 94.368538 326.000000
-74.477318 94.608650 325.000000
-74.248154 94.845497 324.000000
-74.248154 95.373451 324.000000
-74.248154 95.901405 324.000000
-74.248154 96.429359 324.000000
-74.248154 96.957314 324.000000
-74.018997 97.184387 323.000000
-74.018997 97.710716 323.000000
-74.018997 98.237038 323.000000
-74.018997 98.763359 323.000000
-74.018997 99.289688 323.000000
-74.018997 99.816010 323.000000
-74.018997 100.342339 323.000000
-73.789833 100.556374 322.000000
-73.789833 101.081070 322.000000
-73.789833 101.605759 322.000000
-73.560677 101.813278 321.000000
-73.560677 102.336342 321.000000
-73.904419 103.340065 322.500000
-73.904419 103.865570 322.500000
-73.904419 104.391083 322.500000
-73.870041 104.867798 322.350006
-73.855148 105.371803 322.285004
-73.855148 105.896965 322.285004
-73.838760 106.398514 322.213501
-73.820740 106.897461 322.134857
-73.820740 107.422379 322.134857
-73.800911 107.918297 322.048340
-73.779106 108.411026 321.953186
-73.778030 108.934059 321.948486
-73.778030 109.458672 321.948486
-73.442726 109.483421 320.485291
-73.046242 109.411789 318.755157
-73.046242 109.931198 318.755157
-72.922722 110.263847 318.216156
-85.590034 72.112953 376.166656
-85.590034 72.725914 376.166656
-85.590034 73.338875 376.166656
-85.590034 73.951836 376.166656
-85.590034 74.564789 376.166656
-85.590034 75.177750 376.166656
-85.590034 78.242538 376.166656
-85.590034 78.855499 376.166656
-85.590034 79.468460 376.166656
-85.590034 80.081413 376.166656
-85.590034 80.694382 376.166656
-85.590034 81.307343 376.166656
-85.590034 81.920296 376.166656
-85.590034 82.533257 376.166656
-83.754616 81.363190 368.100006
-82.433121 80.669785 362.292053
-82.433121 81.260132 362.292053
-79.703224 79.139885 350.294220
-79.708038 79.715492 350.315369
-79.708038 80.286331 350.315369
-79.708038 80.857170 350.315369
-79.428627 81.142563 349.087372
-79.428627 81.711395 349.087372
-79.197784 82.041100 348.072815
-79.612740 83.041100 349.896545
-79.612740 83.611259 349.896545
-79.612740 84.181404 349.896545
-79.408745 84.534401 349.000000
-79.408745 85.103088 349.000000
-79.181221 85.426300 348.000000
-78.953690 85.746262 347.000000
-78.953690 86.311691 347.000000
-78.164787 86.009056 343.532806
-77.937233 86.316818 342.532715
-77.937233 86.874969 342.532715
-77.588486 87.041885 341.000000
-77.133430 87.083778 339.000000
-77.133430 87.636169 339.000000
-76.905891 87.928421 338.000000
-76.450829 87.955650 336.000000
-76.450829 88.503159 336.000000
-76.223297 88.785629 335.000000
-75.768234 88.798187 333.000000
-75.768234 89.340805 333.000000
-75.768234 89.883423 333.000000
-75.540703 90.154495 332.000000
-75.540703 90.695480 332.000000
-75.313171 90.961662 331.000000
-75.085632 91.224586 330.000000
-75.085632 91.762321 330.000000
-74.858109 92.020355 329.000000
-74.630577 92.275124 328.000000
-74.175507 92.243690 326.000000
-74.175507 92.774902 326.000000
-74.175507 93.306114 326.000000
-73.947975 93.549477 325.000000
-73.947975 94.079063 325.000000
-73.947975 94.608650 325.000000
-73.720444 94.845497 324.000000
-73.720444 95.373451 324.000000
-73.492912 95.605415 323.000000
-73.492912 96.131737 323.000000
-73.492912 96.658066 323.000000
-73.492912 97.184387 323.000000
-73.492912 97.710716 323.000000
-73.492912 98.237038 323.000000
-73.492912 98.763359 323.000000
-73.265373 98.982285 322.000000
-73.265373 99.506981 322.000000
-73.265373 100.031677 322.000000
-73.037849 100.244080 321.000000
-73.037849 100.767151 321.000000
-73.037849 101.290215 321.000000
-73.037849 101.813278 321.000000
-73.037849 102.336342 321.000000
-72.810318 102.538979 320.000000
-72.810318 103.060417 320.000000
-72.810318 103.581848 320.000000
-73.083359 104.493675 321.200012
-73.083359 105.017067 321.200012
-73.083359 105.540459 321.200012
-73.042397 106.004402 321.019989
-72.997345 106.461800 320.821991
-72.997345 106.984581 320.821991
-72.970543 107.467873 320.704193
-72.941063 107.946831 320.574615
-72.931374 108.454811 320.532074
-72.931374 108.977112 320.532074
-72.920731 109.483421 320.485291
-72.669769 109.627060 319.382294
-72.669769 110.147491 319.382294
-72.404434 110.263847 318.216156
-72.355682 110.707779 318.001892
-72.355682 111.225952 318.001892
-84.977364 73.338875 376.166656
-84.977364 73.951836 376.166656
-84.977364 74.564789 376.166656
-84.977364 75.177750 376.166656
-84.977364 81.307343 376.166656
-84.977364 81.920296 376.166656
-84.977364 82.533257 376.166656
-83.155075 81.363190 368.100006
-79.106171 77.972145 350.176849
-79.106171 78.542763 350.176849
-79.132690 79.139885 350.294220
-79.137466 79.715492 350.315369
-79.137466 80.286331 350.315369
-79.137466 80.857170 350.315369
-78.860062 81.142563 349.087372
-78.860062 81.711395 349.087372
-78.630867 82.041100 348.072815
-78.468758 82.437965 347.355225
-78.468758 83.003983 347.355225
-78.306931 83.397644 346.638855
-78.614418 84.292175 348.000000
-78.614418 84.859238 348.000000
-78.614418 85.426300 348.000000
-78.388512 85.746262 347.000000
-78.388512 86.311691 347.000000
-77.605263 86.009056 343.532806
-77.379333 86.316818 342.532715
-77.379333 86.874969 342.532715
-76.807190 86.786636 340.000000
-76.581284 87.083778 339.000000
-76.581284 87.636169 339.000000
-76.129471 87.668282 337.000000
-75.903572 87.955650 336.000000
-75.903572 88.503159 336.000000
-75.451767 88.520599 334.000000
-75.225868 88.798187 333.000000
-75.225868 89.340805 333.000000
-74.999962 89.613503 332.000000
-74.774055 89.882942 331.000000
-74.774055 90.422302 331.000000
-74.548149 90.686859 330.000000
-74.322250 90.948151 329.000000
-74.322250 91.484253 329.000000
-74.096344 91.740654 328.000000
-73.870438 91.993797 327.000000
-73.644539 92.243690 326.000000
-73.644539 92.774902 326.000000
-73.644539 93.306114 326.000000
-73.418640 93.549477 325.000000
-73.418640 94.079063 325.000000
-73.418640 94.608650 325.000000
-73.192734 94.845497 324.000000
-73.192734 95.373451 324.000000
-72.966827 95.605415 323.000000
-72.966827 96.131737 323.000000
-72.966827 96.658066 323.000000
-72.966827 97.184387 323.000000
-72.966827 97.710716 323.000000
-72.966827 98.237038 323.000000
-72.966827 98.763359 323.000000
-72.740921 98.982285 322.000000
-72.740921 99.506981 322.000000
-72.740921 100.031677 322.000000
-72.289116 99.931801 320.000000
-72.289116 100.453239 320.000000
-72.289116 100.974670 320.000000
-72.289116 101.496109 320.000000
-72.289116 102.017548 320.000000
-72.289116 102.538979 320.000000
-72.063210 102.738350 319.000000
-72.063210 103.258156 319.000000
-72.063210 103.777962 319.000000
-72.266525 104.592026 319.899994
-72.266525 105.113297 319.899994
-72.266525 105.634567 319.899994
-72.241684 106.119347 319.790009
-72.241684 106.640434 319.790009
-72.214340 107.120987 319.669006
-72.184273 107.597061 319.535889
-72.173798 108.102036 319.489502
-72.173798 108.622643 319.489502
-72.162262 109.125816 319.438446
-72.149574 109.627060 319.382294
-72.149574 110.147491 319.382294
-71.856316 110.218094 318.084137
-71.837738 110.707779 318.001892
-71.837738 111.225952 318.001892
-71.425987 111.103653 316.179199
-71.269592 111.374466 315.486908
-71.269592 111.888542 315.486908
-84.364685 73.338875 376.166656
-84.364685 73.951836 376.166656
-84.364685 74.564789 376.166656
-84.364685 75.177750 376.166656
-77.242683 82.861633 344.410950
-77.242683 83.422844 344.410950
-77.242683 83.984062 344.410950
-77.050392 84.334808 343.553589
-76.866806 84.692345 342.734985
-76.866806 85.250824 342.734985
-76.456818 85.351631 340.906952
-76.254654 85.679970 340.005524
-76.254654 86.234009 340.005524
-76.253418 86.786636 340.000000
-76.029144 87.083778 339.000000
-76.029144 87.636169 339.000000
-75.580589 87.668282 337.000000
-75.356316 87.955650 336.000000
-75.356316 88.503159 336.000000
-74.683495 88.255569 333.000000
-74.459221 88.531525 332.000000
-74.459221 89.072517 332.000000
-74.459221 89.613503 332.000000
-74.234940 89.882942 331.000000
-74.234940 90.422302 331.000000
-74.010666 90.686859 330.000000
-73.562119 90.671707 328.000000
-73.562119 91.206184 328.000000
-73.337845 91.460953 327.000000
-73.337845 91.993797 327.000000
-73.113564 92.243690 326.000000
-73.113564 92.774902 326.000000
-72.889297 93.019897 325.000000
-72.889297 93.549477 325.000000
-72.889297 94.079063 325.000000
-72.665016 94.317543 324.000000
-72.440742 94.552765 323.000000
-72.440742 95.079094 323.000000
-72.440742 95.605415 323.000000
-72.440742 96.131737 323.000000
-72.440742 96.658066 323.000000
-72.216469 96.883507 322.000000
-72.216469 97.408203 322.000000
-72.216469 97.932899 322.000000
-71.992195 98.151817 321.000000
-71.992195 98.674889 321.000000
-71.992195 99.197952 321.000000
-71.992195 99.721016 321.000000
-71.767921 99.931801 320.000000
-71.767921 100.453239 320.000000
-71.767921 100.974670 320.000000
-71.767921 101.496109 320.000000
-71.767921 102.017548 320.000000
-71.767921 102.538979 320.000000
-71.543640 102.738350 319.000000
-71.543640 103.258156 319.000000
-71.543640 103.777962 319.000000
-71.745491 104.592026 319.899994
-71.745491 105.113297 319.899994
-71.745491 105.634567 319.899994
-71.720825 106.119347 319.790009
-71.720825 106.640434 319.790009
-71.693687 107.120987 319.669006
-71.663834 107.597061 319.535889
-71.653435 108.102036 319.489502
-71.653435 108.622643 319.489502
-71.641975 109.125816 319.438446
-71.629379 109.627060 319.382294
-71.629379 110.147491 319.382294
-71.338242 110.218094 318.084137
-71.319794 110.707779 318.001892
-71.319794 111.225952 318.001892
-70.911011 111.103653 316.179199
-70.755745 111.374466 315.486908
-70.755745 111.888542 315.486908
-70.368507 111.787468 313.760284
-83.752007 73.338875 376.166656
-83.752007 73.951836 376.166656
-83.752007 74.564789 376.166656
-83.752007 75.177750 376.166656
-76.196907 84.010735 342.233429
-76.196907 84.568405 342.233429
-76.196907 85.126068 342.233429
-75.718033 85.145233 340.082581
-75.497505 85.449799 339.092102
-75.497505 86.002342 339.092102
-75.288841 86.315666 338.154907
-75.254349 86.826889 338.000000
-75.254349 87.377655 338.000000
-74.809059 87.408142 336.000000
-74.809059 87.955650 336.000000
-74.809059 88.503159 336.000000
-74.141121 88.255569 333.000000
-73.918480 88.531525 332.000000
-73.918480 89.072517 332.000000
-73.918480 89.613503 332.000000
-73.695831 89.882942 331.000000
-73.695831 90.422302 331.000000
-73.473183 90.686859 330.000000
-72.805244 90.395271 327.000000
-72.805244 90.928116 327.000000
-72.805244 91.460953 327.000000
-72.582596 91.712479 326.000000
-72.359955 91.960732 325.000000
-72.359955 92.490311 325.000000
-72.359955 93.019897 325.000000
-72.137306 93.261635 324.000000
-72.137306 93.789589 324.000000
-71.914658 94.026443 323.000000
-71.914658 94.552765 323.000000
-71.914658 95.079094 323.000000
-71.692009 95.309425 322.000000
-71.469368 95.536491 321.000000
-71.469368 96.059563 321.000000
-71.469368 96.582626 321.000000
-71.246719 96.803185 320.000000
-71.246719 97.324623 320.000000
-71.246719 97.846054 320.000000
-71.246719 98.367493 320.000000
-71.246719 98.888931 320.000000
-71.246719 99.410362 320.000000
-71.246719 99.931801 320.000000
-71.246719 100.453239 320.000000
-71.246719 100.974670 320.000000
-71.024078 101.178932 319.000000
-71.024078 101.698738 319.000000
-71.024078 102.218544 319.000000
-71.024078 102.738350 319.000000
-71.024078 103.258156 319.000000
-70.578789 103.127312 317.000000
-70.578789 103.643860 317.000000
-70.578789 104.160408 317.000000
-70.979546 105.271339 318.799988
-70.979546 105.790810 318.799988
-70.979546 106.310295 318.799988
-70.952827 106.789566 318.679993
-70.923447 107.264404 318.548004
-70.891113 107.734344 318.402802
-70.891113 108.253181 318.402802
-70.855553 108.717445 318.243073
-70.838699 109.210037 318.167389
-70.838699 109.728493 318.167389
-70.820168 110.218094 318.084137
-70.493202 110.225159 316.615601
-70.493202 110.741081 316.615601
-70.484634 111.243484 316.577148
-70.241905 111.374466 315.486908
-70.241905 111.888542 315.486908
-69.857475 111.787468 313.760284
-83.139328 73.338875 376.166656
-83.139328 73.951836 376.166656
-83.139328 74.564789 376.166656
-83.139328 75.177750 376.166656
-83.139328 81.307343 376.166656
-83.139328 81.920296 376.166656
-83.139328 82.533257 376.166656
-75.639496 84.010735 342.233429
-75.639496 84.568405 342.233429
-75.639496 85.126068 342.233429
-74.776871 84.706566 338.330475
-74.776871 85.257874 338.330475
-74.776871 85.809174 338.330475
-74.534996 86.081131 337.236084
-74.309868 86.368988 336.217468
-74.309868 86.916847 336.217468
-74.261803 87.408142 336.000000
-74.040787 87.693871 335.000000
-74.040787 88.239754 335.000000
-73.598755 88.255569 333.000000
-73.377731 88.531525 332.000000
-73.377731 89.072517 332.000000
-73.156715 89.343582 331.000000
-72.935699 89.611397 330.000000
-72.935699 90.149132 330.000000
-72.714684 90.412048 329.000000
-72.272644 90.395271 327.000000
-72.272644 90.928116 327.000000
-72.272644 91.460953 327.000000
-72.051628 91.712479 326.000000
-71.830612 91.960732 325.000000
-71.830612 92.490311 325.000000
-71.830612 93.019897 325.000000
-71.609596 93.261635 324.000000
-71.609596 93.789589 324.000000
-71.388573 94.026443 323.000000
-71.388573 94.552765 323.000000
-71.388573 95.079094 323.000000
-71.167557 95.309425 322.000000
-70.725525 95.238876 320.000000
-70.725525 95.760315 320.000000
-70.725525 96.281746 320.000000
-70.504509 96.500671 319.000000
-70.504509 97.020477 319.000000
-70.504509 97.540283 319.000000
-70.504509 98.060089 319.000000
-70.504509 98.579895 319.000000
-70.283493 98.789047 318.000000
-70.283493 99.307220 318.000000
-70.283493 99.825401 318.000000
-70.283493 100.343575 318.000000
-70.283493 100.861755 318.000000
-70.283493 101.379929 318.000000
-70.062477 101.577675 317.000000
-70.062477 102.094215 317.000000
-70.062477 102.610764 317.000000
-70.062477 103.127312 317.000000
-69.841454 103.316917 316.000000
-69.841454 103.831833 316.000000
-69.841454 104.346748 316.000000
-70.084579 105.226692 317.100006
-70.084579 105.743408 317.100006
-70.084579 106.260109 317.100006
-70.064690 106.746521 317.010010
-70.042801 107.229584 316.911011
-70.042801 107.745995 316.911011
-70.018738 108.225182 316.802094
-69.992264 108.700287 316.682312
-69.992264 109.216324 316.682312
-69.985237 109.721336 316.650543
-69.977516 110.225159 316.615601
-69.977516 110.741081 316.615601
-69.969017 111.243484 316.577148
-69.552620 111.094246 314.693146
-69.552620 111.607040 314.693146
-69.346443 111.787468 313.760284
-68.955765 111.666069 311.992645
-68.955765 112.174454 311.992645
-82.526649 73.338875 376.166656
-82.526649 73.951836 376.166656
-82.526649 74.564789 376.166656
-82.526649 81.307343 376.166656
-82.526649 81.920296 376.166656
-82.526649 82.533257 376.166656
-80.756920 81.363190 368.100006
-78.153748 79.320961 356.234436
-78.153748 79.901443 356.234436
-78.153748 80.481918 356.234436
-74.225822 84.706566 338.330475
-74.225822 85.257874 338.330475
-74.225822 85.809174 338.330475
-73.985725 86.081131 337.236084
-73.762260 86.368988 336.217468
-73.762260 86.916847 336.217468
-73.714546 87.408142 336.000000
-73.495155 87.693871 335.000000
-73.495155 88.239754 335.000000
-73.056381 88.255569 333.000000
-72.836990 88.531525 332.000000
-72.836990 89.072517 332.000000
-72.617599 89.343582 331.000000
-72.398209 89.611397 330.000000
-72.398209 90.149132 330.000000
-72.178825 90.412048 329.000000
-71.740044 90.395271 327.000000
-71.740044 90.928116 327.000000
-71.520660 91.181259 326.000000
-71.520660 91.712479 326.000000
-71.301270 91.960732 325.000000
-71.301270 92.490311 325.000000
-71.081886 92.733681 324.000000
-70.862495 92.973793 323.000000
-70.862495 93.500114 323.000000
-70.862495 94.026443 323.000000
-70.423721 93.967300 321.000000
-70.423721 94.490364 321.000000
-70.423721 95.013428 321.000000
-70.204330 95.238876 320.000000
-70.204330 95.760315 320.000000
-70.204330 96.281746 320.000000
-69.984940 96.500671 319.000000
-69.984940 97.020477 319.000000
-69.984940 97.540283 319.000000
-69.984940 98.060089 319.000000
-69.984940 98.579895 319.000000
-69.765556 98.789047 318.000000
-69.765556 99.307220 318.000000
-69.765556 99.825401 318.000000
-69.765556 100.343575 318.000000
-69.765556 100.861755 318.000000
-69.765556 101.379929 318.000000
-69.546165 101.577675 317.000000
-69.546165 102.094215 317.000000
-69.546165 102.610764 317.000000
-69.546165 103.127312 317.000000
-69.326775 103.316917 316.000000
-69.326775 103.831833 316.000000
-69.326775 104.346748 316.000000
-69.568100 105.226692 317.100006
-69.568100 105.743408 317.100006
-69.568100 106.260109 317.100006
-69.548363 106.746521 317.010010
-69.526642 107.229584 316.911011
-69.526642 107.745995 316.911011
-69.502739 108.225182 316.802094
-69.476463 108.700287 316.682312
-69.476463 109.216324 316.682312
-69.469498 109.721336 316.650543
-69.461830 110.225159 316.615601
-69.461830 110.741081 316.615601
-69.453392 111.243484 316.577148
-69.040062 111.094246 314.693146
-69.040062 111.607040 314.693146
-68.888000 111.872871 314.000000
-68.447609 111.666069 311.992645
-68.447609 112.174454 311.992645
-68.247032 112.352646 311.078400
-81.913971 73.338875 376.166656
-81.913971 73.951836 376.166656
-81.913971 74.564789 376.166656
-81.913971 81.307343 376.166656
-81.913971 81.920296 376.166656
-81.913971 82.533257 376.166656
-80.157379 81.363190 368.100006
-78.892639 80.669785 362.292053
-78.892639 81.260132 362.292053
-77.573532 80.481918 356.234436
-73.329292 84.858078 336.743958
-73.329292 85.406792 336.743958
-73.329292 85.955513 336.743958
-73.090652 86.222717 335.648071
-73.090652 86.769653 335.648071
-72.949524 87.147995 335.000000
-72.949524 87.693871 335.000000
-72.949524 88.239754 335.000000
-72.514008 88.255569 333.000000
-72.296249 88.531525 332.000000
-72.296249 89.072517 332.000000
-72.078491 89.343582 331.000000
-71.860725 89.611397 330.000000
-71.860725 90.149132 330.000000
-71.642975 90.412048 329.000000
-71.207451 90.395271 327.000000
-71.207451 90.928116 327.000000
-70.989685 91.181259 326.000000
-70.771935 91.431145 325.000000
-70.554169 91.677773 324.000000
-70.554169 92.205727 324.000000
-70.336411 92.447472 323.000000
-70.336411 92.973793 323.000000
-70.336411 93.500114 323.000000
-69.900894 93.444229 321.000000
-69.683128 93.674568 320.000000
-69.683128 94.196007 320.000000
-69.683128 94.717438 320.000000
-69.683128 95.238876 320.000000
-69.683128 95.760315 320.000000
-69.465370 95.980865 319.000000
-69.247612 96.198158 318.000000
-69.247612 96.716339 318.000000
-69.247612 97.234512 318.000000
-69.029854 97.445290 317.000000
-69.029854 97.961838 317.000000
-69.029854 98.478386 317.000000
-69.029854 98.994934 317.000000
-69.029854 99.511482 317.000000
-69.029854 100.028030 317.000000
-69.029854 100.544579 317.000000
-69.029854 101.061127 317.000000
-69.029854 101.577675 317.000000
-68.812088 101.772163 316.000000
-68.812088 102.287079 316.000000
-68.812088 102.801994 316.000000
-68.594330 102.989960 315.000000
-68.594330 103.503250 315.000000
-68.594330 104.016541 315.000000
-68.594330 104.529823 315.000000
-68.594330 105.043114 315.000000
-68.376572 105.221298 314.000000
-68.376572 105.732964 314.000000
-68.659660 106.684486 315.299988
-68.659660 107.198257 315.299988
-68.659660 107.712044 315.299988
-68.622643 108.167473 315.130005
-68.622643 108.680962 315.130005
-68.581917 109.129669 314.942993
-68.558907 109.606064 314.837311
-68.558907 110.119102 314.837311
-68.533585 110.591255 314.721039
-68.527512 111.094246 314.693146
-68.527512 111.607040 314.693146
-68.376572 111.872871 314.000000
-67.939445 111.666069 311.992645
-67.939445 112.174454 311.992645
-67.740364 112.352646 311.078400
-67.504028 112.465790 309.993073
-67.504028 112.970917 309.993073
-79.557838 80.163567 368.100006
-79.557838 80.763382 368.100006
-79.557838 81.363190 368.100006
-78.302559 80.669785 362.292053
-78.302559 81.260132 362.292053
-76.993317 80.481918 356.234436
-72.693695 84.756485 336.340820
-72.693695 85.304550 336.340820
-72.693695 85.852608 336.340820
-72.460159 86.123108 335.260315
-72.460159 86.669418 335.260315
-72.403900 87.147995 335.000000
