-20.092823 104.538803 303.119446
-20.087944 105.007233 303.045837
-20.086082 105.491264 303.017761
-20.086082 105.985031 303.017761
-20.089998 106.499542 303.076813
-20.090563 106.996407 303.085327
-20.090563 107.490280 303.085327
-20.090658 107.984665 303.086761
-20.124737 108.662552 303.600891
-20.124737 109.157272 303.600891
-20.127764 109.668472 303.646545
-20.128813 110.169006 303.662354
-20.128813 110.663811 303.662354
-20.162785 111.346230 304.174866
-20.162785 111.841888 304.174866
-20.162785 112.337532 304.174866
-20.277050 113.472626 305.898682
-20.277050 113.971092 305.898682
-20.277050 114.469551 305.898682
-20.287340 115.026352 306.053925
-20.403181 116.184700 307.801483
-20.403181 116.686264 307.801483
-20.411530 117.235771 307.927429
-20.411530 117.737541 307.927429
-20.411530 118.239304 307.927429
-20.299267 118.087997 306.233826
-20.322035 118.720009 306.577301
-20.331844 119.277122 306.725311
-20.331844 119.776932 306.725311
-20.344604 120.352203 306.917786
-20.353203 120.903404 307.047516
-20.353203 121.403732 307.047516
-20.353203 121.904060 307.047516
-20.347464 122.369865 306.960907
-20.347464 122.870056 306.960907
-20.354713 177.954239 307.070313
-20.354715 178.454636 307.070343
-20.354715 178.955002 307.070343
-20.354715 179.455368 307.070343
-20.354713 183.958633 307.070282
-20.354713 184.459000 307.070282
-20.354713 184.959366 307.070282
-20.354713 185.459732 307.070282
-20.354713 185.960098 307.070282
-20.354713 186.460464 307.070282
-25.518389 85.949165 394.666656
-25.518389 86.592270 394.666656
-25.518389 87.235367 394.666656
-25.469893 87.711479 393.916656
-25.469893 88.353355 393.916656
-25.474945 89.012894 393.994781
-25.474945 89.654907 393.994781
-25.474945 90.296906 393.994781
-18.822685 70.512619 291.111115
-18.822685 70.986984 291.111115
-19.935202 75.685066 308.317261
-20.439655 78.115372 316.119141
-20.439655 78.630478 316.119141
-20.439655 79.145592 316.119141
-20.260172 78.961197 313.343262
-20.260172 79.471786 313.343262
-20.211575 79.790520 312.591644
-20.211575 80.299881 312.591644
-20.211575 80.809250 312.591644
-19.961512 80.312515 308.724182
-19.656981 79.582664 304.014313
-19.656981 80.078049 304.014313
-19.237640 78.854576 297.528809
-19.147568 78.967918 296.135742
-19.147568 79.450470 296.135742
-18.880159 78.816696 292.000000
-18.880159 79.292511 292.000000
-18.880159 79.768318 292.000000
-18.815500 79.969322 291.000000
-18.750843 80.167061 290.000000
-18.750843 80.639610 290.000000
-18.750843 81.112160 290.000000
-19.346708 84.177330 299.215668
-19.346708 84.664894 299.215668
-19.346708 85.152466 299.215668
-19.322346 85.532181 298.838837
-19.340590 86.100365 299.121033
-19.340590 86.587776 299.121033
-19.350044 87.117752 299.267242
-19.350044 87.605400 299.267242
-19.350044 88.093056 299.267242
-19.081278 87.350342 295.110504
-19.451763 89.536575 300.840424
-19.451763 90.026787 300.840424
-19.451763 90.517006 300.840424
-19.539473 91.417580 302.196930
-19.539473 91.909996 302.196930
-19.558954 92.494560 302.498230
-19.579159 93.083534 302.810730
-19.579159 93.576958 302.810730
-19.596889 94.155571 303.084930
-19.611347 94.719276 303.308533
-19.611347 95.213509 303.308533
-19.623438 95.766754 303.495544
-19.646723 96.375526 303.855682
-19.646723 96.870659 303.855682
-19.680685 97.534088 304.380920
-19.680685 98.030075 304.380920
-19.680685 98.526054 304.380920
-19.554361 98.386444 302.427185
-19.590858 99.063805 302.991669
-19.590858 99.557526 302.991669
-19.595997 100.077492 303.071136
-19.599701 100.590347 303.128418
-19.601755 101.094894 303.160187
-19.601755 101.588890 303.160187
-19.602242 102.085419 303.167725
-19.602242 102.579422 303.167725
-19.602242 103.073433 303.167725
-19.601332 103.562637 303.153656
-19.599121 104.044884 303.119446
-19.599121 104.538803 303.119446
-19.594360 105.007233 303.045837
-19.592546 105.491264 303.017761
-19.592546 105.985031 303.017761
-19.596365 106.499542 303.076813
-19.596914 106.996407 303.085327
-19.596914 107.490280 303.085327
-19.597008 107.984665 303.086761
-19.630251 108.662552 303.600891
-19.630251 109.157272 303.600891
-19.633202 109.668472 303.646545
-19.634224 110.169006 303.662354
-19.634224 110.663811 303.662354
-19.667362 111.346230 304.174866
-19.667362 111.841888 304.174866
-19.667362 112.337532 304.174866
-19.778820 113.472626 305.898682
-19.778820 113.971092 305.898682
-19.778820 114.469551 305.898682
-19.788858 115.026352 306.053925
-19.800055 115.590424 306.227081
-19.800055 116.089417 306.227081
-19.803982 116.611526 306.287811
-19.803982 117.110619 306.287811
-19.803982 117.609711 306.287811
-19.800489 118.087997 306.233826
-19.822699 118.720009 306.577301
-19.832268 119.277122 306.725311
-19.832268 119.776932 306.725311
-19.844715 120.352203 306.917786
-19.853102 120.903404 307.047516
-19.853102 121.403732 307.047516
-19.853102 121.904060 307.047516
-19.847504 122.369865 306.960907
-19.847504 122.870056 306.960907
-19.854576 177.954239 307.070313
-19.854578 178.454636 307.070343
-19.854578 178.955002 307.070343
-19.854578 179.455368 307.070343
-19.854574 183.958633 307.070282
-19.854574 184.459000 307.070282
-19.854574 184.959366 307.070282
-19.854574 185.459732 307.070282
-19.854574 185.960098 307.070282
-19.854574 186.460464 307.070282
-18.348541 70.512619 291.111115
-18.348541 70.986984 291.111115
-19.433033 75.685066 308.317261
-19.924778 78.115372 316.119141
-19.924778 78.630478 316.119141
-19.924778 79.145592 316.119141
-19.749819 78.961197 313.343262
-19.749819 79.471786 313.343262
-19.669333 79.656425 312.066315
-19.669333 80.164932 312.066315
-19.669333 80.673447 312.066315
-19.555132 80.710609 310.254456
-19.555132 81.216164 310.254456
-19.555132 81.721718 310.254456
-19.136353 80.466354 303.610260
-19.047432 80.584877 302.199463
-19.047432 81.077309 302.199463
-19.562662 83.776192 310.373932
-19.610657 84.488724 311.135406
-19.610657 84.995712 311.135406
-19.610657 85.502701 311.135406
-19.311590 84.698021 306.390503
-19.311590 85.197281 306.390503
-18.278507 81.112160 290.000000
-19.284899 86.076660 305.967010
-19.284899 86.575233 305.967010
-19.284899 87.073799 305.967010
-19.093075 86.701309 302.923645
-19.096638 87.211182 302.980133
-19.096638 87.704887 302.980133
-19.098387 88.206673 303.007904
-19.098387 88.700417 303.007904
-19.098387 89.194168 303.007904
-19.070024 89.554726 302.557922
-19.020761 89.815125 301.776337
-19.020761 90.306854 301.776337
-18.961773 90.517006 300.840424
-18.991619 91.150467 301.313965
-18.991619 91.641457 301.313965
-19.062931 92.478394 302.445374
-19.062931 92.971222 302.445374
-19.062931 93.464050 302.445374
-19.066008 93.972046 302.494171
-19.175207 95.005997 304.226685
-19.175207 95.501732 304.226685
-19.181385 96.028404 304.324738
-19.183321 96.534042 304.355438
-19.183321 97.029984 304.355438
-19.197664 97.598846 304.583008
-19.197664 98.095161 304.583008
-19.197664 98.591469 304.583008
-19.210028 99.151596 304.779144
-19.210028 99.648224 304.779144
-19.210028 100.144859 304.779144
-19.140778 100.278702 303.680481
-19.148563 100.814529 303.803986
-19.159348 101.366631 303.975067
-19.159348 101.861954 303.975067
-19.171732 102.423439 304.171570
-19.171732 102.919083 304.171570
-19.171732 103.414726 304.171570
-19.171385 103.908485 304.166046
-19.170383 104.398674 304.150177
-19.170383 104.894279 304.150177
-19.169090 105.382782 304.129669
-19.166233 105.862572 304.084320
-19.166233 106.358070 304.084320
-19.163475 106.838203 304.040588
-19.161982 107.325272 304.016876
-19.161982 107.820656 304.016876
-19.164101 108.328041 304.050507
-19.165657 108.832298 304.075165
-19.165657 109.327797 304.075165
-19.181450 109.913788 304.325745
-19.181450 110.409668 304.325745
-19.181450 110.905571 304.325745
-19.180918 111.398392 304.317322
-19.168213 111.820129 304.115723
-19.168213 112.315689 304.115723
-19.167995 112.809967 304.112274
-19.244295 113.756546 305.322845
-19.244295 114.254066 305.322845
-19.286572 115.003670 305.993561
-19.295099 115.553352 306.128876
-19.295099 116.052193 306.128876
-19.302893 116.598083 306.252502
-19.302893 117.097122 306.252502
-19.302893 117.596153 306.252502
-19.294670 118.044891 306.122070
-19.306393 118.615730 306.308044
-19.316725 119.178604 306.471985
-19.316725 119.678001 306.471985
-19.331886 120.271721 306.712524
-19.331886 120.771507 306.712524
-19.331886 121.271286 306.712524
-19.325830 121.732918 306.616425
-17.874395 70.512619 291.111115
-17.874395 70.986984 291.111115
-18.930862 75.685066 308.317261
-19.222198 77.359947 313.062073
-19.222198 77.870079 313.062073
-19.222198 78.380203 313.062073
-19.810188 81.303528 322.638367
-19.810188 81.829262 322.638367
-19.810188 82.354996 322.638367
-19.659420 82.249962 320.182892
-19.659420 82.771690 320.182892
-19.414265 82.254738 316.190155
-19.049807 81.216164 310.254456
-19.049807 81.721718 310.254456
-18.898489 81.574120 307.790009
-18.898489 82.075661 307.790009
-18.898489 82.577202 307.790009
-19.057142 83.776192 310.373932
-19.103899 84.488724 311.135406
-19.103899 84.995712 311.135406
-19.103899 85.502701 311.135406
-18.812559 84.698021 306.390503
-18.812559 85.197281 306.390503
-18.786556 86.076660 305.967010
-18.786556 86.575233 305.967010
-18.786556 87.073799 305.967010
-18.869318 87.958153 307.314911
-18.869318 88.458923 307.314911
-18.869318 88.959694 307.314911
-18.887287 89.545639 307.607544
-18.887287 90.046883 307.607544
-18.887287 90.548126 307.607544
-18.871971 90.975548 307.358124
-18.529247 89.815125 301.776337
-18.529247 90.306854 301.776337
-18.471781 90.517006 300.840424
-18.500856 91.150467 301.313965
-18.500856 91.641457 301.313965
-18.570326 92.478394 302.445374
-18.570326 92.971222 302.445374
-18.570326 93.464050 302.445374
-18.548702 93.847481 302.093201
-18.679699 95.005997 304.226685
-18.679699 95.501732 304.226685
-18.903894 97.149643 307.878052
-18.903894 97.651321 307.878052
-18.903894 98.153008 307.878052
-18.913424 98.704414 308.033234
-18.913424 99.206352 308.033234
-18.913424 99.708290 308.033234
-18.890430 100.088394 307.658752
-18.886206 100.567230 307.589966
-18.886206 101.068443 307.589966
-18.877691 101.523857 307.451263
-18.935270 102.336037 308.389038
-18.935270 102.838554 308.389038
-18.935270 103.341072 308.389038
-18.913681 103.725197 308.037445
-18.913681 104.227135 308.037445
-18.913681 104.729080 308.037445
-18.859453 104.929306 307.154236
-18.893135 105.618103 307.702789
-18.893135 106.119499 307.702789
-18.893135 106.620888 307.702789
-18.891172 107.111168 307.670837
-18.891172 107.612518 307.670837
-18.891668 108.116699 307.678925
-18.893066 108.626099 307.701691
-18.893066 109.127495 307.701691
-18.893066 109.628891 307.701691
-18.888035 110.100960 307.619751
-18.888035 110.602219 307.619751
-18.885328 111.087547 307.575653
-18.885328 111.588745 307.575653
-18.885328 112.089943 307.575653
-18.880114 112.560036 307.490723
-18.883257 113.079918 307.541931
-18.883257 113.581062 307.541931
-18.883257 114.082191 307.541931
-18.882269 114.577339 307.525848
-18.882269 115.078445 307.525848
-18.883753 115.588638 307.550018
-18.885860 116.102730 307.584320
-18.886986 116.610886 307.602661
-18.886986 117.112122 307.602661
-18.886986 117.613358 307.602661
-18.867073 117.990059 307.278351
-18.867073 118.490768 307.278351
-18.872873 119.028069 307.372833
-18.878883 119.566986 307.470703
-18.878883 120.068001 307.470703
-18.878883 120.569031 307.470703
-18.832331 120.771507 306.712524
-18.832331 121.271286 306.712524
-17.400249 70.512619 291.111115
-17.400249 70.986984 291.111115
-19.083023 78.372345 319.264374
-19.083023 78.892578 319.264374
-19.083023 79.412819 319.264374
-18.712299 78.380203 313.062073
-19.284693 81.303528 322.638367
-19.284693 81.829262 322.638367
-19.284693 82.354996 322.638367
-19.137924 82.249962 320.182892
-19.137924 82.771690 320.182892
-18.899271 82.254738 316.190155
-18.888948 82.724762 316.017456
-18.888948 83.239708 316.017456
-18.482447 81.952194 309.216553
-18.397179 82.075661 307.790009
-18.397179 82.577202 307.790009
-18.961805 85.628510 317.236389
-18.999199 86.315315 317.861969
-18.999199 86.833267 317.861969
-18.999199 87.351219 317.861969
-18.742682 86.682816 313.570374
-18.742682 87.193771 313.570374
-18.688089 87.449265 312.657013
-18.682161 87.930840 312.557861
-18.682161 88.440155 312.557861
-18.682161 88.949463 312.557861
-18.515564 88.661026 309.770630
-18.630726 89.720375 311.697327
-18.630726 90.228287 311.697327
-18.630726 90.736191 311.697327
-18.386274 90.046883 307.607544
-18.386274 90.548126 307.607544
-18.603008 92.122650 311.233612
-18.603008 92.629807 311.233612
-18.603008 93.136955 311.233612
-18.563393 93.444687 310.570801
-18.545460 93.860008 310.270813
-18.545460 94.365585 310.270813
-18.531200 94.798210 310.032196
-18.519793 95.244743 309.841370
-18.519793 95.749626 309.841370
-18.503557 96.170120 309.569733
-18.515715 96.738083 309.773132
-18.515715 97.242851 309.773132
-18.515715 97.747627 309.773132
-18.402441 97.651321 307.878052
-18.402441 98.153008 307.878052
-18.411718 98.704414 308.033234
-18.411718 99.206352 308.033234
-18.411718 99.708290 308.033234
-18.389334 100.088394 307.658752
-18.385221 100.567230 307.589966
-18.385221 101.068443 307.589966
-18.440876 101.877113 308.521057
-18.440876 102.379852 308.521057
-18.440876 102.882576 308.521057
-18.432983 103.341072 308.389038
-18.411968 103.725197 308.037445
-18.411968 104.227135 308.037445
-18.411968 104.729080 308.037445
-18.359179 104.929306 307.154236
-18.391966 105.618103 307.702789
-18.391966 106.119499 307.702789
-18.391966 106.620888 307.702789
-18.390057 107.111168 307.670837
-18.390057 107.612518 307.670837
-18.390539 108.116699 307.678925
-18.391901 108.626099 307.701691
-18.391901 109.127495 307.701691
-18.391901 109.628891 307.701691
-18.387001 110.100960 307.619751
-18.387001 110.602219 307.619751
-18.384367 111.087547 307.575653
-18.384367 111.588745 307.575653
-18.384367 112.089943 307.575653
-18.379292 112.560036 307.490723
-18.382351 113.079918 307.541931
-18.382351 113.581062 307.541931
-18.382351 114.082191 307.541931
-18.381390 114.577339 307.525848
-18.381390 115.078445 307.525848
-18.382835 115.588638 307.550018
-18.384884 116.102730 307.584320
-18.385981 116.610886 307.602661
-18.385981 117.112122 307.602661
-18.385981 117.613358 307.602661
-18.366596 117.990059 307.278351
-18.366596 118.490768 307.278351
-18.372244 119.028069 307.372833
-18.378094 119.566986 307.470703
-18.378094 120.068001 307.470703
-18.378094 120.569031 307.470703
-18.332777 120.771507 306.712524
-18.332777 121.271286 306.712524
-17.639513 73.484604 303.380951
-17.639513 73.978958 303.380951
-18.563025 78.372345 319.264374
-18.563025 78.892578 319.264374
-18.563025 79.412819 319.264374
-18.689903 80.479401 321.446564
-19.340422 83.822578 332.634796
-19.340422 84.364609 332.634796
-19.340422 84.906631 332.634796
-19.038900 84.116493 327.448944
-19.038900 84.650070 327.448944
-18.774965 84.002747 322.909546
-18.374237 82.724762 316.017456
-18.374237 83.239708 316.017456
-18.281511 83.331985 314.422668
-18.188789 83.419075 312.827911
-18.188789 83.928818 312.827911
-18.445110 85.628510 317.236389
-18.481483 86.315315 317.861969
-18.481483 86.833267 317.861969
-18.481483 87.351219 317.861969
-18.231956 86.682816 313.570374
-18.231956 87.193771 313.570374
-18.178852 87.449265 312.657013
-18.173086 87.930840 312.557861
-18.278147 88.951431 314.364777
-18.278147 89.463684 314.364777
-18.278147 89.975937 314.364777
-18.123053 89.720375 311.697327
-18.123053 90.228287 311.697327
-18.123053 90.736191 311.697327
-18.039049 90.821175 310.252563
-18.039049 91.326721 310.252563
-18.096090 92.122650 311.233612
-18.096090 92.629807 311.233612
-18.096090 93.136955 311.233612
-18.057552 93.444687 310.570801
-18.246523 94.933937 313.820892
-18.246523 95.445305 313.820892
-18.246523 95.956673 313.820892
-18.230543 96.383553 313.546051
-18.230543 96.894470 313.546051
-18.210066 97.295975 313.193848
-18.203257 97.769760 313.076752
-18.203257 98.279915 313.076752
-18.011173 97.747627 309.773132
-17.968304 98.018539 309.035828
-17.968304 98.522110 309.035828
-17.946150 98.903595 308.654816
-17.946150 99.406540 308.654816
-17.946150 99.909492 308.654816
-17.929024 100.316605 308.360229
-17.929024 100.819069 308.360229
-17.929024 101.321541 308.360229
-17.938374 101.877113 308.521057
-17.938374 102.379852 308.521057
-17.938374 102.882576 308.521057
-17.930698 103.341072 308.389038
-17.910255 103.725197 308.037445
-17.910255 104.227135 308.037445
-17.910255 104.729080 308.037445
-17.909824 105.228493 308.030029
-17.909824 105.730423 308.030029
-17.909824 106.232353 308.030029
-17.906540 106.714714 307.973541
-17.902580 107.192833 307.905426
-17.902580 107.694565 307.905426
-17.899998 108.180687 307.861023
-17.897095 108.664719 307.811096
-17.897095 109.166298 307.811096
-17.894222 109.650269 307.761688
-17.891945 110.137741 307.722504
-17.891945 110.639160 307.722504
-17.892492 111.143997 307.731934
-17.895006 111.661133 307.775177
-17.895006 112.162659 307.775177
-17.895006 112.664169 307.775177
-17.881445 113.079918 307.541931
-17.881445 113.581062 307.541931
-17.881445 114.082191 307.541931
-17.880510 114.577339 307.525848
-17.880510 115.078445 307.525848
-17.881916 115.588638 307.550018
-17.883909 116.102730 307.584320
-17.884975 116.610886 307.602661
-17.884975 117.112122 307.602661
-17.884975 117.613358 307.602661
-17.866119 117.990059 307.278351
-17.866119 118.490768 307.278351
-17.871613 119.028069 307.372833
-17.877302 119.566986 307.470703
-17.877302 120.068001 307.470703
-17.877302 120.569031 307.470703
-17.145384 73.484604 303.380951
-17.145384 73.978958 303.380951
-18.436758 80.082573 326.231323
-18.436758 80.614166 326.231323
-18.436758 81.145752 326.231323
-18.192560 80.595512 321.910339
-18.798645 83.822578 332.634796
-18.798645 84.364609 332.634796
-18.798645 84.906631 332.634796
-18.505571 84.116493 327.448944
-18.505571 84.650070 327.448944
-18.249029 84.002747 322.909546
-18.155817 84.097168 321.260193
-18.155817 84.620651 321.260193
-17.769398 83.331985 314.422668
-17.679272 83.419075 312.827911
-17.679272 83.928818 312.827911
-18.203800 86.943787 322.109222
-18.228077 87.585312 322.538788
-18.228077 88.110878 322.538788
-18.228077 88.636452 322.538788
-17.997019 88.031815 318.450317
-17.997019 88.550728 318.450317
-17.938641 88.780724 317.417358
-17.918903 89.199692 317.068085
-17.918903 89.716347 317.068085
-17.918903 90.233002 317.068085
-17.905436 90.681458 316.829773
-17.919037 91.267006 317.070465
-17.919037 91.783669 317.070465
-17.943014 92.423836 317.494720
-17.943014 92.941185 317.494720
-17.943014 93.458542 317.494720
-17.589172 92.122650 311.233612
-17.589172 92.629807 311.233612
-17.589172 93.136955 311.233612
-17.551714 93.444687 310.570801
-17.735392 94.933937 313.820892
-17.735392 95.445305 313.820892
-17.735392 95.956673 313.820892
-17.719858 96.383553 313.546051
-17.719858 96.894470 313.546051
-17.699953 97.295975 313.193848
-17.693335 97.769760 313.076752
-17.693335 98.279915 313.076752
-17.506634 97.747627 309.773132
-17.464966 98.018539 309.035828
-17.464966 98.522110 309.035828
-17.443432 98.903595 308.654816
-17.446917 99.426407 308.716492
-17.446917 99.929451 308.716492
-17.446917 100.432503 308.716492
-17.443449 100.915489 308.655121
-17.443449 101.418434 308.655121
-17.436853 101.882851 308.538422
-17.436756 102.385033 308.536682
-17.435873 102.882576 308.521057
-17.414499 103.258575 308.142853
-17.392355 103.628746 307.751007
-17.388399 104.106537 307.681030
-17.388399 104.607910 307.681030
-17.408123 105.228493 308.030029
-17.418461 105.793213 308.212952
-17.418461 106.295441 308.212952
-17.418461 106.797668 308.212952
-17.413387 107.268646 308.123169
-17.413387 107.770729 308.123169
-17.398573 108.180687 307.861023
-17.395750 108.664719 307.811096
-17.395750 109.166298 307.811096
-17.392958 109.650269 307.761688
-17.390743 110.137741 307.722504
-17.390743 110.639160 307.722504
-17.391275 111.143997 307.731934
-17.393721 111.661133 307.775177
-17.393721 112.162659 307.775177
-17.393721 112.664169 307.775177
-17.362448 112.962212 307.221802
-17.362448 113.462822 307.221802
-17.367413 113.996048 307.309692
-17.372459 114.530075 307.398987
-17.372459 115.030975 307.398987
-17.379635 115.579590 307.525940
-17.381229 116.091339 307.554138
-17.382008 116.597725 307.567932
-17.382008 117.098907 307.567932
-17.382008 117.600075 307.567932
-17.365034 117.985931 307.267609
-17.365034 118.486633 307.267609
-17.369303 119.016563 307.343109
-17.371998 119.535919 307.390808
-17.371998 120.036812 307.390808
-17.371998 120.537697 307.390808
-17.100214 75.465935 311.560852
-17.100214 75.973610 311.560852
-17.905411 80.082573 326.231323
-17.905411 80.614166 326.231323
-17.905411 81.145752 326.231323
-18.003351 82.124107 328.015747
-18.540665 85.125565 337.805450
-18.540665 85.676010 337.805450
-18.540665 86.226471 337.805450
-18.325991 85.772163 333.894165
-18.325991 86.316246 333.894165
-18.058363 85.591835 329.018066
-17.632566 84.097168 321.260193
-17.632566 84.620651 321.260193
-17.524242 84.621063 319.286560
-17.448946 84.775505 317.914642
-17.448946 85.293541 317.914642
-17.679167 86.943787 322.109222
-17.702744 87.585312 322.538788
-17.702744 88.110878 322.538788
-17.702744 88.636452 322.538788
-17.478346 88.031815 318.450317
-17.616993 89.253159 320.976440
-17.616993 89.776184 320.976440
-17.635588 90.394516 321.315216
-17.635588 90.918098 321.315216
-17.635588 91.441673 321.315216
-17.637854 91.977074 321.356506
-17.649216 92.560303 321.563507
-17.649216 93.084290 321.563507
-17.649216 93.608269 321.563507
-17.425896 92.941185 317.494720
-17.425896 93.458542 317.494720
-17.134033 92.401917 312.177063
-17.110222 92.781471 311.743195
-17.110222 93.289452 311.743195
-17.069422 93.573776 310.999847
-17.224257 94.933937 313.820892
-17.224257 95.445305 313.820892
-17.301929 96.389381 315.236053
-17.301929 96.903061 315.236053
-17.301929 97.416733 315.236053
-17.268564 97.741554 314.628143
-17.183414 97.769760 313.076752
-17.183414 98.279915 313.076752
-17.121077 98.431679 311.940979
-17.121077 98.939987 311.940979
-17.121077 99.448288 311.940979
-17.114544 99.918449 311.821960
-16.965736 99.553375 309.110748
-16.965736 100.057076 309.110748
-16.944099 100.432503 308.716492
-16.940731 100.915489 308.655121
-16.940731 101.418434 308.655121
-16.934324 101.882851 308.538422
-16.934229 102.385033 308.536682
-16.913195 102.759979 308.153412
-16.912613 103.258575 308.142853
-16.891108 103.628746 307.751007
-16.887266 104.106537 307.681030
-16.887266 104.607910 307.681030
-16.906422 105.228493 308.030029
-16.916462 105.793213 308.212952
-16.916462 106.295441 308.212952
-16.916462 106.797668 308.212952
-16.911533 107.268646 308.123169
-16.911533 107.770729 308.123169
-16.897146 108.180687 307.861023
-16.894405 108.664719 307.811096
-16.894405 109.166298 307.811096
-16.891693 109.650269 307.761688
-16.889544 110.137741 307.722504
-16.889544 110.639160 307.722504
-16.890060 111.143997 307.731934
-16.892435 111.661133 307.775177
-16.892435 112.162659 307.775177
-16.892435 112.664169 307.775177
-16.862062 112.962212 307.221802
-16.862062 113.462822 307.221802
-16.866884 113.996048 307.309692
-16.871788 114.530075 307.398987
-16.871788 115.030975 307.398987
-16.878754 115.579590 307.525940
-16.880301 116.091339 307.554138
-16.881058 116.597725 307.567932
-16.881058 117.098907 307.567932
-16.881058 117.600075 307.567932
-16.864576 117.985931 307.267609
-16.864576 118.486633 307.267609
-16.868719 119.016563 307.343109
-16.871338 119.535919 307.390808
-16.871338 120.036812 307.390808
-16.871338 120.537697 307.390808
-16.592762 75.465935 311.560852
-16.592762 75.973610 311.560852
-17.639116 81.304283 331.208191
-17.639116 81.843987 331.208191
-17.639116 82.383682 331.208191
-17.713995 83.275391 332.614166
-17.990467 85.125565 337.805450
-17.990467 85.676010 337.805450
-17.990467 86.226471 337.805450
-17.782164 85.772163 333.894165
-17.782164 86.316246 333.894165
-17.522478 85.591835 329.018066
-17.413643 85.593010 326.974487
-17.413643 86.125816 326.974487
-17.004208 84.621063 319.286560
-16.931145 84.775505 317.914642
-16.931145 85.293541 317.914642
-17.384687 88.110268 326.430786
-17.401922 88.730057 326.754395
-17.401922 89.262497 326.754395
-17.401922 89.794937 326.754395
-17.198093 89.269379 322.927124
-17.138470 89.484276 321.807587
-17.138470 90.008652 321.807587
-17.112247 90.394516 321.315216
-17.112247 90.918098 321.315216
-17.112247 91.441673 321.315216
-17.114447 91.977074 321.356506
-17.125471 92.560303 321.563507
-17.125471 93.084290 321.563507
-17.125471 93.608269 321.563507
-16.908781 92.941185 317.494720
-16.908781 93.458542 317.494720
-16.686810 92.742218 313.326782
-16.655035 93.075218 312.730164
-16.655035 93.584808 312.730164
-16.605871 93.816635 311.807007
-16.579750 94.176346 311.316528
-16.579750 94.683632 311.316528
-16.788490 96.389381 315.236053
-16.788490 96.903061 315.236053
-16.788490 97.416733 315.236053
-16.756115 97.741554 314.628143
-16.524961 96.898811 310.287811
-16.524961 97.404419 310.287811
-16.613005 98.431679 311.940979
-16.613005 98.939987 311.940979
-16.613005 99.448288 311.940979
-16.606667 99.918449 311.821960
-16.565397 100.176994 311.047058
-16.565397 100.683838 311.047058
-16.441278 100.432503 308.716492
-16.438011 100.915489 308.655121
-16.438011 101.418434 308.655121
-16.431797 101.882851 308.538422
-16.431702 102.385033 308.536682
-16.410728 102.756462 308.142853
-16.410728 103.258575 308.142853
-16.389860 103.628746 307.751007
-16.386135 104.106537 307.681030
-16.386135 104.607910 307.681030
-16.382332 105.084885 307.609650
-16.414463 105.793213 308.212952
-16.414463 106.295441 308.212952
-16.414463 106.797668 308.212952
-16.409681 107.268646 308.123169
-16.409681 107.770729 308.123169
-16.352589 107.896111 307.051178
-16.389240 108.639397 307.739380
-16.389240 109.140862 307.739380
-16.389240 109.642326 307.739380
-16.384995 110.115242 307.659668
-16.384995 110.616577 307.659668
-16.382421 111.100449 307.611328
-16.381680 111.596626 307.597382
-16.381680 112.097855 307.597382
-16.381231 112.596008 307.588989
-16.351711 112.893402 307.034668
-16.351711 113.393707 307.034668
-16.356552 113.927734 307.125549
-16.360687 114.457130 307.203217
-16.360687 114.957710 307.203217
-16.369242 115.518677 307.363861
-16.372820 116.044868 307.431030
-16.373272 116.549057 307.439545
-16.373272 117.050026 307.439545
-16.373272 117.550987 307.439545
-16.359329 117.951424 307.177704
-16.359329 118.451958 307.177704
-16.362476 118.975388 307.236816
-16.362476 119.476036 307.236816
-16.362476 119.976669 307.236816
-16.355007 120.422310 307.096558
-16.392447 76.906891 317.509857
-16.392447 77.424271 317.509857
-17.099665 81.304283 331.208191
-17.099665 81.843987 331.208191
-17.099665 82.383682 331.208191
-17.172253 83.275391 332.614166
-17.627134 86.037651 341.424896
-17.627134 86.594002 341.424896
-17.627134 87.150345 341.424896
-17.563107 87.388115 340.184723
-17.563107 87.942436 340.184723
-17.335083 87.347801 335.768066
-16.881086 85.593010 326.974487
-16.881086 86.125816 326.974487
-16.759521 86.034561 324.619873
-16.654823 86.022758 322.591919
-16.654823 86.548416 322.591919
-16.853016 88.110268 326.430786
-16.869722 88.730057 326.754395
-16.876137 89.296432 326.878632
-16.876137 89.829079 326.878632
-16.876137 90.361717 326.878632
-16.821789 90.601654 325.825958
-16.821789 91.132584 325.825958
-16.794031 91.512245 325.288269
-16.794031 92.042297 325.288269
-16.794031 92.572350 325.288269
-16.652592 92.318298 322.548706
-16.601728 92.560303 321.563507
-16.601728 93.084290 321.563507
-16.601728 93.608269 321.563507
-16.237362 92.066299 314.506012
-16.237362 92.578773 314.506012
-16.176479 92.742218 313.326782
-16.145679 93.075218 312.730164
-16.145679 93.584808 312.730164
-16.098017 93.816635 311.807007
-16.072695 94.176346 311.316528
-16.072695 94.683632 311.316528
-16.275053 96.389381 315.236053
-16.275053 96.903061 315.236053
-16.275053 97.416733 315.236053
-16.243668 97.741554 314.628143
-16.019585 96.898811 310.287811
-16.019585 97.404419 310.287811
-16.104935 98.431679 311.940979
-16.104935 98.939987 311.940979
-16.104935 99.448288 311.940979
-16.098791 99.918449 311.821960
-16.058783 100.176994 311.047058
-16.058783 100.683838 311.047058
-15.972038 100.644089 309.366882
-15.972038 101.148201 309.366882
-15.972038 101.652313 309.366882
-15.961395 102.088341 309.160736
-15.957082 102.564392 309.077179
-15.944768 102.988487 308.838654
-15.944768 103.491737 308.838654
-15.936090 103.938393 308.670593
-15.936090 104.441368 308.670593
-15.936090 104.944344 308.670593
-15.922014 105.354179 308.397949
-15.909203 105.771538 308.149811
-15.909203 106.273666 308.149811
-15.898521 106.704102 307.942932
-15.884305 107.110023 307.667542
-15.884305 107.611359 307.667542
-15.869960 108.015076 307.389709
-15.863556 108.472160 307.265656
-15.863556 108.972847 307.265656
-15.861571 109.459831 307.227203
-15.861571 109.960457 307.227203
-15.861571 110.461090 307.227203
-15.858294 110.938782 307.163727
-15.855805 111.421814 307.115540
-15.855805 111.922256 307.115540
-15.837231 112.291000 306.755768
-15.861435 112.963234 307.224579
-15.861435 113.463852 307.224579
-15.861435 113.964478 307.224579
-15.857727 114.438324 307.152740
-15.857727 114.938820 307.152740
-15.855103 115.420227 307.101929
-15.857287 115.936623 307.144257
-15.858347 116.444885 307.164764
-15.858347 116.945404 307.164764
-15.858347 117.445923 307.164764
-15.849832 117.883110 306.999817
-15.849832 118.383362 306.999817
-15.854081 118.915504 307.082153
-15.856956 119.437538 307.137817
-15.856956 119.938011 307.137817
-15.860649 120.466537 307.209351
-15.863167 120.986328 307.258118
-15.863167 121.487000 307.258118
-15.865314 122.004196 307.299713
-15.865314 122.504936 307.299713
-15.865314 123.005669 307.299713
-15.864242 128.505142 307.278931
-15.864242 129.005844 307.278931
-15.864777 129.510925 307.289307
-15.864777 130.011658 307.289307
-15.864777 130.512375 307.289307
-15.864509 131.010880 307.284119
-15.875304 76.906891 317.509857
-15.875304 77.424271 317.509857
-16.751009 82.241020 335.024170
-16.751009 82.786942 335.024170
-16.751009 83.332863 335.024170
-16.802948 84.138863 336.062988
-17.071041 86.037651 341.424896
-17.071041 86.594002 341.424896
-17.145761 87.531799 342.919312
-17.145761 88.090584 342.919312
-17.145761 88.649368 342.919312
-17.099737 88.968697 341.998840
-16.615192 86.989136 332.307800
-16.615192 87.530617 332.307800
-16.230799 86.034561 324.619873
-16.129404 86.022758 322.591919
-16.511961 88.601173 330.243164
-16.511961 89.139297 330.243164
-16.524170 89.743729 330.487335
-16.524170 90.282257 330.487335
-16.524170 90.820786 330.487335
-16.343737 90.361717 326.878632
-16.291103 90.601654 325.825958
-16.291103 91.132584 325.825958
-16.264219 91.512245 325.288269
-16.264219 92.042297 325.288269
-16.264219 92.572350 325.288269
-16.127243 92.318298 322.548706
-15.903175 91.553947 318.067322
-15.903175 92.072235 318.067322
-15.891784 92.524193 317.839478
-15.830688 92.684402 316.617523
-15.830688 93.200325 316.617523
-15.763139 93.316376 315.266541
-15.727795 93.619713 314.559662
-15.727795 94.132286 314.559662
-15.675414 94.329643 313.512024
-15.644704 94.654694 312.897797
-15.644704 95.164558 312.897797
-15.634094 95.609543 312.685608
-15.623219 96.052208 312.468140
-15.623219 96.561371 312.468140
-15.580688 96.806274 311.617493
-15.690585 98.000443 313.815460
-15.690585 98.511803 313.815460
-15.690585 99.023163 313.815460
-15.670467 99.406898 313.413086
-15.670467 99.917603 313.413086
-15.654445 100.325615 313.092621
-15.643576 100.765785 312.875244
-15.643576 101.275612 312.875244
-15.635153 101.730637 312.706787
-15.468161 101.148201 309.366882
-15.468161 101.652313 309.366882
-15.457851 102.088341 309.160736
-15.453675 102.564392 309.077179
-15.565001 103.810509 311.303711
-15.565001 104.317772 311.303711
-15.565001 104.825043 311.303711
-15.433346 104.441368 308.670593
-15.433346 104.944344 308.670593
-15.419713 105.354179 308.397949
-15.407307 105.771538 308.149811
-15.407307 106.273666 308.149811
-15.396963 106.704102 307.942932
-15.383194 107.110023 307.667542
-15.383194 107.611359 307.667542
-15.369302 108.015076 307.389709
-15.363100 108.472160 307.265656
-15.363100 108.972847 307.265656
-15.361177 109.459831 307.227203
-15.361177 109.960457 307.227203
-15.361177 110.461090 307.227203
-15.358004 110.938782 307.163727
-15.355594 111.421814 307.115540
-15.355594 111.922256 307.115540
-15.337605 112.291000 306.755768
-15.361045 112.963234 307.224579
-15.361045 113.463852 307.224579
-15.361045 113.964478 307.224579
-15.357453 114.438324 307.152740
-15.357453 114.938820 307.152740
-15.354914 115.420227 307.101929
-15.357031 115.936623 307.144257
-15.358055 116.444885 307.164764
-15.358055 116.945404 307.164764
-15.358055 117.445923 307.164764
-15.349808 117.883110 306.999817
-15.349808 118.383362 306.999817
-15.353924 118.915504 307.082153
-15.356708 119.437538 307.137817
-15.356708 119.938011 307.137817
-15.360285 120.466537 307.209351
-15.362723 120.986328 307.258118
-15.362723 121.487000 307.258118
-15.364802 122.004196 307.299713
-15.364802 122.504936 307.299713
-15.364802 123.005669 307.299713
-15.363763 128.505142 307.278931
-15.363763 129.005844 307.278931
-15.364282 129.510925 307.289307
-15.364282 130.011658 307.289307
-15.364282 130.512375 307.289307
-15.364022 131.010880 307.284119
-19.396635 78.833900 401.000000
-19.396635 79.487320 401.000000
-19.396635 80.140747 401.000000
-19.396635 80.794174 401.000000
-19.396635 81.447594 401.000000
-19.396635 82.101021 401.000000
-19.396635 82.754448 401.000000
-19.396635 83.407867 401.000000
-19.396635 84.061295 401.000000
-19.396635 84.714722 401.000000
-19.396635 85.368141 401.000000
-19.396635 86.021568 401.000000
-19.396635 86.674988 401.000000
-19.396635 87.328415 401.000000
-19.396635 87.981842 401.000000
-19.396635 88.635262 401.000000
-19.396635 89.288689 401.000000
-19.396635 89.942116 401.000000
-19.396635 90.595535 401.000000
-19.396635 91.248962 401.000000
-19.396635 91.902390 401.000000
-19.396635 92.555809 401.000000
-19.388281 93.169083 400.827271
-19.388281 93.822227 400.827271
-19.388281 94.475372 400.827271
-19.387445 95.124420 400.809998
-19.387445 95.777527 400.809998
-19.290703 95.949471 398.809998
-19.276674 96.529076 398.519989
-19.276674 97.178467 398.519989
-16.205341 82.241020 335.024170
-16.223488 82.879646 335.399323
-16.223488 83.426178 335.399323
-16.255590 84.138863 336.062988
-16.646255 86.721718 344.139496
-16.646255 87.282494 344.139496
-16.646255 87.843262 344.139496
-16.587234 88.090584 342.919312
-16.587234 88.649368 342.919312
-16.542709 88.968697 341.998840
-16.073948 86.989136 332.307800
-16.073948 87.530617 332.307800
-15.943931 87.359726 329.619873
-15.809517 87.155830 326.841034
-16.137369 89.506866 333.618958
-16.137369 90.050491 333.618958
-16.144463 90.633942 333.765594
-16.144463 91.177803 333.765594
-16.144463 91.721672 333.765594
-15.981270 91.332893 330.391785
-15.928507 91.567947 329.300995
-15.928507 92.104538 329.300995
-15.904094 92.499138 328.796265
-15.904094 93.034904 328.796265
-15.904094 93.570679 328.796265
-15.779205 93.367477 326.214386
-15.385126 91.553947 318.067322
-15.385126 92.072235 318.067322
-15.374105 92.524193 317.839478
-15.315000 92.684402 316.617523
-15.315000 93.200325 316.617523
-15.249651 93.316376 315.266541
-15.249481 93.829048 315.263031
-15.249481 94.342766 315.263031
-15.249481 94.856483 315.263031
-15.214253 95.149887 314.534729
-15.214253 95.662415 314.534729
-15.199137 96.079384 314.222198
-15.183468 96.491829 313.898285
-15.183468 97.003326 313.898285
-15.135229 97.205009 312.901001
-15.263083 98.540314 315.544220
-15.263083 99.054497 315.544220
-15.263083 99.568665 315.544220
-15.240140 99.932396 315.069885
-15.240140 100.445793 315.069885
-15.221842 100.837990 314.691620
-15.209494 101.268562 314.436340
-15.209494 101.780930 314.436340
-15.199860 102.228508 314.237183
-15.004751 101.421753 310.203552
-15.004751 101.927223 310.203552
-14.992366 102.348145 309.947510
-15.133550 103.821770 312.866272
-15.133550 104.331581 312.866272
-15.133550 104.841385 312.866272
-15.138471 105.385468 312.968018
-15.138471 105.895439 312.968018
-15.138471 106.405418 312.968018
-14.962714 105.674118 309.334503
-14.949241 106.082558 309.055939
-14.949241 106.586166 309.055939
-14.937342 107.004524 308.809937
-14.921701 107.395172 308.486603
-14.921701 107.897842 308.486603
-14.905882 108.285583 308.159546
-14.899462 108.740883 308.026855
-14.899462 109.242821 308.026855
-14.901760 109.761658 308.074341
-14.901760 110.263664 308.074341
-14.901760 110.765663 308.074341
-14.891460 111.190765 307.861420
-14.878333 111.593964 307.590027
-14.878333 112.095169 307.590027
-14.859694 112.455330 307.204681
-14.894638 113.221542 307.927094
-14.894638 113.723297 307.927094
-14.894638 114.225067 307.927094
-14.890368 114.693939 307.838806
-14.890368 115.195549 307.838806
-14.866574 115.512306 307.346924
-14.867366 116.019295 307.363281
-14.867366 116.520149 307.363281
-14.867366 117.020988 307.363281
-14.866916 117.518288 307.354004
-14.857570 117.944916 307.160767
-14.857570 118.445427 307.160767
-14.859814 118.963905 307.207153
-14.862035 119.482353 307.253082
-14.862035 119.983025 307.253082
-14.865386 120.510849 307.322357
-14.866425 121.020088 307.343842
-14.866425 121.520905 307.343842
-14.866905 122.025650 307.353760
-14.866905 122.526489 307.353760
-14.866905 123.027313 307.353760
-14.863605 123.500717 307.285522
-14.864028 126.508621 307.294281
-14.864731 127.015373 307.308807
-14.864731 127.516121 307.308807
-14.865179 128.020737 307.318085
-14.865179 128.521515 307.318085
-14.865179 129.022293 307.318085
-14.864880 129.520432 307.311890
-14.863788 130.011658 307.289307
-14.863788 130.512375 307.289307
-14.863536 131.010880 307.284119
-18.743509 78.833900 401.000000
-18.743509 79.487320 401.000000
-18.743509 80.140747 401.000000
-18.743509 80.794174 401.000000
-18.743509 81.447594 401.000000
-18.743509 82.101021 401.000000
-18.743509 82.754448 401.000000
-18.743509 83.407867 401.000000
-18.743509 84.061295 401.000000
-18.743509 84.714722 401.000000
-18.743509 85.368141 401.000000
-18.743509 86.021568 401.000000
-18.743509 86.674988 401.000000
-18.743509 87.328415 401.000000
-18.743509 87.981842 401.000000
-18.743509 88.635262 401.000000
-18.743509 89.288689 401.000000
-18.743509 89.942116 401.000000
-18.743509 90.595535 401.000000
-18.743509 91.248962 401.000000
-18.743509 91.902390 401.000000
-18.743509 92.555809 401.000000
-18.735437 93.169083 400.827271
-18.735437 93.822227 400.827271
-18.735437 94.475372 400.827271
-18.734629 95.124420 400.809998
-18.734629 95.777527 400.809998
-18.734201 96.428452 400.800873
-18.627590 96.529076 398.519989
-18.627590 97.178467 398.519989
-15.796479 82.959496 337.951019
-15.796479 83.510193 337.951019
-15.796479 84.060875 337.951019
-15.834889 84.817299 338.772766
-16.185436 87.259201 346.272400
-16.185436 87.823448 346.272400
-16.185436 88.387695 346.272400
-16.129139 88.642532 345.067932
-16.129139 89.204819 345.067932
-16.079170 89.489006 343.998932
-15.766414 88.297989 337.307800
-15.766414 88.847633 337.307800
-15.407066 87.359726 329.619873
-15.277178 87.155830 326.841034
-15.593990 89.506866 333.618958
-15.593990 90.050491 333.618958
-15.600845 90.633942 333.765594
-15.600845 91.177803 333.765594
-15.600845 91.721672 333.765594
-15.443147 91.332893 330.391785
-15.392161 91.567947 329.300995
-15.392161 92.104538 329.300995
-15.368568 92.499138 328.796265
-15.405603 93.259102 329.588593
-15.405603 93.796165 329.588593
-15.405603 94.333221 329.588593
-14.988833 92.303741 320.672180
-14.988833 92.826271 320.672180
-14.970853 93.236824 320.287506
-14.799311 92.684402 316.617523
-14.799311 93.200325 316.617523
-14.790451 93.660149 316.427979
-14.790451 94.175766 316.427979
-14.790451 94.691383 316.427979
-14.735999 94.856483 315.263031
-14.701957 95.149887 314.534729
-14.701957 95.662415 314.534729
-14.687348 96.079384 314.222198
-14.672208 96.491829 313.898285
-14.672208 97.003326 313.898285
-14.625593 97.205009 312.901001
-14.749143 98.540314 315.544220
-14.749143 99.054497 315.544220
-14.749143 99.568665 315.544220
-14.726972 99.932396 315.069885
-14.726972 100.445793 315.069885
-14.709291 100.837990 314.691620
-14.697358 101.268562 314.436340
-14.697358 101.780930 314.436340
-14.688048 102.228508 314.237183
-14.499509 101.421753 310.203552
-14.499509 101.927223 310.203552
-14.487542 102.348145 309.947510
-14.623971 103.821770 312.866272
-14.623971 104.331581 312.866272
-14.623971 104.841385 312.866272
-14.628727 105.385468 312.968018
-14.628727 105.895439 312.968018
-14.628727 106.405418 312.968018
-14.458889 105.674118 309.334503
-14.445868 106.082558 309.055939
-14.445868 106.586166 309.055939
-14.434369 107.004524 308.809937
-14.459234 107.692924 309.341888
-14.459234 108.196991 309.341888
-14.459234 108.701050 309.341888
-14.397767 108.740883 308.026855
-14.397767 109.242821 308.026855
-14.399985 109.761658 308.074341
-14.399985 110.263664 308.074341
-14.399985 110.765663 308.074341
-14.390034 111.190765 307.861420
-14.377349 111.593964 307.590027
-14.377349 112.095169 307.590027
-14.359337 112.455330 307.204681
-14.393104 113.221542 307.927094
-14.393104 113.723297 307.927094
-14.393104 114.225067 307.927094
-14.388977 114.693939 307.838806
-14.388977 115.195549 307.838806
-14.365986 115.512306 307.346924
-14.366751 116.019295 307.363281
-14.366751 116.520149 307.363281
-14.366751 117.020988 307.363281
-14.366317 117.518288 307.354004
-14.357284 117.944916 307.160767
-14.357284 118.445427 307.160767
-14.359451 118.963905 307.207153
-14.361599 119.482353 307.253082
-14.361599 119.983025 307.253082
-14.364838 120.510849 307.322357
-14.365841 121.020088 307.343842
-14.365841 121.520905 307.343842
-14.366305 122.025650 307.353760
-14.366305 122.526489 307.353760
-14.366305 123.027313 307.353760
-14.363114 123.500717 307.285522
-14.350879 123.895782 307.023712
-14.350879 124.396072 307.023712
-14.350922 125.397049 307.024658
-14.350922 125.897339 307.024658
-14.363525 126.508621 307.294281
-14.364204 127.015373 307.308807
-14.364204 127.516121 307.308807
-14.364637 128.020737 307.318085
-14.364637 128.521515 307.318085
-14.364637 129.022293 307.318085
-14.364347 129.520432 307.311890
-18.090385 78.833900 401.000000
-18.090385 79.487320 401.000000
-18.090385 80.140747 401.000000
-18.090385 80.794174 401.000000
-18.090385 81.447594 401.000000
-18.090385 82.101021 401.000000
-18.090385 82.754448 401.000000
-18.090385 83.407867 401.000000
-18.090385 84.061295 401.000000
-18.090385 84.714722 401.000000
-18.090385 85.368141 401.000000
-18.090385 86.021568 401.000000
-18.090385 86.674988 401.000000
-18.090385 87.328415 401.000000
-18.090385 87.981842 401.000000
-18.090385 88.635262 401.000000
-18.090385 89.288689 401.000000
-18.090385 89.942116 401.000000
-18.090385 90.595535 401.000000
-18.090385 91.248962 401.000000
-18.090385 91.902390 401.000000
-18.090385 92.555809 401.000000
-18.082592 93.169083 400.827271
-18.082592 93.822227 400.827271
-18.082592 94.475372 400.827271
-18.081814 95.124420 400.809998
-18.081814 95.777527 400.809998
-18.081402 96.428452 400.800873
-17.978504 96.529076 398.519989
-17.978504 97.178467 398.519989
-15.353326 83.543266 340.329071
-15.353326 84.097824 340.329071
-15.353326 84.652382 340.329071
-15.382442 85.368538 340.974487
-15.621448 87.259201 346.272400
-15.621448 87.823448 346.272400
-15.621448 88.387695 346.272400
-15.567111 88.642532 345.067932
-15.567111 89.204819 345.067932
-15.518885 89.489006 343.998932
-15.298964 88.773438 339.124054
-15.298964 89.326042 339.124054
-15.082499 88.606941 334.325775
-14.974524 88.513489 331.932373
-15.193326 90.355598 336.782440
-15.193326 90.904381 336.782440
-15.194298 91.459007 336.803955
-15.194298 92.007828 336.803955
-15.194298 92.556648 336.803955
-15.050582 92.224831 333.618317
-15.000102 92.457306 332.499329
-15.000102 92.999100 332.499329
-14.977174 93.397926 331.991089
-14.977174 93.938904 331.991089
-14.977174 94.479881 331.991089
-14.868790 94.333221 329.588593
-14.466541 92.303741 320.672180
-14.466541 92.826271 320.672180
-14.449188 93.236824 320.287506
-13.924897 90.356674 308.665833
-13.924897 90.859650 308.665833
-14.396065 94.453995 319.109955
-14.396065 94.973976 319.109955
-14.396065 95.493965 319.109955
-14.285054 95.273575 316.649261
-14.242126 95.501686 315.697693
-14.242126 96.016113 315.697693
-14.218302 96.369057 315.169586
-14.192927 96.709724 314.607117
-14.192927 97.222374 314.607117
-14.135041 97.336418 313.324005
-14.235203 98.540314 315.544220
-14.235203 99.054497 315.544220
-14.235203 99.568665 315.544220
-14.213803 99.932396 315.069885
-14.213803 100.445793 315.069885
-14.196740 100.837990 314.691620
-14.185223 101.268562 314.436340
-14.185223 101.780930 314.436340
-14.176239 102.228508 314.237183
-13.994268 101.421753 310.203552
-13.994268 101.927223 310.203552
-13.982718 102.348145 309.947510
-14.114393 103.821770 312.866272
-14.114393 104.331581 312.866272
-14.114393 104.841385 312.866272
-14.118981 105.385468 312.968018
-14.118981 105.895439 312.968018
-14.118981 106.405418 312.968018
-13.955063 105.674118 309.334503
-13.942495 106.082558 309.055939
-13.942495 106.586166 309.055939
-13.931398 107.004524 308.809937
-13.955397 107.692924 309.341888
-13.955397 108.196991 309.341888
-13.955397 108.701050 309.341888
-13.896070 108.740883 308.026855
-13.896070 109.242821 308.026855
-13.898212 109.761658 308.074341
-13.898212 110.263664 308.074341
-13.898212 110.765663 308.074341
-13.888607 111.190765 307.861420
-13.876365 111.593964 307.590027
-13.876365 112.095169 307.590027
-13.858979 112.455330 307.204681
-13.891570 113.221542 307.927094
-13.891570 113.723297 307.927094
-13.891570 114.225067 307.927094
-13.887588 114.693939 307.838806
-13.887588 115.195549 307.838806
-13.865397 115.512306 307.346924
-13.866136 116.019295 307.363281
-13.866136 116.520149 307.363281
-13.866136 117.020988 307.363281
-13.865716 117.518288 307.354004
-13.856999 117.944916 307.160767
-13.856999 118.445427 307.160767
-13.859091 118.963905 307.207153
-13.861163 119.482353 307.253082
-13.861163 119.983025 307.253082
-13.864288 120.510849 307.322357
-13.865257 121.020088 307.343842
-13.865257 121.520905 307.343842
-13.865705 122.025650 307.353760
-13.865705 122.526489 307.353760
-13.865705 123.027313 307.353760
-13.862627 123.500717 307.285522
-13.850815 123.895782 307.023712
-13.850815 124.396072 307.023712
-13.850858 125.397049 307.024658
-13.850858 125.897339 307.024658
-13.863021 126.508621 307.294281
-13.863676 127.015373 307.308807
-13.863676 127.516121 307.308807
-13.864097 128.020737 307.318085
-13.864097 128.521515 307.318085
-13.864097 129.022293 307.318085
-13.863816 129.520432 307.311890
-17.437260 78.833900 401.000000
-17.437260 79.487320 401.000000
-17.437260 80.140747 401.000000
-17.437260 80.794174 401.000000
-17.437260 81.447594 401.000000
-17.428976 82.062019 400.809509
-17.428976 82.715134 400.809509
-17.428976 83.368248 400.809509
-17.428976 84.021362 400.809509
-17.428976 84.674477 400.809509
-17.428976 85.327591 400.809509
-17.428976 85.980705 400.809509
-17.428976 86.633812 400.809509
-17.428976 87.286934 400.809509
-17.428976 87.940048 400.809509
-17.428976 88.593163 400.809509
-17.428976 89.246269 400.809509
-17.428976 89.899391 400.809509
-17.428148 90.548203 400.790466
-17.428719 91.204269 400.803589
-17.428719 91.857368 400.803589
-17.428719 92.510475 400.803589
-17.428692 93.163445 400.803009
-17.428692 93.816551 400.803009
-17.428665 94.469505 400.802368
-17.428635 95.122429 400.801636
-17.428635 95.775528 400.801636
-17.428600 96.428452 400.800873
-17.268404 96.189224 397.116913
-17.268404 96.836319 397.116913
-14.799018 83.543266 340.329071
-14.799018 84.097824 340.329071
-14.799018 84.652382 340.329071
-14.827084 85.368538 340.974487
-15.132817 87.695900 348.005371
-15.132817 88.262970 348.005371
-15.132817 88.830048 348.005371
-15.080998 89.090996 346.813690
-15.080998 89.656120 346.813690
