6.917682 48.805080 412.282135
6.917682 49.476887 412.282135
6.917682 50.148697 412.282135
6.917682 50.820507 412.282135
6.917682 51.492317 412.282135
6.917682 52.164124 412.282135
6.917682 52.835934 412.282135
6.917682 53.507744 412.282135
6.917682 54.179550 412.282135
6.917682 54.851357 412.282135
6.913122 55.486565 412.010345
6.908665 56.121723 411.744720
6.908665 56.792656 411.744720
6.907849 57.456806 411.696106
6.914141 58.180599 412.071075
6.914141 58.852066 412.071075
6.914141 59.523529 412.071075
6.913787 60.191914 412.049988
6.913787 60.863346 412.049988
6.913397 61.531307 412.026764
6.912969 62.198845 412.001221
6.912969 62.870193 412.001221
6.912498 63.537212 411.973145
6.911979 64.203697 411.942230
6.820724 64.018440 406.503540
6.820724 64.680832 406.503540
6.875350 65.866562 409.759216
6.875350 66.534256 409.759216
6.875350 67.201958 409.759216
6.872318 67.839706 409.578461
6.868764 68.471695 409.366699
6.868764 69.138756 409.366699
6.792023 69.025902 404.793060
6.812683 69.897476 406.024353
6.812683 70.559097 406.024353
6.812683 71.220703 406.024353
6.782831 71.567329 404.245209
6.782831 72.226044 404.245209
6.722565 72.237175 400.653473
6.623384 71.814659 394.742462
6.623384 72.457886 394.742462
6.507343 71.820389 387.826599
6.482407 72.174721 386.340485
6.482407 72.804253 386.340485
6.450570 73.073135 384.443054
6.422287 73.376442 382.757446
6.422287 74.000137 382.757446
6.388705 74.233635 380.756012
6.343212 74.321045 378.044708
6.343212 74.937065 378.044708
6.174672 73.545624 368.000000
6.157893 73.943794 367.000000
6.157893 74.541817 367.000000
6.141114 74.935097 366.000000
6.141114 75.531487 366.000000
6.141114 76.127876 366.000000
6.124335 76.514641 365.000000
6.107556 76.898148 364.000000
6.073998 77.065506 362.000000
6.073998 77.655380 362.000000
6.057219 78.029106 361.000000
6.040440 78.399574 360.000000
6.040440 78.986191 360.000000
6.006882 79.130737 358.000000
5.990103 79.491425 357.000000
5.990103 80.073158 357.000000
5.956545 80.203033 355.000000
5.939766 80.553947 354.000000
5.939766 81.130791 354.000000
5.922987 81.476814 353.000000
5.906208 81.819580 352.000000
5.906208 82.393158 352.000000
5.889429 82.731041 351.000000
5.872650 83.065659 350.000000
5.872650 83.635979 350.000000
5.855871 83.965706 349.000000
5.839092 84.292175 348.000000
5.839092 84.859238 348.000000
5.822313 85.180824 347.000000
5.805534 85.499153 346.000000
5.805534 86.062950 346.000000
5.788755 86.376389 345.000000
5.771976 86.686569 344.000000
5.771976 87.247116 344.000000
5.755197 87.552399 343.000000
5.755197 88.111313 343.000000
5.755197 88.670227 343.000000
5.738419 88.968994 342.000000
5.721639 89.264511 341.000000
5.721639 89.820160 341.000000
5.704860 90.110794 340.000000
5.704860 90.664818 340.000000
5.688081 90.950546 339.000000
5.688081 91.502945 339.000000
5.688081 92.055344 339.000000
5.654523 92.061386 337.000000
5.654523 92.610519 337.000000
5.637744 92.883217 336.000000
5.637744 93.430725 336.000000
5.637744 93.978233 336.000000
5.620965 94.244415 335.000000
5.587407 94.224380 333.000000
5.587407 94.766998 333.000000
5.570628 95.023399 332.000000
5.553849 95.276543 331.000000
5.553849 95.815903 331.000000
5.553849 96.355263 331.000000
5.537070 96.601898 330.000000
5.537070 97.139626 330.000000
5.520291 97.381363 329.000000
5.503512 97.619843 328.000000
5.503512 98.154320 328.000000
5.486733 98.387909 327.000000
5.469954 98.618240 326.000000
5.469954 99.149452 326.000000
5.469954 99.680672 326.000000
5.436396 99.597084 324.000000
5.436396 100.125038 324.000000
5.419617 100.342339 323.000000
5.419617 100.868660 323.000000
5.419617 101.394981 323.000000
5.369280 100.974670 320.000000
5.369280 101.496109 320.000000
5.369280 102.017548 320.000000
5.352501 102.218544 319.000000
5.335722 102.416283 318.000000
5.335722 102.934464 318.000000
5.318943 103.127312 317.000000
5.302164 103.316917 316.000000
5.302164 103.831833 316.000000
5.302164 104.346748 316.000000
5.285385 104.529823 315.000000
5.268606 104.709641 314.000000
5.268606 105.221298 314.000000
5.251827 105.396233 313.000000
5.235048 105.567902 312.000000
5.235048 106.076302 312.000000
5.218269 106.243088 311.000000
5.218269 106.749855 311.000000
5.218269 107.256622 311.000000
5.201490 107.416885 310.000000
5.184711 107.573891 309.000000
5.184711 108.077400 309.000000
5.184711 108.580917 309.000000
5.167932 108.731400 308.000000
5.167932 109.233284 308.000000
5.151153 109.378891 307.000000
5.134374 109.521233 306.000000
5.134374 110.019852 306.000000
5.134374 110.518478 306.000000
5.117595 110.654297 305.000000
5.117595 111.151291 305.000000
5.100816 111.282227 304.000000
5.084037 111.409897 303.000000
5.084037 111.903633 303.000000
5.084037 112.397369 303.000000
5.067258 112.518524 302.000000
5.067258 113.010628 302.000000
5.067258 113.502731 302.000000
5.067258 113.994835 302.000000
5.067258 114.486938 302.000000
5.033700 114.217606 300.000000
5.033700 114.706451 300.000000
5.033700 115.195297 300.000000
5.033700 115.684143 300.000000
5.016921 115.785744 299.000000
5.000142 115.884087 298.000000
5.000142 116.369675 298.000000
4.983363 116.463127 297.000000
4.983363 116.947083 297.000000
4.983363 117.431046 297.000000
4.983363 117.915001 297.000000
4.966584 118.000305 296.000000
4.966584 118.482635 296.000000
4.966584 118.964966 296.000000
4.933026 118.640228 294.000000
4.933026 119.119293 294.000000
4.933026 119.598366 294.000000
4.933026 120.077431 294.000000
4.933026 120.556503 294.000000
4.916247 120.623886 293.000000
4.916247 121.101326 293.000000
4.916247 121.578766 293.000000
4.899468 121.639626 292.000000
4.899468 122.115440 292.000000
4.899468 122.591248 292.000000
4.882689 122.645592 291.000000
4.882689 123.119774 291.000000
4.882689 123.593956 291.000000
4.865910 123.641785 290.000000
4.865910 124.114334 290.000000
4.865910 124.586884 290.000000
4.865910 125.059441 290.000000
4.865910 138.290878 290.000000
4.865910 138.763428 290.000000
4.865910 139.235977 290.000000
7.639213 43.716919 415.000000
7.639213 44.393154 415.000000
7.639213 45.069393 415.000000
7.633077 45.708885 414.666656
7.612040 46.256741 413.523804
7.612040 46.930573 413.523804
7.552215 47.230267 410.273804
7.589183 48.133270 412.282135
7.589183 48.805080 412.282135
7.589183 49.476887 412.282135
7.589183 50.148697 412.282135
7.589183 50.820507 412.282135
7.589183 51.492317 412.282135
7.589183 52.164124 412.282135
7.589183 52.835934 412.282135
7.589183 53.507744 412.282135
7.589183 54.179550 412.282135
7.589183 54.851357 412.282135
7.584180 55.486565 412.010345
7.579291 56.121723 411.744720
7.579291 56.792656 411.744720
7.578396 57.456806 411.696106
7.585299 58.180599 412.071075
7.585299 58.852066 412.071075
7.585299 59.523529 412.071075
7.584910 60.191914 412.049988
7.584910 60.863346 412.049988
7.584482 61.531307 412.026764
7.584013 62.198845 412.001221
7.584013 62.870193 412.001221
7.583496 63.537212 411.973145
7.582926 64.203697 411.942230
7.391946 63.241039 401.567200
7.391946 63.895390 401.567200
7.542742 65.866562 409.759216
7.542742 66.534256 409.759216
7.542742 67.201958 409.759216
7.539414 67.839706 409.578461
7.535517 68.471695 409.366699
7.535517 69.138756 409.366699
7.312212 67.737206 397.235657
7.547749 70.587265 410.031219
7.547749 71.255409 410.031219
7.547749 71.923546 410.031219
7.490048 72.036743 406.896637
7.490048 72.699776 406.896637
7.420999 72.686493 403.145538
7.355711 72.698151 399.598755
7.355711 73.349289 399.598755
7.139012 71.820389 387.826599
7.111656 72.174721 386.340485
7.111656 72.804253 386.340485
7.076729 73.073135 384.443054
7.045701 73.376442 382.757446
7.045701 74.000137 382.757446
7.008858 74.233635 380.756012
6.774049 72.346321 368.000000
6.774049 72.945976 368.000000
6.774049 73.545624 368.000000
6.755641 73.943794 367.000000
6.755641 74.541817 367.000000
6.737234 74.935097 366.000000
6.737234 75.531487 366.000000
6.737234 76.127876 366.000000
6.718826 76.514641 365.000000
6.700418 76.898148 364.000000
6.663602 77.065506 362.000000
6.663602 77.655380 362.000000
6.645195 78.029106 361.000000
6.626787 78.399574 360.000000
6.626787 78.986191 360.000000
6.589972 79.130737 358.000000
6.571564 79.491425 357.000000
6.571564 80.073158 357.000000
6.534749 80.203033 355.000000
6.516341 80.553947 354.000000
6.516341 81.130791 354.000000
6.479525 81.245995 352.000000
6.479525 81.819580 352.000000
6.479525 82.393158 352.000000
6.461118 82.731041 351.000000
6.442710 83.065659 350.000000
6.442710 83.635979 350.000000
6.424302 83.965706 349.000000
6.405894 84.292175 348.000000
6.405894 84.859238 348.000000
6.387486 85.180824 347.000000
6.369079 85.499153 346.000000
6.369079 86.062950 346.000000
6.350671 86.376389 345.000000
6.332263 86.686569 344.000000
6.332263 87.247116 344.000000
6.313856 87.552399 343.000000
6.313856 88.111313 343.000000
6.313856 88.670227 343.000000
6.295448 88.968994 342.000000
6.277040 89.264511 341.000000
6.277040 89.820160 341.000000
6.258632 90.110794 340.000000
6.258632 90.664818 340.000000
6.240225 90.950546 339.000000
6.240225 91.502945 339.000000
6.240225 92.055344 339.000000
6.203409 92.061386 337.000000
6.203409 92.610519 337.000000
6.185001 92.883217 336.000000
6.185001 93.430725 336.000000
6.185001 93.978233 336.000000
6.166594 94.244415 335.000000
6.129778 94.224380 333.000000
6.129778 94.766998 333.000000
6.111371 95.023399 332.000000
6.092963 95.276543 331.000000
6.092963 95.815903 331.000000
6.074555 96.064171 330.000000
6.074555 96.601898 330.000000
6.074555 97.139626 330.000000
6.056147 97.381363 329.000000
6.019332 97.322220 327.000000
6.019332 97.855064 327.000000
6.000924 98.087029 326.000000
6.000924 98.618240 326.000000
6.000924 99.149452 326.000000
5.982516 99.374901 325.000000
5.945701 99.289688 323.000000
5.945701 99.816010 323.000000
5.945701 100.342339 323.000000
5.908885 100.244080 321.000000
5.908885 100.767151 321.000000
5.890478 100.974670 320.000000
5.872070 101.178932 319.000000
5.872070 101.698738 319.000000
5.872070 102.218544 319.000000
5.835254 102.094215 317.000000
5.835254 102.610764 317.000000
5.835254 103.127312 317.000000
5.816846 103.316917 316.000000
5.816846 103.831833 316.000000
5.816846 104.346748 316.000000
5.798439 104.529823 315.000000
5.780031 104.709641 314.000000
5.780031 105.221298 314.000000
5.761623 105.396233 313.000000
5.743216 105.567902 312.000000
5.743216 106.076302 312.000000
5.724808 106.243088 311.000000
5.724808 106.749855 311.000000
5.724808 107.256622 311.000000
5.706400 107.416885 310.000000
5.687992 107.573891 309.000000
5.687992 108.077400 309.000000
5.669585 108.229523 308.000000
5.669585 108.731400 308.000000
5.669585 109.233284 308.000000
5.651177 109.378891 307.000000
5.632769 109.521233 306.000000
5.632769 110.019852 306.000000
5.614361 110.157303 305.000000
5.595953 110.291496 304.000000
5.595953 110.786858 304.000000
5.577546 110.916161 303.000000
5.577546 111.409897 303.000000
5.577546 111.903633 303.000000
5.559138 112.026413 302.000000
5.559138 112.518524 302.000000
5.559138 113.010628 302.000000
5.559138 113.502731 302.000000
5.540730 113.617371 301.000000
5.540730 114.107841 301.000000
5.522323 114.217606 300.000000
5.522323 114.706451 300.000000
5.522323 115.195297 300.000000
5.522323 115.684143 300.000000
5.503915 115.785744 299.000000
5.485507 115.884087 298.000000
5.485507 116.369675 298.000000
5.467099 116.463127 297.000000
5.467099 116.947083 297.000000
5.467099 117.431046 297.000000
5.467099 117.915001 297.000000
5.448692 118.000305 296.000000
5.448692 118.482635 296.000000
5.448692 118.964966 296.000000
5.411876 118.640228 294.000000
5.411876 119.119293 294.000000
5.411876 119.598366 294.000000
5.411876 120.077431 294.000000
5.411876 120.556503 294.000000
5.393468 120.623886 293.000000
5.375061 120.688004 292.000000
5.375061 121.163818 292.000000
5.375061 121.639626 292.000000
5.375061 122.115440 292.000000
5.375061 122.591248 292.000000
5.356653 122.645592 291.000000
5.356653 123.119774 291.000000
5.356653 123.593956 291.000000
5.338245 123.641785 290.000000
5.338245 124.114334 290.000000
5.338245 124.586884 290.000000
5.338245 125.059441 290.000000
5.338245 138.290878 290.000000
5.338245 138.763428 290.000000
5.338245 139.235977 290.000000
5.338245 139.708527 290.000000
8.371243 41.288677 417.799988
8.371243 41.969475 417.799988
8.371243 42.650276 417.799988
8.346397 43.202473 416.559998
8.353566 43.918941 416.917786
8.353566 44.598305 416.917786
8.353566 45.277664 416.917786
8.353566 45.957027 416.917786
8.353566 46.636391 416.917786
8.353566 47.315754 416.917786
8.353566 47.995113 416.917786
8.353566 48.674477 416.917786
8.353566 49.353840 416.917786
8.353566 50.033203 416.917786
8.353566 50.712566 416.917786
8.353566 51.391926 416.917786
8.353566 52.071289 416.917786
8.352339 52.742897 416.856506
8.352339 53.422157 416.856506
8.353267 54.107433 416.902832
8.353267 54.786770 416.902832
8.353267 55.466106 416.902832
8.353236 56.145248 416.901337
8.353204 56.824356 416.899689
8.353204 57.503693 416.899689
8.353168 58.182774 416.897888
8.353128 58.861820 416.895905
8.353128 59.541149 416.895905
8.353084 60.220158 416.893707
8.353035 60.899132 416.891296
8.353035 61.578449 416.891296
8.352983 62.257370 416.888641
8.330454 62.766941 415.764282
8.330454 63.444427 415.764282
8.330454 64.121902 415.764282
8.328266 64.782372 415.655060
8.325766 65.440018 415.530273
8.325766 66.117126 415.530273
8.323019 66.772194 415.393188
8.320000 67.424606 415.242523
8.320000 68.101234 415.242523
8.316684 68.750450 415.076996
8.313039 69.396393 414.895111
8.313039 70.072456 414.895111
8.309034 70.714439 414.695251
8.215584 70.587265 410.031219
8.215584 71.255409 410.031219
8.215584 71.923546 410.031219
8.152778 72.036743 406.896637
8.152778 72.699776 406.896637
8.077619 72.686493 403.145538
8.006554 72.698151 399.598755
8.006554 73.349289 399.598755
7.770681 71.820389 387.826599
7.740904 72.174721 386.340485
7.740904 72.804253 386.340485
7.702887 73.073135 384.443054
7.669113 73.376442 382.757446
7.669113 74.000137 382.757446
7.629012 74.233635 380.756012
7.373426 72.346321 368.000000
7.373426 72.945976 368.000000
7.353390 73.345772 367.000000
7.353390 73.943794 367.000000
7.353390 74.541817 367.000000
7.333353 74.935097 366.000000
7.333353 75.531487 366.000000
7.333353 76.127876 366.000000
7.313317 76.514641 365.000000
7.273243 76.686890 363.000000
7.253207 77.065506 362.000000
7.253207 77.655380 362.000000
7.233171 78.029106 361.000000
7.213134 78.399574 360.000000
7.213134 78.986191 360.000000
7.173061 79.130737 358.000000
7.153025 79.491425 357.000000
7.153025 80.073158 357.000000
7.092915 79.977112 354.000000
7.072879 80.326393 353.000000
7.072879 80.901604 353.000000
7.052842 81.245995 352.000000
7.052842 81.819580 352.000000
7.052842 82.393158 352.000000
7.032806 82.731041 351.000000
7.012770 83.065659 350.000000
7.012770 83.635979 350.000000
6.992733 83.965706 349.000000
6.972697 84.292175 348.000000
6.972697 84.859238 348.000000
6.952660 85.180824 347.000000
6.932623 85.499153 346.000000
6.932623 86.062950 346.000000
6.912587 86.376389 345.000000
6.892550 86.686569 344.000000
6.892550 87.247116 344.000000
6.872514 87.552399 343.000000
6.872514 88.111313 343.000000
6.872514 88.670227 343.000000
6.852478 88.968994 342.000000
6.832441 89.264511 341.000000
6.832441 89.820160 341.000000
6.812404 90.110794 340.000000
6.792367 90.398155 339.000000
6.792367 90.950546 339.000000
6.792367 91.502945 339.000000
6.772331 91.783791 338.000000
6.752295 92.061386 337.000000
6.752295 92.610519 337.000000
6.732258 92.883217 336.000000
6.732258 93.430725 336.000000
6.732258 93.978233 336.000000
6.712222 94.244415 335.000000
6.672149 94.224380 333.000000
6.672149 94.766998 333.000000
6.652112 95.023399 332.000000
6.632076 95.276543 331.000000
6.632076 95.815903 331.000000
6.612040 96.064171 330.000000
6.612040 96.601898 330.000000
6.612040 97.139626 330.000000
6.592003 97.381363 329.000000
6.551930 97.322220 327.000000
6.551930 97.855064 327.000000
6.531894 98.087029 326.000000
6.531894 98.618240 326.000000
6.531894 99.149452 326.000000
6.511857 99.374901 325.000000
6.471784 99.289688 323.000000
6.471784 99.816010 323.000000
6.451747 100.031677 322.000000
6.411675 99.931801 320.000000
6.411675 100.453239 320.000000
6.391638 100.659126 319.000000
6.391638 101.178932 319.000000
6.391638 101.698738 319.000000
6.371602 101.898109 318.000000
6.351565 102.094215 317.000000
6.351565 102.610764 317.000000
6.351565 103.127312 317.000000
6.331529 103.316917 316.000000
6.331529 103.831833 316.000000
6.331529 104.346748 316.000000
6.311492 104.529823 315.000000
6.291456 104.709641 314.000000
6.291456 105.221298 314.000000
6.271419 105.396233 313.000000
6.231347 105.229546 311.000000
6.231347 105.736313 311.000000
6.231347 106.243088 311.000000
6.231347 106.749855 311.000000
6.231347 107.256622 311.000000
6.211310 107.416885 310.000000
6.191273 107.573891 309.000000
6.191273 108.077400 309.000000
6.171237 108.229523 308.000000
6.171237 108.731400 308.000000
6.171237 109.233284 308.000000
6.151201 109.378891 307.000000
6.131164 109.521233 306.000000
6.131164 110.019852 306.000000
6.111127 110.157303 305.000000
6.091091 110.291496 304.000000
6.091091 110.786858 304.000000
6.071054 110.916161 303.000000
6.071054 111.409897 303.000000
6.071054 111.903633 303.000000
6.051018 112.026413 302.000000
6.051018 112.518524 302.000000
6.051018 113.010628 302.000000
6.030982 113.126892 301.000000
6.030982 113.617371 301.000000
6.030982 114.107841 301.000000
6.010945 114.217606 300.000000
6.010945 114.706451 300.000000
5.990909 114.811310 299.000000
5.990909 115.298531 299.000000
5.970872 115.398499 298.000000
5.950836 115.495209 297.000000
5.950836 115.979172 297.000000
5.950836 116.463127 297.000000
5.950836 116.947083 297.000000
5.950836 117.431046 297.000000
5.950836 117.915001 297.000000
5.930799 118.000305 296.000000
5.930799 118.482635 296.000000
5.910763 118.563049 295.000000
5.890727 118.640228 294.000000
5.890727 119.119293 294.000000
5.890727 119.598366 294.000000
5.890727 120.077431 294.000000
5.890727 120.556503 294.000000
5.870689 120.623886 293.000000
5.850653 120.688004 292.000000
5.850653 121.163818 292.000000
5.850653 121.639626 292.000000
5.850653 122.115440 292.000000
5.850653 122.591248 292.000000
5.830617 122.645592 291.000000
5.830617 123.119774 291.000000
5.830617 123.593956 291.000000
5.810580 123.641785 290.000000
5.810580 124.114334 290.000000
5.810580 124.586884 290.000000
5.810580 125.059441 290.000000
5.810580 138.290878 290.000000
5.810580 138.763428 290.000000
5.810580 139.235977 290.000000
5.810580 139.708527 290.000000
8.843745 39.009655 408.200012
8.843745 39.674809 408.200012
9.051730 41.288677 417.799988
9.051730 41.969475 417.799988
9.051730 42.650276 417.799988
9.024866 43.202473 416.559998
9.032618 43.918941 416.917786
9.032618 44.598305 416.917786
9.032618 45.277664 416.917786
9.032618 45.957027 416.917786
9.032618 46.636391 416.917786
9.032618 47.315754 416.917786
9.032618 47.995113 416.917786
9.032618 48.674477 416.917786
9.032618 49.353840 416.917786
9.032618 50.033203 416.917786
9.032618 50.712566 416.917786
9.032618 51.391926 416.917786
9.032618 52.071289 416.917786
9.031290 52.742897 416.856506
9.031290 53.422157 416.856506
9.032293 54.107433 416.902832
9.032293 54.786770 416.902832
9.032293 55.466106 416.902832
9.032261 56.145248 416.901337
9.032226 56.824356 416.899689
9.032226 57.503693 416.899689
9.032187 58.182774 416.897888
9.032144 58.861820 416.895905
9.032144 59.541149 416.895905
9.032096 60.220158 416.893707
9.032044 60.899132 416.891296
9.032044 61.578449 416.891296
9.031986 62.257370 416.888641
9.007627 62.766941 415.764282
9.007627 63.444427 415.764282
9.007627 64.121902 415.764282
9.005260 64.782372 415.655060
9.002557 65.440018 415.530273
9.002557 66.117126 415.530273
8.999587 66.772194 415.393188
8.996323 67.424606 415.242523
8.996323 68.101234 415.242523
8.992736 68.750450 415.076996
8.988795 69.396393 414.895111
8.988795 70.072456 414.895111
8.984467 70.714439 414.695251
8.883419 70.587265 410.031219
8.883419 71.255409 410.031219
8.883419 71.923546 410.031219
8.815507 72.036743 406.896637
8.815507 72.699776 406.896637
8.734239 72.686493 403.145538
8.657397 72.698151 399.598755
8.657397 73.349289 399.598755
8.016133 68.519135 370.000000
8.016133 69.122047 370.000000
8.016133 69.724953 370.000000
8.230741 72.210678 379.905609
8.230741 72.829727 379.905609
8.230741 73.448776 379.905609
7.994468 71.941628 369.000000
7.972803 72.346321 368.000000
7.972803 72.945976 368.000000
7.951138 73.345772 367.000000
7.951138 73.943794 367.000000
7.951138 74.541817 367.000000
7.929472 74.935097 366.000000
7.929472 75.531487 366.000000
7.929472 76.127876 366.000000
7.907807 76.514641 365.000000
7.864477 76.686890 363.000000
7.842811 77.065506 362.000000
7.842811 77.655380 362.000000
7.821146 78.029106 361.000000
7.799481 78.399574 360.000000
7.799481 78.986191 360.000000
7.734486 78.909698 357.000000
7.734486 79.491425 357.000000
7.734486 80.073158 357.000000
7.669489 79.977112 354.000000
7.647824 80.326393 353.000000
7.647824 80.901604 353.000000
7.626159 81.245995 352.000000
7.626159 81.819580 352.000000
7.626159 82.393158 352.000000
7.604494 82.731041 351.000000
7.582829 83.065659 350.000000
7.582829 83.635979 350.000000
7.561164 83.965706 349.000000
7.539499 84.292175 348.000000
7.539499 84.859238 348.000000
7.517833 85.180824 347.000000
7.496168 85.499153 346.000000
7.496168 86.062950 346.000000
7.474503 86.376389 345.000000
7.452837 86.686569 344.000000
7.452837 87.247116 344.000000
7.431172 87.552399 343.000000
7.431172 88.111313 343.000000
7.431172 88.670227 343.000000
7.409507 88.968994 342.000000
7.387842 89.264511 341.000000
7.387842 89.820160 341.000000
7.366176 90.110794 340.000000
7.344511 90.398155 339.000000
7.344511 90.950546 339.000000
7.344511 91.502945 339.000000
7.322846 91.783791 338.000000
7.301181 92.061386 337.000000
7.301181 92.610519 337.000000
7.279516 92.883217 336.000000
7.279516 93.430725 336.000000
7.279516 93.978233 336.000000
7.257851 94.244415 335.000000
7.214520 94.224380 333.000000
7.214520 94.766998 333.000000
7.192855 95.023399 332.000000
7.149524 94.988708 330.000000
7.149524 95.526436 330.000000
7.149524 96.064171 330.000000
7.127859 96.309166 329.000000
7.127859 96.845268 329.000000
7.106194 97.085373 328.000000
7.084529 97.322220 327.000000
7.084529 97.855064 327.000000
7.062864 98.087029 326.000000
7.062864 98.618240 326.000000
7.062864 99.149452 326.000000
7.019533 99.069130 324.000000
6.997868 99.289688 323.000000
6.997868 99.816010 323.000000
6.976202 100.031677 322.000000
6.932872 99.931801 320.000000
6.932872 100.453239 320.000000
6.911207 100.659126 319.000000
6.911207 101.178932 319.000000
6.911207 101.698738 319.000000
6.889542 101.898109 318.000000
6.867877 102.094215 317.000000
6.867877 102.610764 317.000000
6.846211 102.801994 316.000000
6.846211 103.316917 316.000000
6.824546 103.503250 315.000000
6.824546 104.016541 315.000000
6.802880 104.197983 314.000000
6.781215 104.376175 313.000000
6.781215 104.886208 313.000000
6.781215 105.396233 313.000000
6.737885 105.229546 311.000000
6.737885 105.736313 311.000000
6.737885 106.243088 311.000000
6.716220 106.406609 310.000000
6.716220 106.911751 310.000000
6.716220 107.416885 310.000000
6.694555 107.573891 309.000000
6.694555 108.077400 309.000000
6.672889 108.229523 308.000000
6.672889 108.731400 308.000000
6.672889 109.233284 308.000000
6.629559 109.022606 306.000000
6.629559 109.521233 306.000000
6.629559 110.019852 306.000000
6.607893 110.157303 305.000000
6.586228 110.291496 304.000000
6.586228 110.786858 304.000000
6.564563 110.916161 303.000000
6.564563 111.409897 303.000000
6.564563 111.903633 303.000000
6.542898 112.026413 302.000000
6.542898 112.518524 302.000000
6.542898 113.010628 302.000000
6.521233 113.126892 301.000000
6.521233 113.617371 301.000000
6.521233 114.107841 301.000000
6.499568 114.217606 300.000000
6.499568 114.706451 300.000000
6.477902 114.811310 299.000000
6.477902 115.298531 299.000000
6.456237 115.398499 298.000000
6.434572 115.495209 297.000000
6.434572 115.979172 297.000000
6.434572 116.463127 297.000000
6.434572 116.947083 297.000000
6.434572 117.431046 297.000000
6.434572 117.915001 297.000000
6.412907 118.000305 296.000000
6.412907 118.482635 296.000000
6.391242 118.563049 295.000000
6.391242 119.043755 295.000000
6.391242 119.524452 295.000000
6.369576 119.598366 294.000000
6.369576 120.077431 294.000000
6.369576 120.556503 294.000000
6.347911 120.623886 293.000000
6.347911 121.101326 293.000000
6.347911 121.578766 293.000000
6.326246 121.639626 292.000000
6.326246 122.115440 292.000000
6.326246 122.591248 292.000000
6.304581 122.645592 291.000000
6.304581 123.119774 291.000000
6.304581 123.593956 291.000000
6.304581 124.068138 291.000000
6.282915 124.114334 290.000000
6.282915 124.586884 290.000000
6.282915 125.059441 290.000000
6.282915 125.531990 290.000000
6.282915 126.004539 290.000000
6.282915 138.290878 290.000000
6.282915 138.763428 290.000000
6.282915 139.235977 290.000000
6.282915 139.708527 290.000000
9.518950 39.052124 408.644440
9.518950 39.718006 408.644440
9.732219 41.288677 417.799988
9.732219 41.969475 417.799988
9.732219 42.650276 417.799988
9.703335 43.202473 416.559998
9.711669 43.918941 416.917786
9.711669 44.598305 416.917786
9.711669 45.277664 416.917786
9.711669 45.957027 416.917786
9.711669 46.636391 416.917786
9.711669 47.315754 416.917786
9.711669 47.995113 416.917786
9.711669 48.674477 416.917786
9.711669 49.353840 416.917786
9.711669 50.033203 416.917786
9.711669 50.712566 416.917786
9.711669 51.391926 416.917786
9.711669 52.071289 416.917786
9.710241 52.742897 416.856506
9.710241 53.422157 416.856506
9.711321 54.107433 416.902832
9.711321 54.786770 416.902832
9.711321 55.466106 416.902832
9.711286 56.145248 416.901337
9.711247 56.824356 416.899689
9.711247 57.503693 416.899689
9.711205 58.182774 416.897888
9.711159 58.861820 416.895905
9.711159 59.541149 416.895905
9.711108 60.220158 416.893707
9.711052 60.899132 416.891296
9.711052 61.578449 416.891296
9.710990 62.257370 416.888641
9.684799 62.766941 415.764282
9.684799 63.444427 415.764282
9.684799 64.121902 415.764282
9.682256 64.782372 415.655060
9.679349 65.440018 415.530273
9.679349 66.117126 415.530273
9.676155 66.772194 415.393188
9.672646 67.424606 415.242523
9.672646 68.101234 415.242523
9.668790 68.750450 415.076996
9.664554 69.396393 414.895111
9.664554 70.072456 414.895111
9.659898 70.714439 414.695251
9.201252 68.000626 395.005798
9.201252 68.644279 395.005798
9.272495 69.824425 398.064270
9.272495 70.473068 398.064270
9.272495 71.121704 398.064270
9.200509 71.213158 394.973907
9.132086 71.322372 392.036530
9.132086 71.961189 392.036530
8.618768 68.519135 370.000000
8.618768 69.122047 370.000000
8.618768 69.724953 370.000000
8.595473 70.137787 369.000000
8.595473 70.739067 369.000000
8.595473 71.340347 369.000000
8.595473 71.941628 369.000000
8.572180 72.346321 368.000000
8.572180 72.945976 368.000000
8.548886 73.345772 367.000000
8.548886 73.943794 367.000000
8.548886 74.541817 367.000000
8.525592 74.935097 366.000000
8.502298 75.325119 365.000000
8.502298 75.919876 365.000000
8.502298 76.514641 365.000000
8.455709 76.686890 363.000000
8.432416 77.065506 362.000000
8.432416 77.655380 362.000000
8.409122 78.029106 361.000000
8.385828 78.399574 360.000000
8.385828 78.986191 360.000000
8.315947 78.909698 357.000000
8.315947 79.491425 357.000000
8.315947 80.073158 357.000000
8.246064 79.977112 354.000000
8.222770 80.326393 353.000000
8.222770 80.901604 353.000000
8.222770 81.476814 353.000000
8.176183 81.587143 351.000000
8.176183 82.159088 351.000000
8.176183 82.731041 351.000000
8.152888 83.065659 350.000000
8.152888 83.635979 350.000000
8.129595 83.965706 349.000000
8.083006 84.049965 347.000000
8.083006 84.615395 347.000000
8.059712 84.935349 346.000000
8.059712 85.499153 346.000000
8.059712 86.062950 346.000000
8.036419 86.376389 345.000000
8.013124 86.686569 344.000000
8.013124 87.247116 344.000000
7.989830 87.552399 343.000000
7.966537 87.854431 342.000000
7.966537 88.411713 342.000000
7.943243 88.708855 341.000000
7.919948 89.002739 340.000000
7.919948 89.556763 340.000000
7.919948 90.110794 340.000000
7.896655 90.398155 339.000000
7.896655 90.950546 339.000000
7.896655 91.502945 339.000000
7.873361 91.783791 338.000000
7.850067 92.061386 337.000000
7.850067 92.610519 337.000000
7.826773 92.883217 336.000000
7.826773 93.430725 336.000000
7.826773 93.978233 336.000000
7.803479 94.244415 335.000000
7.756891 94.224380 333.000000
7.756891 94.766998 333.000000
7.733597 95.023399 332.000000
7.687009 94.988708 330.000000
7.687009 95.526436 330.000000
7.663715 95.773064 329.000000
7.663715 96.309166 329.000000
7.663715 96.845268 329.000000
7.617127 96.789375 327.000000
7.593833 97.024605 326.000000
7.593833 97.555817 326.000000
7.593833 98.087029 326.000000
7.570539 98.315727 325.000000
7.570539 98.845314 325.000000
7.547245 99.069130 324.000000
7.523951 99.289688 323.000000
7.523951 99.816010 323.000000
7.500657 100.031677 322.000000
7.454069 99.931801 320.000000
7.454069 100.453239 320.000000
7.430776 100.659126 319.000000
7.407482 100.861755 318.000000
7.407482 101.379929 318.000000
7.407482 101.898109 318.000000
7.384188 102.094215 317.000000
7.384188 102.610764 317.000000
7.360894 102.801994 316.000000
7.360894 103.316917 316.000000
7.337599 103.503250 315.000000
7.337599 104.016541 315.000000
7.314305 104.197983 314.000000
7.291011 104.376175 313.000000
7.291011 104.886208 313.000000
7.291011 105.396233 313.000000
7.244424 105.229546 311.000000
7.244424 105.736313 311.000000
7.221130 105.901466 310.000000
7.221130 106.406609 310.000000
7.221130 106.911751 310.000000
7.197836 107.070381 309.000000
7.174541 107.225754 308.000000
7.174541 107.727638 308.000000
7.174541 108.229523 308.000000
7.151248 108.378387 307.000000
7.151248 108.878639 307.000000
7.127954 109.022606 306.000000
7.127954 109.521233 306.000000
7.127954 110.019852 306.000000
7.104660 110.157303 305.000000
7.081366 110.291496 304.000000
7.081366 110.786858 304.000000
7.058072 110.916161 303.000000
7.058072 111.409897 303.000000
7.058072 111.903633 303.000000
7.034778 112.026413 302.000000
7.011484 112.145943 301.000000
7.011484 112.636414 301.000000
7.011484 113.126892 301.000000
7.011484 113.617371 301.000000
7.011484 114.107841 301.000000
6.988191 114.217606 300.000000
6.988191 114.706451 300.000000
6.964896 114.811310 299.000000
6.964896 115.298531 299.000000
6.941602 115.398499 298.000000
6.918308 115.495209 297.000000
6.918308 115.979172 297.000000
6.918308 116.463127 297.000000
6.918308 116.947083 297.000000
6.918308 117.431046 297.000000
6.918308 117.915001 297.000000
6.895014 118.000305 296.000000
6.895014 118.482635 296.000000
6.871720 118.563049 295.000000
6.871720 119.043755 295.000000
6.871720 119.524452 295.000000
6.848426 119.598366 294.000000
6.848426 120.077431 294.000000
6.848426 120.556503 294.000000
6.825132 120.623886 293.000000
6.825132 121.101326 293.000000
6.825132 121.578766 293.000000
6.825132 122.056206 293.000000
6.801838 122.115440 292.000000
6.801838 122.591248 292.000000
6.801838 123.067055 292.000000
6.778544 123.119774 291.000000
6.778544 123.593956 291.000000
6.778544 124.068138 291.000000
6.755250 124.114334 290.000000
6.755250 124.586884 290.000000
6.755250 125.059441 290.000000
6.755250 125.531990 290.000000
6.755250 126.004539 290.000000
6.755250 138.290878 290.000000
6.755250 138.763428 290.000000
6.755250 139.235977 290.000000
6.755250 139.708527 290.000000
6.755250 140.181076 290.000000
6.755250 140.653625 290.000000
10.484152 39.515560 420.666656
10.484152 40.201027 420.666656
10.484152 40.886497 420.666656
10.376154 41.143734 416.333344
10.376154 41.822147 416.333344
10.376154 42.500557 416.333344
10.334339 43.004955 414.655548
10.334339 43.680634 414.655548
10.334339 44.356312 414.655548
10.334339 45.031982 414.655548
10.334339 45.707661 414.655548
10.334339 46.383335 414.655548
10.334339 47.059013 414.655548
10.334339 47.734688 414.655548
10.334339 48.410362 414.655548
10.334339 49.086040 414.655548
10.334339 49.761719 414.655548
10.332841 50.430080 414.595428
10.332841 51.105656 414.595428
10.332841 51.781235 414.595428
10.332691 52.456051 414.589417
10.332691 53.131622 414.589417
10.332526 53.806335 414.582825
10.332345 54.480934 414.575531
10.332345 55.156479 414.575531
10.332146 55.830948 414.567535
10.331927 56.505280 414.558746
10.331927 57.180798 414.558746
10.331686 57.854969 414.549072
10.331420 58.528965 414.538422
10.331420 59.204449 414.538422
10.331128 59.878242 414.526703
10.331951 60.558540 414.559753
10.331951 61.234058 414.559753
10.331951 61.909576 414.559753
10.331862 62.584560 414.556183
10.331862 63.260071 414.556183
10.331779 63.935074 414.552856
10.331706 64.610115 414.549866
10.235242 64.676071 410.679352
10.235242 65.345268 410.679352
10.208000 65.838760 409.586304
10.201172 66.461693 409.312317
10.201172 67.128662 409.312317
10.193645 67.745613 409.010345
10.185349 68.356415 408.677490
10.185349 69.022346 408.677490
10.176208 69.625732 408.310669
9.711247 67.079407 389.654572
9.711247 67.714340 389.654572
9.678641 68.119797 388.346283
9.633660 68.433075 386.541473
9.633660 69.062935 386.541473
9.271247 67.070999 372.000000
9.271247 67.677170 372.000000
9.271247 68.283340 372.000000
9.221402 68.519135 370.000000
9.221402 69.122047 370.000000
9.221402 69.724953 370.000000
9.196479 70.137787 369.000000
9.196479 70.739067 369.000000
9.196479 71.340347 369.000000
9.196479 71.941628 369.000000
9.171556 72.346321 368.000000
9.171556 72.945976 368.000000
9.146634 73.345772 367.000000
9.146634 73.943794 367.000000
9.146634 74.541817 367.000000
9.121712 74.935097 366.000000
9.096788 75.325119 365.000000
9.096788 75.919876 365.000000
9.096788 76.514641 365.000000
9.046943 76.686890 363.000000
9.022020 77.065506 362.000000
9.022020 77.655380 362.000000
8.997098 78.029106 361.000000
8.972175 78.399574 360.000000
8.972175 78.986191 360.000000
8.897408 78.909698 357.000000
8.872484 79.268761 356.000000
8.872484 79.848862 356.000000
8.822639 79.977112 354.000000
8.797716 80.326393 353.000000
8.797716 80.901604 353.000000
8.797716 81.476814 353.000000
8.747870 81.587143 351.000000
8.747870 82.159088 351.000000
8.747870 82.731041 351.000000
8.722948 83.065659 350.000000
8.722948 83.635979 350.000000
8.698026 83.965706 349.000000
8.648179 84.049965 347.000000
8.648179 84.615395 347.000000
8.623257 84.935349 346.000000
8.623257 85.499153 346.000000
8.623257 86.062950 346.000000
8.573412 86.126022 344.000000
8.548489 86.434570 343.000000
8.548489 86.993484 343.000000
8.548489 87.552399 343.000000
8.523566 87.854431 342.000000
8.523566 88.411713 342.000000
8.498644 88.708855 341.000000
8.473721 89.002739 340.000000
8.473721 89.556763 340.000000
8.448798 89.845757 339.000000
8.448798 90.398155 339.000000
8.448798 90.950546 339.000000
8.448798 91.502945 339.000000
8.398952 91.512245 337.000000
8.374030 91.788200 336.000000
8.374030 92.335709 336.000000
8.374030 92.883217 336.000000
8.349108 93.152657 335.000000
8.349108 93.698532 335.000000
8.324184 93.963081 334.000000
8.274340 93.941422 332.000000
8.274340 94.482414 332.000000
8.274340 95.023399 332.000000
8.224494 94.988708 330.000000
8.224494 95.526436 330.000000
8.199571 95.773064 329.000000
8.199571 96.309166 329.000000
8.199571 96.845268 329.000000
8.149726 96.789375 327.000000
8.124804 97.024605 326.000000
8.124804 97.555817 326.000000
8.124804 98.087029 326.000000
8.099880 98.315727 325.000000
8.099880 98.845314 325.000000
8.050035 98.763359 323.000000
8.025112 98.982285 322.000000
8.025112 99.506981 322.000000
8.000189 99.721016 321.000000
7.975266 99.931801 320.000000
7.975266 100.453239 320.000000
7.950344 100.659126 319.000000
7.925421 100.861755 318.000000
7.925421 101.379929 318.000000
7.900499 101.577675 317.000000
7.900499 102.094215 317.000000
7.900499 102.610764 317.000000
7.875576 102.801994 316.000000
7.875576 103.316917 316.000000
7.825730 103.174667 314.000000
7.825730 103.686325 314.000000
7.825730 104.197983 314.000000
7.800807 104.376175 313.000000
7.800807 104.886208 313.000000
7.775885 105.059502 312.000000
7.750962 105.229546 311.000000
7.750962 105.736313 311.000000
7.726040 105.901466 310.000000
7.726040 106.406609 310.000000
7.726040 106.911751 310.000000
7.701117 107.070381 309.000000
7.676194 107.225754 308.000000
7.676194 107.727638 308.000000
7.676194 108.229523 308.000000
7.651271 108.378387 307.000000
7.651271 108.878639 307.000000
7.626348 109.022606 306.000000
7.626348 109.521233 306.000000
7.626348 110.019852 306.000000
7.601426 110.157303 305.000000
7.551581 109.928696 303.000000
7.551581 110.422424 303.000000
7.551581 110.916161 303.000000
7.551581 111.409897 303.000000
7.551581 111.903633 303.000000
7.526658 112.026413 302.000000
7.501736 112.145943 301.000000
7.501736 112.636414 301.000000
7.501736 113.126892 301.000000
7.476813 113.239914 300.000000
7.476813 113.728760 300.000000
7.476813 114.217606 300.000000
7.476813 114.706451 300.000000
7.451890 114.811310 299.000000
7.451890 115.298531 299.000000
7.426967 115.398499 298.000000
7.402044 115.495209 297.000000
7.402044 115.979172 297.000000
7.402044 116.463127 297.000000
7.402044 116.947083 297.000000
7.402044 117.431046 297.000000
7.377121 117.517982 296.000000
7.377121 118.000305 296.000000
7.377121 118.482635 296.000000
7.352199 118.563049 295.000000
7.352199 119.043755 295.000000
7.352199 119.524452 295.000000
7.327276 119.598366 294.000000
7.327276 120.077431 294.000000
7.327276 120.556503 294.000000
7.302354 120.623886 293.000000
7.302354 121.101326 293.000000
7.302354 121.578766 293.000000
7.626348 127.471664 306.000000
7.626348 127.970284 306.000000
7.626348 128.468918 306.000000
7.277431 123.067055 292.000000
7.252508 123.119774 291.000000
7.252508 123.593956 291.000000
7.252508 124.068138 291.000000
7.227585 124.114334 290.000000
7.227585 124.586884 290.000000
7.227585 125.059441 290.000000
7.227585 125.531990 290.000000
7.227585 126.004539 290.000000
7.227585 138.290878 290.000000
7.227585 138.763428 290.000000
7.227585 139.235977 290.000000
7.227585 139.708527 290.000000
7.227585 140.181076 290.000000
7.227585 140.653625 290.000000
7.227585 141.126190 290.000000
7.227585 141.598740 290.000000
7.227585 142.071289 290.000000
7.227585 142.543839 290.000000
11.169310 39.515560 420.666656
11.169310 40.201027 420.666656
11.169310 40.886497 420.666656
11.009706 40.977928 414.655548
11.009706 41.653606 414.655548
11.009706 42.329281 414.655548
11.009706 43.004955 414.655548
11.009706 43.680634 414.655548
11.009706 44.356312 414.655548
11.009706 45.031982 414.655548
11.009706 45.707661 414.655548
11.009706 46.383335 414.655548
11.009706 47.059013 414.655548
11.009706 47.734688 414.655548
11.009706 48.410362 414.655548
11.009706 49.086040 414.655548
11.009706 49.761719 414.655548
11.008110 50.430080 414.595428
11.008110 51.105656 414.595428
11.008110 51.781235 414.595428
11.007950 52.456051 414.589417
11.007950 53.131622 414.589417
11.007775 53.806335 414.582825
11.007582 54.480934 414.575531
11.007582 55.156479 414.575531
11.007369 55.830948 414.567535
11.007135 56.505280 414.558746
11.007135 57.180798 414.558746
11.006879 57.854969 414.549072
11.006597 58.528965 414.538422
11.006597 59.204449 414.538422
11.006285 59.878242 414.526703
11.007163 60.558540 414.559753
11.007163 61.234058 414.559753
11.007163 61.909576 414.559753
11.007068 62.584560 414.556183
11.007068 63.260071 414.556183
11.006979 63.935074 414.552856
11.006900 64.610115 414.549866
10.904132 64.676071 410.679352
10.904132 65.345268 410.679352
10.809947 65.444260 407.132080
10.718939 65.551117 403.704468
10.718939 66.208954 403.704468
10.634451 66.339729 400.522400
10.553843 66.484589 397.486511
10.553843 67.132278 397.486511
10.399132 66.786369 391.659637
10.264696 66.552940 386.596436
10.264696 67.182899 386.596436
10.236291 67.625198 385.526611
9.903691 66.035698 373.000000
9.903691 66.643501 373.000000
9.877139 67.070999 372.000000
9.850588 67.495247 371.000000
9.850588 68.099785 371.000000
9.824037 68.519135 370.000000
9.824037 69.122047 370.000000
9.824037 69.724953 370.000000
9.797485 70.137787 369.000000
9.797485 70.739067 369.000000
9.797485 71.340347 369.000000
9.797485 71.941628 369.000000
9.770933 72.346321 368.000000
9.770933 72.945976 368.000000
9.744382 73.345772 367.000000
9.744382 73.943794 367.000000
9.744382 74.541817 367.000000
9.717831 74.935097 366.000000
9.691279 75.325119 365.000000
9.691279 75.919876 365.000000
9.691279 76.514641 365.000000
9.638176 76.686890 363.000000
9.611625 77.065506 362.000000
9.611625 77.655380 362.000000
9.585073 78.029106 361.000000
9.558522 78.399574 360.000000
9.558522 78.986191 360.000000
9.478868 78.909698 357.000000
9.452315 79.268761 356.000000
9.452315 79.848862 356.000000
9.399213 79.977112 354.000000
9.372662 80.326393 353.000000
9.372662 80.901604 353.000000
9.372662 81.476814 353.000000
9.319559 81.587143 351.000000
9.319559 82.159088 351.000000
9.293008 82.495338 350.000000
9.293008 83.065659 350.000000
9.293008 83.635979 350.000000
9.266457 83.965706 349.000000
9.213353 84.049965 347.000000
9.213353 84.615395 347.000000
9.186802 84.935349 346.000000
9.186802 85.499153 346.000000
9.186802 86.062950 346.000000
9.133698 86.126022 344.000000
9.107147 86.434570 343.000000
9.107147 86.993484 343.000000
9.107147 87.552399 343.000000
9.080596 87.854431 342.000000
9.080596 88.411713 342.000000
9.054045 88.708855 341.000000
9.027493 89.002739 340.000000
9.027493 89.556763 340.000000
9.000941 89.845757 339.000000
9.000941 90.398155 339.000000
8.974390 90.682259 338.000000
8.974390 91.233025 338.000000
8.947839 91.512245 337.000000
8.921288 91.788200 336.000000
8.921288 92.335709 336.000000
8.921288 92.883217 336.000000
8.894736 93.152657 335.000000
8.894736 93.698532 335.000000
8.841633 93.681763 333.000000
8.815082 93.941422 332.000000
8.815082 94.482414 332.000000
8.815082 95.023399 332.000000
8.761978 94.988708 330.000000
8.761978 95.526436 330.000000
8.735427 95.773064 329.000000
8.708876 96.016426 328.000000
8.708876 96.550903 328.000000
8.682324 96.789375 327.000000
8.655773 97.024605 326.000000
8.655773 97.555817 326.000000
8.629222 97.786148 325.000000
8.629222 98.315727 325.000000
8.629222 98.845314 325.000000
8.576118 98.763359 323.000000
8.549566 98.982285 322.000000
8.549566 99.506981 322.000000
8.523015 99.721016 321.000000
8.496464 99.931801 320.000000
8.496464 100.453239 320.000000
8.469913 100.659126 319.000000
8.443361 100.861755 318.000000
8.443361 101.379929 318.000000
8.416810 101.577675 317.000000
8.390259 101.772163 316.000000
8.390259 102.287079 316.000000
8.390259 102.801994 316.000000
8.363707 102.989960 315.000000
8.337155 103.174667 314.000000
8.337155 103.686325 314.000000
8.310604 103.866150 313.000000
8.284052 104.042702 312.000000
8.284052 104.551102 312.000000
8.257501 104.722771 311.000000
8.230949 104.891182 310.000000
8.230949 105.396324 310.000000
8.230949 105.901466 310.000000
8.204398 106.063362 309.000000
8.204398 106.566872 309.000000
8.204398 107.070381 309.000000
8.177846 107.225754 308.000000
8.177846 107.727638 308.000000
8.177846 108.229523 308.000000
8.151295 108.378387 307.000000
8.151295 108.878639 307.000000
8.124743 109.022606 306.000000
8.124743 109.521233 306.000000
8.124743 110.019852 306.000000
8.098192 110.157303 305.000000
8.045090 109.928696 303.000000
8.045090 110.422424 303.000000
8.045090 110.916161 303.000000
8.045090 111.409897 303.000000
8.045090 111.903633 303.000000
8.018538 112.026413 302.000000
7.991987 112.145943 301.000000
7.991987 112.636414 301.000000
7.991987 113.126892 301.000000
7.965436 113.239914 300.000000
7.965436 113.728760 300.000000
7.965436 114.217606 300.000000
7.938883 114.324097 299.000000
7.938883 114.811310 299.000000
7.938883 115.298531 299.000000
7.912332 115.398499 298.000000
7.885780 115.495209 297.000000
7.885780 115.979172 297.000000
7.885780 116.463127 297.000000
7.885780 116.947083 297.000000
7.885780 117.431046 297.000000
7.859229 117.517982 296.000000
7.859229 118.000305 296.000000
7.859229 118.482635 296.000000
7.832678 118.563049 295.000000
7.832678 119.043755 295.000000
7.832678 119.524452 295.000000
7.806127 119.598366 294.000000
7.779575 119.669006 293.000000
7.779575 120.146446 293.000000
7.779575 120.623886 293.000000
7.779575 121.101326 293.000000
7.779575 121.578766 293.000000
8.124743 127.471664 306.000000
8.124743 127.970284 306.000000
8.124743 128.468918 306.000000
7.753023 123.067055 292.000000
7.726471 123.119774 291.000000
7.726471 123.593956 291.000000
7.726471 124.068138 291.000000
7.699920 124.114334 290.000000
7.699920 124.586884 290.000000
7.699920 125.059441 290.000000
7.699920 125.531990 290.000000
7.699920 126.004539 290.000000
7.699920 126.477089 290.000000
7.699920 138.763428 290.000000
7.699920 139.235977 290.000000
7.699920 139.708527 290.000000
7.699920 140.181076 290.000000
7.699920 140.653625 290.000000
7.699920 141.126190 290.000000
7.699920 141.598740 290.000000
7.699920 142.071289 290.000000
7.699920 142.543839 290.000000
11.854467 39.515560 420.666656
11.854467 40.201027 420.666656
11.854467 40.886497 420.666656
11.685073 40.977928 414.655548
11.685073 41.653606 414.655548
11.685073 42.329281 414.655548
11.685073 43.004955 414.655548
11.685073 43.680634 414.655548
11.685073 44.356312 414.655548
11.685073 45.031982 414.655548
11.685073 45.707661 414.655548
11.685073 46.383335 414.655548
11.685073 47.059013 414.655548
11.685073 47.734688 414.655548
11.685073 48.410362 414.655548
11.685073 49.086040 414.655548
11.685073 49.761719 414.655548
11.683378 50.430080 414.595428
11.683378 51.105656 414.595428
11.683378 51.781235 414.595428
11.683209 52.456051 414.589417
11.683209 53.131622 414.589417
11.683023 53.806335 414.582825
11.682817 54.480934 414.575531
11.682817 55.156479 414.575531
11.682592 55.830948 414.567535
11.682344 56.505280 414.558746
11.682344 57.180798 414.558746
11.682073 57.854969 414.549072
11.681772 58.528965 414.538422
11.681772 59.204449 414.538422
11.681442 59.878242 414.526703
11.682373 60.558540 414.559753
11.682373 61.234058 414.559753
11.682373 61.909576 414.559753
11.682273 62.584560 414.556183
11.682273 63.260071 414.556183
11.682179 63.935074 414.552856
11.682095 64.610115 414.549866
11.311030 63.211922 401.382324
11.311030 63.865967 401.382324
11.231615 64.067017 398.564178
11.156208 64.281975 395.888306
11.156208 64.927078 395.888306
11.086186 65.160599 393.403503
11.002162 65.302925 390.421844
11.002162 65.939117 390.421844
10.944201 66.224571 388.364990
10.894361 66.552940 386.596436
10.894361 67.182899 386.596436
10.864214 67.625198 385.526611
10.511211 66.035698 373.000000
10.511211 66.643501 373.000000
10.483031 67.070999 372.000000
10.454851 67.495247 371.000000
10.454851 68.099785 371.000000
10.426671 68.519135 370.000000
10.426671 69.122047 370.000000
10.426671 69.724953 370.000000
10.398491 70.137787 369.000000
10.398491 70.739067 369.000000
10.398491 71.340347 369.000000
10.370311 71.746674 368.000000
10.370311 72.346321 368.000000
10.370311 72.945976 368.000000
10.342131 73.345772 367.000000
10.313951 73.742310 366.000000
10.313951 74.338699 366.000000
10.313951 74.935097 366.000000
10.285770 75.325119 365.000000
10.285770 75.919876 365.000000
10.257590 76.305016 364.000000
10.229409 76.686890 363.000000
10.201229 77.065506 362.000000
10.201229 77.655380 362.000000
10.173049 78.029106 361.000000
10.144869 78.399574 360.000000
10.144869 78.986191 360.000000
10.060328 78.909698 357.000000
10.032147 79.268761 356.000000
10.032147 79.848862 356.000000
9.975787 79.977112 354.000000
9.947607 80.326393 353.000000
9.947607 80.901604 353.000000
9.947607 81.476814 353.000000
9.891248 81.587143 351.000000
9.891248 82.159088 351.000000
9.863068 82.495338 350.000000
9.834888 82.828323 349.000000
9.834888 83.397018 349.000000
9.806707 83.725113 348.000000
9.778526 84.049965 347.000000
9.778526 84.615395 347.000000
9.750346 84.935349 346.000000
9.722166 85.252045 345.000000
9.722166 85.814217 345.000000
9.693986 86.126022 344.000000
