0.163206 85.826576 332.000000
0.163206 86.367569 332.000000
0.162715 86.646782 331.000000
0.162715 87.186142 331.000000
0.162223 87.460472 330.000000
0.162223 87.998207 330.000000
0.162223 88.535934 330.000000
0.161731 88.803741 329.000000
0.161731 89.339844 329.000000
0.161240 89.602768 328.000000
0.161240 90.137238 328.000000
0.160748 90.395271 327.000000
0.160257 90.650047 326.000000
0.160257 91.181259 326.000000
0.159765 91.431145 325.000000
0.159274 91.677773 324.000000
0.159274 92.205727 324.000000
0.158782 92.447472 323.000000
0.158290 92.685944 322.000000
0.158290 93.210640 322.000000
0.157307 93.153130 320.000000
0.157307 93.674568 320.000000
0.157307 94.196007 320.000000
0.156816 94.421448 319.000000
0.156324 94.643631 318.000000
0.156324 95.161804 318.000000
0.155832 95.379105 317.000000
0.155832 95.895653 317.000000
0.155832 96.412193 317.000000
0.155341 96.622978 316.000000
0.154849 96.830498 315.000000
0.154849 97.343788 315.000000
0.154358 97.546417 314.000000
0.154358 98.058075 314.000000
0.154358 98.569733 314.000000
0.153866 98.765854 313.000000
0.153866 99.275879 313.000000
0.153866 99.785912 313.000000
0.153374 99.975502 312.000000
0.152883 100.161835 311.000000
0.152883 100.668610 311.000000
0.152883 101.175377 311.000000
0.152391 101.355194 310.000000
0.152391 101.860336 310.000000
0.151900 102.035271 309.000000
0.151900 102.538780 309.000000
0.151408 102.708824 308.000000
0.151408 103.210701 308.000000
0.150968 103.411293 307.105255
0.149933 103.199394 305.000000
0.149933 103.696388 305.000000
0.149442 103.851761 304.000000
0.148950 104.003876 303.000000
0.148950 104.497612 303.000000
0.148950 104.991348 303.000000
0.148459 105.136948 302.000000
0.148459 105.629051 302.000000
0.148459 106.121162 302.000000
0.147967 106.260239 301.000000
0.147967 106.750717 301.000000
0.147475 106.884911 300.000000
0.147475 107.373756 300.000000
0.147475 107.862602 300.000000
0.147475 108.351448 300.000000
0.146984 108.477493 299.000000
0.146984 108.964714 299.000000
0.146984 109.451927 299.000000
0.146492 109.571449 298.000000
0.146492 110.057037 298.000000
0.146001 110.171677 297.000000
0.146001 110.655632 297.000000
0.146001 111.139595 297.000000
0.146001 111.623550 297.000000
0.146001 112.107506 297.000000
0.146001 112.591469 297.000000
0.145509 112.694695 296.000000
0.145018 112.794670 295.000000
0.145018 113.275368 295.000000
0.145018 113.756065 295.000000
0.144526 113.849533 294.000000
0.144526 114.328598 294.000000
0.144526 114.807671 294.000000
0.144526 115.286743 294.000000
0.144034 115.372047 293.000000
0.144034 115.849487 293.000000
0.144034 116.326927 293.000000
0.144034 116.804367 293.000000
0.144034 117.281807 293.000000
0.143543 117.357338 292.000000
0.143543 117.833145 292.000000
0.143543 118.308952 292.000000
0.143543 118.784767 292.000000
0.143543 119.260574 292.000000
0.143543 119.736389 292.000000
0.143543 120.212196 292.000000
0.143051 120.274689 291.000000
0.143051 120.748871 291.000000
0.143051 121.223053 291.000000
0.143051 121.697235 291.000000
0.143051 122.171410 291.000000
0.142560 122.224129 290.000000
0.142560 122.696678 290.000000
0.142560 123.169235 290.000000
0.142560 123.641785 290.000000
0.142560 124.114334 290.000000
0.142560 124.586884 290.000000
0.142560 125.059441 290.000000
0.142560 125.531990 290.000000
0.142560 126.004539 290.000000
0.829754 42.499172 391.333344
0.829754 43.136841 391.333344
0.829754 43.774517 391.333344
0.829754 44.412189 391.333344
0.829754 45.049862 391.333344
0.829754 45.687534 391.333344
0.829754 46.325207 391.333344
0.829754 46.962879 391.333344
0.829754 47.600552 391.333344
0.829754 48.238228 391.333344
0.807545 47.567703 380.859039
0.805452 48.063404 379.871857
0.805452 48.682400 379.871857
0.803842 49.202843 379.112488
0.802554 49.740768 378.505005
0.802554 50.357536 378.505005
0.801369 50.899006 377.945862
0.799311 51.382603 376.975494
0.799311 51.996880 376.975494
0.797362 52.482861 376.056213
0.792968 52.803036 373.983826
0.792968 53.412437 373.983826
0.792968 54.021839 373.983826
0.786641 54.195370 371.000000
0.786641 54.799908 371.000000
0.786641 55.404449 371.000000
0.784521 55.858017 370.000000
0.784521 56.460930 370.000000
0.784521 57.063839 370.000000
0.782400 57.510891 369.000000
0.782400 58.112171 369.000000
0.782400 58.713451 369.000000
0.782400 59.314735 369.000000
0.782400 59.916016 369.000000
0.782400 60.517296 369.000000
0.780280 60.952950 368.000000
0.778160 61.385334 367.000000
0.778160 61.983356 367.000000
0.778160 62.581379 367.000000
0.776039 63.007248 366.000000
0.776039 63.603642 366.000000
0.773919 64.024620 365.000000
0.771799 64.442352 364.000000
0.771799 65.035484 364.000000
0.769679 65.448318 363.000000
0.767558 65.857887 362.000000
0.767558 66.447762 362.000000
0.767558 67.037636 362.000000
0.765438 67.440704 361.000000
0.765438 68.028946 361.000000
0.763318 68.427116 360.000000
0.761197 68.822021 359.000000
0.761197 69.407005 359.000000
0.756957 69.602066 357.000000
0.752716 69.790604 355.000000
0.752716 70.369072 355.000000
0.748475 70.547844 353.000000
0.744235 70.720085 351.000000
0.744235 71.292038 351.000000
0.742114 71.659248 350.000000
0.739994 72.023193 349.000000
0.739994 72.591888 349.000000
0.737874 72.950943 348.000000
0.733633 73.095490 346.000000
0.733633 73.659294 346.000000
0.731513 74.008575 345.000000
0.729392 74.354607 344.000000
0.729392 74.915154 344.000000
0.727272 75.256287 343.000000
0.725152 75.594162 342.000000
0.723031 75.928780 341.000000
0.723031 76.484436 341.000000
0.720911 76.814171 340.000000
0.720911 77.368202 340.000000
0.720911 77.922226 340.000000
0.718791 78.245438 339.000000
0.718791 78.797836 339.000000
0.718791 79.350227 339.000000
0.716670 79.666924 338.000000
0.714550 79.980362 337.000000
0.714550 80.529503 337.000000
0.712430 80.838043 336.000000
0.712430 81.385551 336.000000
0.712430 81.933060 336.000000
0.708189 81.989609 334.000000
0.706069 82.286758 333.000000
0.706069 82.829376 333.000000
0.706069 83.371994 333.000000
0.703948 83.662613 332.000000
0.703948 84.203606 332.000000
0.703948 84.744598 332.000000
0.703948 85.285583 332.000000
0.703948 85.826576 332.000000
0.701828 86.107422 331.000000
0.699708 86.385010 330.000000
0.699708 86.922745 330.000000
0.699708 87.460472 330.000000
0.697587 87.731544 329.000000
0.697587 88.267647 329.000000
0.697587 88.803741 329.000000
0.697587 89.339844 329.000000
0.695467 89.602768 328.000000
0.695467 90.137238 328.000000
0.691226 90.118835 326.000000
0.689106 90.371979 325.000000
0.689106 90.901566 325.000000
0.686986 91.149818 324.000000
0.684865 91.394821 323.000000
0.684865 91.921143 323.000000
0.682745 92.161255 322.000000
0.682745 92.685944 322.000000
0.682745 93.210640 322.000000
0.678504 93.153130 320.000000
0.678504 93.674568 320.000000
0.678504 94.196007 320.000000
0.676384 94.421448 319.000000
0.674264 94.643631 318.000000
0.674264 95.161804 318.000000
0.672143 95.379105 317.000000
0.672143 95.895653 317.000000
0.672143 96.412193 317.000000
0.670023 96.622978 316.000000
0.665783 96.523094 314.000000
0.665783 97.034760 314.000000
0.665783 97.546417 314.000000
0.663662 97.745789 313.000000
0.663662 98.255821 313.000000
0.663662 98.765854 313.000000
0.661542 98.958702 312.000000
0.661542 99.467102 312.000000
0.659422 99.655067 311.000000
0.659422 100.161835 311.000000
0.659422 100.668610 311.000000
0.657301 100.850052 310.000000
0.655181 101.028252 309.000000
0.655181 101.531761 309.000000
0.655181 102.035271 309.000000
0.653061 102.206940 308.000000
0.650940 102.375351 307.000000
0.650940 102.875603 307.000000
0.646700 102.702400 305.000000
0.644579 102.861031 304.000000
0.644579 103.356400 304.000000
0.642459 103.510139 303.000000
0.642459 104.003876 303.000000
0.642459 104.497612 303.000000
0.640339 104.644844 302.000000
0.640339 105.136948 302.000000
0.640339 105.629051 302.000000
0.640339 106.121162 302.000000
0.638218 106.260239 301.000000
0.638218 106.750717 301.000000
0.636098 106.884911 300.000000
0.636098 107.373756 300.000000
0.636098 107.862602 300.000000
0.636098 108.351448 300.000000
0.633978 108.477493 299.000000
0.633978 108.964714 299.000000
0.633978 109.451927 299.000000
0.631857 109.571449 298.000000
0.631857 110.057037 298.000000
0.629737 110.171677 297.000000
0.629737 110.655632 297.000000
0.629737 111.139595 297.000000
0.629737 111.623550 297.000000
0.627617 111.730042 296.000000
0.627617 112.212372 296.000000
0.625496 112.313972 295.000000
0.625496 112.794670 295.000000
0.625496 113.275368 295.000000
0.625496 113.756065 295.000000
0.623376 113.849533 294.000000
0.623376 114.328598 294.000000
0.623376 114.807671 294.000000
0.621256 114.894608 293.000000
0.621256 115.372047 293.000000
0.621256 115.849487 293.000000
0.621256 116.326927 293.000000
0.619135 116.405716 292.000000
0.619135 116.881523 292.000000
0.619135 117.357338 292.000000
0.619135 117.833145 292.000000
0.619135 118.308952 292.000000
0.619135 118.784767 292.000000
0.619135 119.260574 292.000000
0.619135 119.736389 292.000000
0.617015 119.800507 291.000000
0.617015 120.274689 291.000000
0.617015 120.748871 291.000000
0.617015 121.223053 291.000000
0.617015 121.697235 291.000000
0.617015 122.171410 291.000000
0.614895 122.224129 290.000000
0.614895 122.696678 290.000000
0.614895 123.169235 290.000000
0.614895 123.641785 290.000000
0.614895 124.114334 290.000000
0.614895 124.586884 290.000000
0.614895 125.059441 290.000000
0.614895 125.531990 290.000000
0.614895 126.004539 290.000000
1.448890 41.970646 386.466675
1.448890 42.600388 386.466675
1.448890 43.230129 386.466675
1.448890 43.859875 386.466675
1.448890 44.489616 386.466675
1.448890 45.119358 386.466675
1.448890 45.749104 386.466675
1.438792 46.055622 383.773346
1.432487 46.476398 382.091431
1.432487 47.099007 382.091431
1.427866 47.567703 380.859039
1.424165 48.063404 379.871857
1.424165 48.682400 379.871857
1.421319 49.202843 379.112488
1.419041 49.740768 378.505005
1.419041 50.357536 378.505005
1.416945 50.899006 377.945862
1.413307 51.382603 376.975494
1.413307 51.996880 376.975494
1.409860 52.482861 376.056213
1.398402 52.664127 373.000000
1.398402 53.271927 373.000000
1.394653 53.735275 372.000000
1.390904 54.195370 371.000000
1.390904 54.799908 371.000000
1.387155 55.255108 370.000000
1.387155 55.858017 370.000000
1.387155 56.460930 370.000000
1.387155 57.063839 370.000000
1.383406 57.510891 369.000000
1.383406 58.112171 369.000000
1.383406 58.713451 369.000000
1.383406 59.314735 369.000000
1.383406 59.916016 369.000000
1.379657 60.353298 368.000000
1.375908 60.787312 367.000000
1.375908 61.385334 367.000000
1.375908 61.983356 367.000000
1.372159 62.410854 366.000000
1.368410 62.835094 365.000000
1.368410 63.429859 365.000000
1.364661 63.849216 364.000000
1.360912 64.265305 363.000000
1.360912 64.856812 363.000000
1.357163 65.268013 362.000000
1.357163 65.857887 362.000000
1.357163 66.447762 362.000000
1.357163 67.037636 362.000000
1.353414 67.440704 361.000000
1.353414 68.028946 361.000000
1.349664 68.427116 360.000000
1.345915 68.822021 359.000000
1.345915 69.407005 359.000000
1.338417 69.602066 357.000000
1.330919 69.790604 355.000000
1.330919 70.369072 355.000000
1.323421 70.547844 353.000000
1.315923 70.720085 351.000000
1.315923 71.292038 351.000000
1.308425 71.454506 349.000000
1.304676 71.816826 348.000000
1.304676 72.383881 348.000000
1.297178 72.531693 346.000000
1.297178 73.095490 346.000000
1.297178 73.659294 346.000000
1.289679 73.794067 344.000000
1.285930 74.138458 343.000000
1.285930 74.697372 343.000000
1.282181 75.036880 342.000000
1.282181 75.594162 342.000000
1.274683 75.706123 340.000000
1.274683 76.260147 340.000000
1.274683 76.814171 340.000000
1.270934 77.140648 339.000000
1.270934 77.693039 339.000000
1.267185 78.014626 338.000000
1.267185 78.565392 338.000000
1.267185 79.116158 338.000000
1.263436 79.431229 337.000000
1.259687 79.743034 336.000000
1.259687 80.290543 336.000000
1.259687 80.838043 336.000000
1.255938 81.143333 335.000000
1.255938 81.689209 335.000000
1.252189 81.989609 334.000000
1.248440 82.286758 333.000000
1.248440 82.829376 333.000000
1.248440 83.371994 333.000000
1.244691 83.662613 332.000000
1.244691 84.203606 332.000000
1.244691 84.744598 332.000000
1.244691 85.285583 332.000000
1.244691 85.826576 332.000000
1.240942 86.107422 331.000000
1.237192 86.385010 330.000000
1.237192 86.922745 330.000000
1.237192 87.460472 330.000000
1.233443 87.731544 329.000000
1.233443 88.267647 329.000000
1.233443 88.803741 329.000000
1.233443 89.339844 329.000000
1.225945 89.329582 327.000000
1.225945 89.862427 327.000000
1.222196 90.118835 326.000000
1.218447 90.371979 325.000000
1.218447 90.901566 325.000000
1.210949 90.868500 323.000000
1.210949 91.394821 323.000000
1.210949 91.921143 323.000000
1.207200 92.161255 322.000000
1.203451 92.398102 321.000000
1.203451 92.921165 321.000000
1.199702 93.153130 320.000000
1.195953 93.381836 319.000000
1.195953 93.901642 319.000000
1.192204 94.125450 318.000000
1.188455 94.346008 317.000000
1.188455 94.862556 317.000000
1.188455 95.379105 317.000000
1.184705 95.593147 316.000000
1.184705 96.108063 316.000000
1.180956 96.317207 315.000000
1.177207 96.523094 314.000000
1.177207 97.034760 314.000000
1.177207 97.546417 314.000000
1.173458 97.745789 313.000000
1.173458 98.255821 313.000000
1.173458 98.765854 313.000000
1.169709 98.958702 312.000000
1.169709 99.467102 312.000000
1.165960 99.655067 311.000000
1.165960 100.161835 311.000000
1.165960 100.668610 311.000000
1.162211 100.850052 310.000000
1.158462 101.028252 309.000000
1.158462 101.531761 309.000000
1.154713 101.705055 308.000000
1.147215 101.543259 306.000000
1.143466 101.708412 305.000000
1.143466 102.205406 305.000000
1.139717 102.365669 304.000000
1.135968 102.522675 303.000000
1.135968 103.016411 303.000000
1.135968 103.510139 303.000000
1.132219 103.660637 302.000000
1.132219 104.152740 302.000000
1.132219 104.644844 302.000000
1.132219 105.136948 302.000000
1.132219 105.629051 302.000000
1.128469 105.769760 301.000000
1.124720 105.907211 300.000000
1.124720 106.396057 300.000000
1.124720 106.884911 300.000000
1.124720 107.373756 300.000000
1.124720 107.862602 300.000000
1.120971 107.990280 299.000000
1.120971 108.477493 299.000000
1.120971 108.964714 299.000000
1.117222 109.085869 298.000000
1.113473 109.203758 297.000000
1.113473 109.687721 297.000000
1.113473 110.171677 297.000000
1.113473 110.655632 297.000000
1.113473 111.139595 297.000000
1.113473 111.623550 297.000000
1.109724 111.730042 296.000000
1.109724 112.212372 296.000000
1.105975 112.313972 295.000000
1.105975 112.794670 295.000000
1.105975 113.275368 295.000000
1.105975 113.756065 295.000000
1.102226 113.849533 294.000000
1.102226 114.328598 294.000000
1.102226 114.807671 294.000000
1.098477 114.894608 293.000000
1.098477 115.372047 293.000000
1.098477 115.849487 293.000000
1.098477 116.326927 293.000000
1.094728 116.405716 292.000000
1.094728 116.881523 292.000000
1.094728 117.357338 292.000000
1.094728 117.833145 292.000000
1.094728 118.308952 292.000000
1.094728 118.784767 292.000000
1.094728 119.260574 292.000000
1.094728 119.736389 292.000000
1.090979 119.800507 291.000000
1.090979 120.274689 291.000000
1.090979 120.748871 291.000000
1.090979 121.223053 291.000000
1.090979 121.697235 291.000000
1.090979 122.171410 291.000000
1.087230 122.224129 290.000000
1.087230 122.696678 290.000000
1.087230 123.169235 290.000000
1.087230 123.641785 290.000000
1.087230 124.114334 290.000000
1.087230 124.586884 290.000000
1.087230 125.059441 290.000000
1.087230 125.531990 290.000000
1.087230 126.004539 290.000000
2.081213 31.308168 387.000000
2.081213 31.938780 387.000000
2.081213 32.569393 387.000000
2.079868 33.178555 386.750000
2.079868 33.808758 386.750000
2.079868 34.438965 386.750000
2.079868 35.069168 386.750000
2.079868 35.699371 386.750000
2.079868 36.329578 386.750000
2.079868 36.959782 386.750000
2.079868 37.589985 386.750000
2.079868 38.220188 386.750000
2.079868 38.850395 386.750000
2.079868 39.480598 386.750000
2.079868 40.110802 386.750000
2.079868 40.741005 386.750000
2.079868 41.371212 386.750000
2.078344 41.970646 386.466675
2.079216 42.618263 386.628815
2.079216 43.248268 386.628815
2.079216 43.878277 386.628815
2.079151 44.506889 386.616699
2.078344 45.119358 386.466675
2.078344 45.749104 386.466675
2.066267 46.109333 384.220886
2.060165 46.597404 383.086243
2.060165 47.221638 383.086243
2.054115 47.705360 381.961243
2.048110 48.186478 380.844574
2.048110 48.807056 380.844574
2.042480 49.291775 379.797699
2.036865 49.773438 378.753601
2.036865 50.390614 378.753601
2.032521 50.899006 377.945862
2.027303 51.382603 376.975494
2.027303 51.996880 376.975494
2.022359 52.482861 376.056213
2.005923 52.664127 373.000000
2.005923 53.271927 373.000000
2.000545 53.735275 372.000000
1.995167 54.195370 371.000000
1.995167 54.799908 371.000000
1.989790 55.255108 370.000000
1.989790 55.858017 370.000000
1.989790 56.460930 370.000000
1.989790 57.063839 370.000000
1.984412 57.510891 369.000000
1.984412 58.112171 369.000000
1.984412 58.713451 369.000000
1.984412 59.314735 369.000000
1.984412 59.916016 369.000000
1.979034 60.353298 368.000000
1.973656 60.787312 367.000000
1.968278 61.218071 366.000000
1.968278 61.814465 366.000000
1.962900 62.240334 365.000000
1.962900 62.835094 365.000000
1.962900 63.429859 365.000000
1.957523 63.849216 364.000000
1.946767 64.088264 362.000000
1.946767 64.678139 362.000000
1.946767 65.268013 362.000000
1.946767 65.857887 362.000000
1.946767 66.447762 362.000000
1.941389 66.852455 361.000000
1.941389 67.440704 361.000000
1.941389 68.028946 361.000000
1.936011 68.427116 360.000000
1.930634 68.822021 359.000000
1.930634 69.407005 359.000000
1.919878 69.602066 357.000000
1.907821 69.743019 354.757935
1.907821 70.321091 354.757935
1.897646 70.521065 352.865997
1.882233 70.518608 350.000000
1.882233 71.088928 350.000000
1.876855 71.454506 349.000000
1.871478 71.816826 348.000000
1.871478 72.383881 348.000000
1.860722 72.531693 346.000000
1.860722 73.095490 346.000000
1.860722 73.659294 346.000000
1.849967 73.794067 344.000000
1.844589 74.138458 343.000000
1.844589 74.697372 343.000000
1.839211 75.036880 342.000000
1.828455 75.152100 340.000000
1.828455 75.706123 340.000000
1.828455 76.260147 340.000000
1.823078 76.588249 339.000000
1.823078 77.140648 339.000000
1.823078 77.693039 339.000000
1.817700 78.014626 338.000000
1.812322 78.332954 337.000000
1.812322 78.882088 337.000000
1.806944 79.195526 336.000000
1.806944 79.743034 336.000000
1.806944 80.290543 336.000000
1.801566 80.597458 335.000000
1.796188 80.901115 334.000000
1.796188 81.445358 334.000000
1.790810 81.744141 333.000000
1.790810 82.286758 333.000000
1.790810 82.829376 333.000000
1.785433 83.121628 332.000000
1.785433 83.662613 332.000000
1.785433 84.203606 332.000000
1.785433 84.744598 332.000000
1.780055 85.028702 331.000000
1.780055 85.568062 331.000000
1.774677 85.847282 330.000000
1.774677 86.385010 330.000000
1.774677 86.922745 330.000000
1.769299 87.195442 329.000000
1.769299 87.731544 329.000000
1.769299 88.267647 329.000000
1.769299 88.803741 329.000000
1.763921 89.068291 328.000000
1.758544 89.329582 327.000000
1.758544 89.862427 327.000000
1.753166 90.118835 326.000000
1.747788 90.371979 325.000000
1.747788 90.901566 325.000000
1.737033 90.868500 323.000000
1.737033 91.394821 323.000000
1.737033 91.921143 323.000000
1.726277 91.875038 321.000000
1.726277 92.398102 321.000000
1.726277 92.921165 321.000000
1.715521 92.862030 319.000000
1.704766 92.796364 317.000000
1.704766 93.312912 317.000000
1.704766 93.829460 317.000000
1.699388 94.048393 316.000000
1.699388 94.563309 316.000000
1.694010 94.777344 315.000000
1.694010 95.290634 315.000000
1.694010 95.803917 315.000000
1.694010 96.317207 315.000000
1.688632 96.523094 314.000000
1.688632 97.034760 314.000000
1.683254 97.235764 313.000000
1.683254 97.745789 313.000000
1.683254 98.255821 313.000000
1.677877 98.450302 312.000000
1.672499 98.641525 311.000000
1.672499 99.148300 311.000000
1.672499 99.655067 311.000000
1.667121 99.839775 310.000000
1.667121 100.344910 310.000000
1.661743 100.524734 309.000000
1.661743 101.028252 309.000000
1.661743 101.531761 309.000000
1.656365 101.705055 308.000000
1.645610 101.543259 306.000000
1.640232 101.708412 305.000000
1.640232 102.205406 305.000000
1.634854 102.365669 304.000000
1.629476 102.522675 303.000000
1.629476 103.016411 303.000000
1.629476 103.510139 303.000000
1.624099 103.660637 302.000000
1.624099 104.152740 302.000000
1.624099 104.644844 302.000000
1.618721 104.788811 301.000000
1.618721 105.279289 301.000000
1.613343 105.418365 300.000000
1.613343 105.907211 300.000000
1.613343 106.396057 300.000000
1.613343 106.884911 300.000000
1.607965 107.015846 299.000000
1.607965 107.503059 299.000000
1.602587 107.629105 298.000000
1.602587 108.114693 298.000000
1.602587 108.600281 298.000000
1.597209 108.719803 297.000000
1.597209 109.203758 297.000000
1.597209 109.687721 297.000000
1.597209 110.171677 297.000000
1.597209 110.655632 297.000000
1.597209 111.139595 297.000000
1.591832 111.247711 296.000000
1.591832 111.730042 296.000000
1.591832 112.212372 296.000000
1.586454 112.313972 295.000000
1.586454 112.794670 295.000000
1.586454 113.275368 295.000000
1.581076 113.370461 294.000000
1.581076 113.849533 294.000000
1.581076 114.328598 294.000000
1.581076 114.807671 294.000000
1.575698 114.894608 293.000000
1.575698 115.372047 293.000000
1.575698 115.849487 293.000000
1.570320 115.929901 292.000000
1.570320 116.405716 292.000000
1.570320 116.881523 292.000000
1.570320 117.357338 292.000000
1.570320 117.833145 292.000000
1.570320 118.308952 292.000000
1.570320 118.784767 292.000000
1.570320 119.260574 292.000000
1.570320 119.736389 292.000000
1.564943 119.800507 291.000000
1.564943 120.274689 291.000000
1.564943 120.748871 291.000000
1.564943 121.223053 291.000000
1.564943 121.697235 291.000000
1.564943 122.171410 291.000000
1.559565 122.224129 290.000000
1.559565 122.696678 290.000000
1.559565 123.169235 290.000000
1.559565 123.641785 290.000000
1.559565 124.114334 290.000000
1.559565 124.586884 290.000000
1.559565 125.059441 290.000000
1.559565 125.531990 290.000000
1.559565 126.004539 290.000000
2.711535 31.308168 387.000000
2.711535 31.938780 387.000000
2.711535 32.569393 387.000000
2.709784 33.178555 386.750000
2.709784 33.808758 386.750000
2.709784 34.438965 386.750000
2.709784 35.069168 386.750000
2.709784 35.699371 386.750000
2.709784 36.329578 386.750000
2.709784 36.959782 386.750000
2.709784 37.589985 386.750000
2.709784 38.220188 386.750000
2.709784 38.850395 386.750000
2.709784 39.480598 386.750000
2.709784 40.110802 386.750000
2.709784 40.741005 386.750000
2.709784 41.371212 386.750000
2.707798 41.970646 386.466675
2.708935 42.618263 386.628815
2.708935 43.248268 386.628815
2.708935 43.878277 386.628815
2.708850 44.506889 386.616699
2.707798 45.119358 386.466675
2.707798 45.749104 386.466675
2.692851 46.122826 384.333313
2.684767 46.608742 383.179474
2.684767 47.233128 383.179474
2.676759 47.714775 382.036621
2.668818 48.193905 380.903290
2.668818 48.814583 380.903290
2.661374 49.297363 379.840790
2.653955 49.777164 378.781952
2.653955 50.394386 378.781952
2.647383 50.885277 377.843933
2.640763 51.372192 376.899139
2.640763 51.986347 376.899139
2.613443 52.056328 373.000000
2.613443 52.664127 373.000000
2.613443 53.271927 373.000000
2.606437 53.735275 372.000000
2.599431 54.195370 371.000000
2.599431 54.799908 371.000000
2.592424 55.255108 370.000000
2.592424 55.858017 370.000000
2.592424 56.460930 370.000000
2.585417 56.909611 369.000000
2.585417 57.510891 369.000000
2.585417 58.112171 369.000000
2.585417 58.713451 369.000000
2.578411 59.153996 368.000000
2.578411 59.753647 368.000000
2.571404 60.189293 367.000000
2.571404 60.787312 367.000000
2.564398 61.218071 366.000000
2.564398 61.814465 366.000000
2.557391 62.240334 365.000000
2.557391 62.835094 365.000000
2.557391 63.429859 365.000000
2.550385 63.849216 364.000000
2.536371 64.088264 362.000000
2.536371 64.678139 362.000000
2.536371 65.268013 362.000000
2.536371 65.857887 362.000000
2.536371 66.447762 362.000000
2.529365 66.852455 361.000000
2.529365 67.440704 361.000000
2.529365 68.028946 361.000000
2.522358 68.427116 360.000000
2.515352 68.822021 359.000000
2.515352 69.407005 359.000000
2.496548 69.468765 356.316254
2.485630 69.743019 354.757935
2.485630 70.321091 354.757935
2.472374 70.521065 352.865997
2.458044 70.683990 350.820862
2.458044 71.255646 350.820862
2.431273 71.045029 347.000000
2.424267 71.404083 346.000000
2.424267 71.967888 346.000000
2.417260 72.322060 345.000000
2.410254 72.672981 344.000000
2.410254 73.233521 344.000000
2.403247 73.579544 343.000000
2.403247 74.138458 343.000000
2.403247 74.697372 343.000000
2.396240 75.036880 342.000000
2.382227 75.152100 340.000000
2.382227 75.706123 340.000000
2.382227 76.260147 340.000000
2.375221 76.588249 339.000000
2.375221 77.140648 339.000000
2.375221 77.693039 339.000000
2.368214 78.014626 338.000000
2.361208 78.332954 337.000000
2.361208 78.882088 337.000000
2.354201 79.195526 336.000000
2.347195 79.505699 335.000000
2.347195 80.051575 335.000000
2.340188 80.356865 334.000000
2.333181 80.658897 333.000000
2.333181 81.201515 333.000000
2.333181 81.744141 333.000000
2.326175 82.039650 332.000000
2.326175 82.580635 332.000000
2.326175 83.121628 332.000000
2.319169 83.410622 331.000000
2.319169 83.949982 331.000000
2.319169 84.489342 331.000000
2.312162 84.771820 330.000000
2.312162 85.309547 330.000000
2.312162 85.847282 330.000000
2.305155 86.123238 329.000000
2.305155 86.659340 329.000000
2.305155 87.195442 329.000000
2.298149 87.464882 328.000000
2.298149 87.999352 328.000000
2.298149 88.533821 328.000000
2.291142 88.796745 327.000000
2.284136 89.056412 326.000000
2.284136 89.587624 326.000000
2.277129 89.842400 325.000000
2.270123 90.093910 324.000000
2.270123 90.621864 324.000000
2.263116 90.868500 323.000000
2.256109 91.111862 322.000000
2.256109 91.636559 322.000000
2.249103 91.875038 321.000000
2.249103 92.398102 321.000000
2.249103 92.921165 321.000000
2.235090 92.862030 319.000000
2.221077 92.796364 317.000000
2.221077 93.312912 317.000000
2.221077 93.829460 317.000000
2.214070 94.048393 316.000000
2.214070 94.563309 316.000000
2.200057 94.476463 314.000000
2.200057 94.988121 314.000000
2.200057 95.499779 314.000000
2.193050 95.705673 313.000000
2.193050 96.215706 313.000000
2.193050 96.725731 313.000000
2.193050 97.235764 313.000000
2.186044 97.433502 312.000000
2.186044 97.941902 312.000000
2.186044 98.450302 312.000000
2.179038 98.641525 311.000000
2.179038 99.148300 311.000000
2.172031 99.334633 310.000000
2.165024 99.517715 309.000000
2.165024 100.021225 309.000000
2.165024 100.524734 309.000000
2.158018 100.701294 308.000000
2.158018 101.203178 308.000000
2.144005 101.044640 306.000000
2.136998 101.211418 305.000000
2.129992 101.374939 304.000000
2.129992 101.870308 304.000000
2.122985 102.028938 303.000000
2.122985 102.522675 303.000000
2.122985 103.016411 303.000000
2.122985 103.510139 303.000000
2.115978 103.660637 302.000000
2.115978 104.152740 302.000000
2.115978 104.644844 302.000000
2.108972 104.788811 301.000000
2.108972 105.279289 301.000000
2.101965 105.418365 300.000000
2.101965 105.907211 300.000000
2.101965 106.396057 300.000000
2.101965 106.884911 300.000000
2.094959 107.015846 299.000000
2.094959 107.503059 299.000000
2.087952 107.629105 298.000000
2.087952 108.114693 298.000000
2.087952 108.600281 298.000000
2.080945 108.719803 297.000000
2.080945 109.203758 297.000000
2.080945 109.687721 297.000000
2.080945 110.171677 297.000000
2.073939 110.283058 296.000000
2.073939 110.765381 296.000000
2.073939 111.247711 296.000000
2.066933 111.352570 295.000000
2.066933 111.833267 295.000000
2.066933 112.313972 295.000000
2.059926 112.412323 294.000000
2.059926 112.891396 294.000000
2.059926 113.370461 294.000000
2.059926 113.849533 294.000000
2.052919 113.939728 293.000000
2.052919 114.417168 293.000000
2.052919 114.894608 293.000000
2.052919 115.372047 293.000000
2.052919 115.849487 293.000000
2.045913 115.929901 292.000000
2.045913 116.405716 292.000000
2.045913 116.881523 292.000000
2.045913 117.357338 292.000000
2.045913 117.833145 292.000000
2.045913 118.308952 292.000000
2.045913 118.784767 292.000000
2.038907 118.852150 291.000000
2.038907 119.326324 291.000000
2.038907 119.800507 291.000000
2.038907 120.274689 291.000000
2.038907 120.748871 291.000000
2.038907 121.223053 291.000000
2.038907 121.697235 291.000000
2.038907 122.171410 291.000000
2.038907 122.645592 291.000000
2.031900 122.696678 290.000000
2.031900 123.169235 290.000000
2.031900 123.641785 290.000000
2.031900 124.114334 290.000000
2.031900 124.586884 290.000000
2.031900 125.059441 290.000000
2.031900 125.531990 290.000000
2.031900 126.004539 290.000000
2.031900 126.477089 290.000000
3.341858 29.416334 387.000000
3.341858 30.046946 387.000000
3.341858 30.677557 387.000000
3.341858 31.308168 387.000000
3.341858 31.938780 387.000000
3.341858 32.569393 387.000000
3.341858 33.200005 387.000000
3.341858 33.830616 387.000000
3.341858 34.461227 387.000000
3.341858 35.091839 387.000000
3.341858 35.722450 387.000000
3.341858 36.353062 387.000000
3.341858 36.983673 387.000000
3.341858 37.614285 387.000000
3.341858 38.244896 387.000000
3.341858 38.875507 387.000000
3.341858 39.506119 387.000000
3.341858 40.136730 387.000000
3.341858 40.767342 387.000000
3.341858 41.397953 387.000000
3.335424 41.947647 386.254913
3.340074 42.636398 386.793365
3.340074 43.266678 386.793365
3.340074 43.896950 386.793365
3.339896 44.524849 386.772705
3.328905 45.006496 385.499969
3.328905 45.634666 385.499969
3.318831 46.122826 384.333313
3.308867 46.608742 383.179474
3.308867 47.233128 383.179474
3.298998 47.714775 382.036621
3.289211 48.193905 380.903290
3.289211 48.814583 380.903290
3.280036 49.297363 379.840790
3.270893 49.777164 378.781952
3.270893 50.394386 378.781952
3.262793 50.885277 377.843933
3.254634 51.372192 376.899139
3.254634 51.986347 376.899139
3.220964 52.056328 373.000000
3.220964 52.664127 373.000000
3.220964 53.271927 373.000000
3.212329 53.735275 372.000000
3.203694 54.195370 371.000000
3.203694 54.799908 371.000000
3.195058 55.255108 370.000000
3.195058 55.858017 370.000000
3.195058 56.460930 370.000000
3.186423 56.909611 369.000000
3.186423 57.510891 369.000000
3.186423 58.112171 369.000000
3.177788 58.554344 368.000000
3.177788 59.153996 368.000000
3.177788 59.753647 368.000000
3.169152 60.189293 367.000000
3.160517 60.621677 366.000000
3.151882 61.050808 365.000000
3.151882 61.645569 365.000000
3.151882 62.240334 365.000000
3.143247 62.662949 364.000000
3.143247 63.256081 364.000000
3.134611 63.673805 363.000000
3.125976 64.088264 362.000000
3.125976 64.678139 362.000000
3.125976 65.268013 362.000000
3.125976 65.857887 362.000000
3.125976 66.447762 362.000000
3.117341 66.852455 361.000000
3.108705 67.253883 360.000000
3.108705 67.840500 360.000000
3.108705 68.427116 360.000000
3.100070 68.822021 359.000000
3.100070 69.407005 359.000000
3.076895 69.468765 356.316254
3.063439 69.743019 354.757935
3.063439 70.321091 354.757935
3.047101 70.521065 352.865997
3.029441 70.683990 350.820862
3.029441 71.255646 350.820862
2.987811 70.840279 346.000000
2.987811 71.404083 346.000000
2.987811 71.967888 346.000000
2.979176 72.322060 345.000000
2.970541 72.672981 344.000000
2.970541 73.233521 344.000000
2.961905 73.579544 343.000000
2.953270 73.922310 342.000000
2.953270 74.479599 342.000000
2.944635 74.817474 341.000000
2.936000 75.152100 340.000000
2.927364 75.483459 339.000000
2.927364 76.035851 339.000000
2.927364 76.588249 339.000000
2.918729 76.913086 338.000000
2.918729 77.463852 338.000000
2.910094 77.783813 337.000000
2.901458 78.100510 336.000000
2.901458 78.648018 336.000000
2.901458 79.195526 336.000000
2.892823 79.505699 335.000000
2.892823 80.051575 335.000000
2.884188 80.356865 334.000000
2.875552 80.658897 333.000000
2.875552 81.201515 333.000000
2.875552 81.744141 333.000000
2.866917 82.039650 332.000000
2.866917 82.580635 332.000000
2.866917 83.121628 332.000000
2.858282 83.410622 331.000000
2.858282 83.949982 331.000000
2.858282 84.489342 331.000000
2.849647 84.771820 330.000000
2.849647 85.309547 330.000000
2.849647 85.847282 330.000000
2.841011 86.123238 329.000000
2.841011 86.659340 329.000000
2.823741 86.665375 327.000000
2.823741 87.198219 327.000000
2.823741 87.731056 327.000000
2.815105 87.993988 326.000000
2.815105 88.525200 326.000000
2.806470 88.783226 325.000000
2.806470 89.312813 325.000000
2.797835 89.565956 324.000000
2.789200 89.815849 323.000000
2.789200 90.342171 323.000000
2.789200 90.868500 323.000000
2.780564 91.111862 322.000000
2.780564 91.636559 322.000000
2.771929 91.875038 321.000000
2.746023 91.534569 318.000000
2.746023 92.052742 318.000000
2.737388 92.279816 317.000000
2.737388 92.796364 317.000000
2.737388 93.312912 317.000000
2.728753 93.533470 316.000000
2.720117 93.750763 315.000000
2.720117 94.264053 315.000000
2.711482 94.476463 314.000000
2.711482 94.988121 314.000000
2.711482 95.499779 314.000000
2.702847 95.705673 313.000000
2.702847 96.215706 313.000000
2.702847 96.725731 313.000000
2.702847 97.235764 313.000000
2.694211 97.433502 312.000000
2.694211 97.941902 312.000000
2.694211 98.450302 312.000000
2.685576 98.641525 311.000000
2.685576 99.148300 311.000000
2.676941 99.334633 310.000000
2.668305 99.517715 309.000000
2.668305 100.021225 309.000000
2.659670 100.199409 308.000000
2.642400 100.047394 306.000000
2.642400 100.546013 306.000000
2.633764 100.714424 305.000000
2.625129 100.879578 304.000000
2.616494 101.041466 303.000000
2.616494 101.535202 303.000000
2.616494 102.028938 303.000000
2.616494 102.522675 303.000000
2.616494 103.016411 303.000000
2.607858 103.168526 302.000000
2.607858 103.660637 302.000000
2.607858 104.152740 302.000000
2.599223 104.298340 301.000000
2.590588 104.440674 300.000000
2.590588 104.929520 300.000000
2.590588 105.418365 300.000000
2.590588 105.907211 300.000000
2.590588 106.396057 300.000000
2.581953 106.528625 299.000000
2.573317 106.657928 298.000000
2.573317 107.143517 298.000000
2.573317 107.629105 298.000000
2.564682 107.751884 297.000000
2.564682 108.235847 297.000000
2.564682 108.719803 297.000000
2.564682 109.203758 297.000000
2.564682 109.687721 297.000000
2.564682 110.171677 297.000000
2.556047 110.283058 296.000000
2.556047 110.765381 296.000000
2.556047 111.247711 296.000000
2.547411 111.352570 295.000000
2.547411 111.833267 295.000000
2.547411 112.313972 295.000000
2.538776 112.412323 294.000000
2.538776 112.891396 294.000000
2.538776 113.370461 294.000000
2.538776 113.849533 294.000000
2.530141 113.939728 293.000000
2.530141 114.417168 293.000000
2.530141 114.894608 293.000000
2.530141 115.372047 293.000000
2.530141 115.849487 293.000000
2.521505 115.929901 292.000000
2.521505 116.405716 292.000000
2.521505 116.881523 292.000000
2.521505 117.357338 292.000000
2.521505 117.833145 292.000000
2.521505 118.308952 292.000000
2.512870 118.377968 291.000000
2.512870 118.852150 291.000000
2.512870 119.326324 291.000000
2.512870 119.800507 291.000000
2.512870 120.274689 291.000000
2.512870 120.748871 291.000000
2.512870 121.223053 291.000000
2.512870 121.697235 291.000000
2.512870 122.171410 291.000000
2.512870 122.645592 291.000000
2.504235 122.696678 290.000000
2.504235 123.169235 290.000000
2.504235 123.641785 290.000000
2.504235 124.114334 290.000000
2.504235 124.586884 290.000000
2.504235 125.059441 290.000000
2.504235 125.531990 290.000000
2.504235 126.004539 290.000000
2.504235 126.477089 290.000000
2.504235 126.949646 290.000000
2.504235 127.422195 290.000000
3.972181 29.416334 387.000000
3.972181 30.046946 387.000000
3.972181 30.677557 387.000000
3.972181 31.308168 387.000000
3.972181 31.938780 387.000000
3.972181 32.569393 387.000000
3.972181 33.200005 387.000000
3.972181 33.830616 387.000000
3.972181 34.461227 387.000000
3.972181 35.091839 387.000000
3.972181 35.722450 387.000000
3.972181 36.353062 387.000000
3.972181 36.983673 387.000000
3.972181 37.614285 387.000000
3.972181 38.244896 387.000000
3.972181 38.875507 387.000000
3.972181 39.506119 387.000000
3.972181 40.136730 387.000000
3.972181 40.767342 387.000000
3.972181 41.397953 387.000000
3.962425 41.925335 386.049438
3.970060 42.636398 386.793365
3.970060 43.266678 386.793365
3.970060 43.896950 386.793365
3.969848 44.524849 386.772705
3.956785 45.006496 385.499969
3.956785 45.634666 385.499969
3.944810 46.122826 384.333313
3.932967 46.608742 383.179474
3.932967 47.233128 383.179474
3.921237 47.714775 382.036621
3.909605 48.193905 380.903290
3.909605 48.814583 380.903290
3.898699 49.297363 379.840790
3.887831 49.777164 378.781952
3.887831 50.394386 378.781952
3.878911 50.894558 377.912842
3.868453 51.371490 376.893982
3.868453 51.985634 376.893982
3.828485 52.056328 373.000000
3.828485 52.664127 373.000000
3.828485 53.271927 373.000000
3.818221 53.735275 372.000000
3.807957 54.195370 371.000000
3.807957 54.799908 371.000000
3.797693 55.255108 370.000000
3.797693 55.858017 370.000000
3.797693 56.460930 370.000000
3.787429 56.909611 369.000000
3.787429 57.510891 369.000000
3.787429 58.112171 369.000000
3.777165 58.554344 368.000000
3.777165 59.153996 368.000000
3.777165 59.753647 368.000000
3.756637 60.025284 366.000000
3.756637 60.621677 366.000000
3.746372 61.050808 365.000000
3.746372 61.645569 365.000000
3.736109 62.069817 364.000000
3.736109 62.662949 364.000000
3.736109 63.256081 364.000000
3.725845 63.673805 363.000000
3.715580 64.088264 362.000000
3.715580 64.678139 362.000000
3.715580 65.268013 362.000000
3.715580 65.857887 362.000000
3.715580 66.447762 362.000000
3.705316 66.852455 361.000000
3.695052 67.253883 360.000000
3.695052 67.840500 360.000000
3.695052 68.427116 360.000000
3.684788 68.822021 359.000000
3.684788 69.407005 359.000000
3.657242 69.468765 356.316254
3.637894 69.678787 354.431213
3.637894 70.256325 354.431213
3.618282 70.452003 352.520447
3.600837 70.683990 350.820862
3.600837 71.255646 350.820862
3.551356 70.840279 346.000000
3.551356 71.404083 346.000000
3.551356 71.967888 346.000000
3.541092 72.322060 345.000000
3.530828 72.672981 344.000000
3.530828 73.233521 344.000000
3.510300 73.365028 342.000000
3.500036 73.706161 341.000000
3.500036 74.261818 341.000000
3.489772 74.598068 340.000000
3.479508 74.931061 339.000000
3.479508 75.483459 339.000000
3.479508 76.035851 339.000000
3.469243 76.362320 338.000000
3.458979 76.685539 337.000000
3.458979 77.234680 337.000000
3.448715 77.553001 336.000000
3.448715 78.100510 336.000000
3.448715 78.648018 336.000000
3.438452 78.959824 335.000000
3.428188 79.268364 334.000000
3.428188 79.812614 334.000000
3.417923 80.116280 333.000000
3.417923 80.658897 333.000000
3.417923 81.201515 333.000000
3.407659 81.498657 332.000000
3.407659 82.039650 332.000000
3.407659 82.580635 332.000000
3.397395 82.871262 331.000000
3.387131 83.158630 330.000000
3.387131 83.696358 330.000000
3.387131 84.234093 330.000000
3.387131 84.771820 330.000000
3.387131 85.309547 330.000000
3.376867 85.587135 329.000000
3.376867 86.123238 329.000000
3.376867 86.659340 329.000000
3.356339 86.665375 327.000000
3.356339 87.198219 327.000000
3.356339 87.731056 327.000000
3.346075 87.993988 326.000000
3.346075 88.525200 326.000000
3.335811 88.783226 325.000000
3.335811 89.312813 325.000000
3.325547 89.565956 324.000000
3.315283 89.815849 323.000000
3.315283 90.342171 323.000000
3.315283 90.868500 323.000000
3.288923 90.668137 320.431824
3.288923 91.190277 320.431824
3.253699 90.730171 317.000000
3.253699 91.246719 317.000000
3.253699 91.763268 317.000000
3.243435 91.988716 316.000000
3.233171 92.210899 315.000000
3.233171 92.724190 315.000000
3.222907 92.941483 314.000000
3.222907 93.453140 314.000000
3.222907 93.964806 314.000000
3.222907 94.476463 314.000000
3.212643 94.685616 313.000000
3.212643 95.195641 313.000000
3.202379 95.399902 312.000000
3.202379 95.908302 312.000000
3.202379 96.416702 312.000000
3.192115 96.614441 311.000000
3.192115 97.121216 311.000000
3.192115 97.627983 311.000000
3.181851 97.819206 310.000000
3.171587 98.007179 309.000000
3.171587 98.510689 309.000000
3.171587 99.014198 309.000000
3.171587 99.517715 309.000000
3.171587 100.021225 309.000000
3.161323 100.199409 308.000000
3.140795 100.047394 306.000000
3.140795 100.546013 306.000000
3.130530 100.714424 305.000000
3.110003 100.547737 303.000000
3.110003 101.041466 303.000000
3.110003 101.535202 303.000000
3.099738 101.692215 302.000000
3.099738 102.184319 302.000000
3.099738 102.676422 302.000000
3.099738 103.168526 302.000000
3.089474 103.317383 301.000000
3.089474 103.807861 301.000000
3.089474 104.298340 301.000000
3.079210 104.440674 300.000000
3.079210 104.929520 300.000000
3.079210 105.418365 300.000000
3.068946 105.554192 299.000000
3.068946 106.041412 299.000000
3.068946 106.528625 299.000000
3.058682 106.657928 298.000000
3.058682 107.143517 298.000000
3.048418 107.267929 297.000000
3.048418 107.751884 297.000000
3.048418 108.235847 297.000000
3.048418 108.719803 297.000000
3.048418 109.203758 297.000000
3.048418 109.687721 297.000000
3.048418 110.171677 297.000000
3.038154 110.283058 296.000000
3.038154 110.765381 296.000000
3.038154 111.247711 296.000000
3.027890 111.352570 295.000000
3.027890 111.833267 295.000000
3.027890 112.313972 295.000000
3.017626 112.412323 294.000000
3.017626 112.891396 294.000000
3.017626 113.370461 294.000000
3.017626 113.849533 294.000000
3.007362 113.939728 293.000000
3.007362 114.417168 293.000000
3.007362 114.894608 293.000000
2.997098 114.978279 292.000000
2.997098 115.454094 292.000000
2.997098 115.929901 292.000000
2.997098 116.405716 292.000000
2.997098 116.881523 292.000000
2.997098 117.357338 292.000000
2.997098 117.833145 292.000000
2.997098 118.308952 292.000000
2.986834 118.377968 291.000000
2.986834 118.852150 291.000000
2.986834 119.326324 291.000000
2.986834 119.800507 291.000000
2.986834 120.274689 291.000000
2.986834 120.748871 291.000000
2.986834 121.223053 291.000000
2.986834 121.697235 291.000000
2.986834 122.171410 291.000000
2.986834 122.645592 291.000000
2.976570 122.696678 290.000000
2.976570 123.169235 290.000000
2.976570 123.641785 290.000000
2.976570 124.114334 290.000000
2.976570 124.586884 290.000000
2.976570 125.059441 290.000000
2.976570 125.531990 290.000000
2.976570 126.004539 290.000000
2.976570 126.477089 290.000000
2.976570 126.949646 290.000000
2.976570 127.422195 290.000000
4.602504 29.416334 387.000000
4.602504 30.046946 387.000000
4.602504 30.677557 387.000000
4.602504 31.308168 387.000000
4.602504 31.938780 387.000000
4.602504 32.569393 387.000000
4.602504 33.200005 387.000000
4.602504 33.830616 387.000000
4.602504 34.461227 387.000000
4.602504 35.091839 387.000000
4.602504 35.722450 387.000000
4.602504 36.353062 387.000000
4.602504 36.983673 387.000000
4.602504 37.614285 387.000000
4.602504 38.244896 387.000000
4.602504 38.875507 387.000000
4.602504 39.506119 387.000000
4.602504 40.136730 387.000000
4.602504 40.767342 387.000000
4.602504 41.397953 387.000000
4.583555 41.855530 385.406677
4.604148 42.674412 387.138214
4.604148 43.305248 387.138214
4.604148 43.936089 387.138214
4.603123 44.557003 387.052032
4.586905 45.028496 385.688385
4.586905 45.656967 385.688385
4.571049 46.125439 384.355072
4.555496 46.592674 383.047363
4.555496 47.216843 383.047363
4.540206 47.680435 381.761658
4.525934 48.150681 380.561646
4.525934 48.770798 380.561646
4.513556 49.255840 379.520844
4.502289 49.749760 378.573425
4.502289 50.366642 378.573425
4.501264 50.971916 378.487244
4.490134 51.461098 377.551392
4.490134 52.076313 377.551392
4.436005 52.056328 373.000000
4.436005 52.664127 373.000000
4.436005 53.271927 373.000000
4.424113 53.735275 372.000000
4.400327 54.049286 370.000000
4.400327 54.652199 370.000000
4.400327 55.255108 370.000000
4.388434 55.707050 369.000000
4.388434 56.308331 369.000000
4.388434 56.909611 369.000000
4.376542 57.355042 368.000000
4.376542 57.954693 368.000000
4.376542 58.554344 368.000000
4.364649 58.993248 367.000000
4.364649 59.591270 367.000000
4.352756 60.025284 366.000000
4.352756 60.621677 366.000000
4.340863 61.050808 365.000000
4.340863 61.645569 365.000000
4.328970 62.069817 364.000000
4.328970 62.662949 364.000000
4.328970 63.256081 364.000000
4.317078 63.673805 363.000000
4.305185 64.088264 362.000000
4.305185 64.678139 362.000000
4.305185 65.268013 362.000000
4.305185 65.857887 362.000000
4.305185 66.447762 362.000000
4.293292 66.852455 361.000000
4.281399 67.253883 360.000000
4.281399 67.840500 360.000000
4.281399 68.427116 360.000000
4.250002 68.507629 357.359985
4.250002 69.089943 357.359985
4.225855 69.276398 355.329559
4.203842 69.491508 353.478577
4.203842 70.067497 353.478577
4.181866 70.274200 351.630798
4.162334 70.516281 349.988464
4.162334 71.086586 349.988464
4.103008 70.635536 345.000000
4.091115 70.991348 344.000000
4.091115 71.551888 344.000000
4.091115 72.112434 344.000000
4.079222 72.461716 343.000000
4.079222 73.020630 343.000000
4.067329 73.365028 342.000000
4.055437 73.706161 341.000000
4.055437 74.261818 341.000000
4.043544 74.598068 340.000000
4.031651 74.931061 339.000000
4.031651 75.483459 339.000000
4.031651 76.035851 339.000000
4.019758 76.362320 338.000000
4.007865 76.685539 337.000000
4.007865 77.234680 337.000000
3.995973 77.553001 336.000000
3.984080 77.868065 335.000000
3.984080 78.413940 335.000000
3.972187 78.724121 334.000000
3.960294 79.031044 333.000000
3.960294 79.573662 333.000000
3.960294 80.116280 333.000000
3.948402 80.416679 332.000000
3.948402 80.957664 332.000000
3.948402 81.498657 332.000000
3.936509 81.792542 331.000000
3.936509 82.331902 331.000000
3.924616 82.620895 330.000000
3.924616 83.158630 330.000000
3.924616 83.696358 330.000000
3.924616 84.234093 330.000000
3.912723 84.514931 329.000000
3.912723 85.051033 329.000000
3.912723 85.587135 329.000000
3.888938 85.599686 327.000000
3.888938 86.132530 327.000000
3.888938 86.665375 327.000000
3.877045 86.931557 326.000000
3.877045 87.462769 326.000000
3.865152 87.724060 325.000000
3.853259 87.982094 324.000000
3.853259 88.510048 324.000000
3.853259 89.038002 324.000000
3.841367 89.289520 323.000000
3.828753 89.520920 321.939392
3.828753 90.045525 321.939392
3.819659 90.354988 321.174683
3.810824 90.668137 320.431824
3.810824 91.190277 320.431824
3.770010 90.730171 317.000000
3.770010 91.246719 317.000000
3.770010 91.763268 317.000000
3.746224 91.697609 315.000000
3.734331 91.918167 314.000000
3.734331 92.429825 314.000000
3.734331 92.941483 314.000000
3.722439 93.155525 313.000000
3.722439 93.665558 313.000000
3.722439 94.175583 313.000000
3.710546 94.383102 312.000000
3.710546 94.891502 312.000000
3.698653 95.094131 311.000000
3.698653 95.600906 311.000000
3.698653 96.107674 311.000000
3.698653 96.614441 311.000000
3.686761 96.808929 310.000000
3.686761 97.314064 310.000000
3.674868 97.503670 309.000000
3.674868 98.007179 309.000000
3.674868 98.510689 309.000000
3.662975 98.693764 308.000000
3.662975 99.195648 308.000000
3.662975 99.697533 308.000000
3.651082 99.874084 307.000000
3.639189 100.047394 306.000000
3.639189 100.546013 306.000000
3.615404 100.384209 304.000000
3.603511 100.547737 303.000000
3.603511 101.041466 303.000000
3.603511 101.535202 303.000000
3.591619 101.692215 302.000000
3.591619 102.184319 302.000000
3.591619 102.676422 302.000000
3.591619 103.168526 302.000000
3.579726 103.317383 301.000000
3.579726 103.807861 301.000000
3.579726 104.298340 301.000000
3.567833 104.440674 300.000000
3.567833 104.929520 300.000000
3.567833 105.418365 300.000000
3.555940 105.554192 299.000000
3.555940 106.041412 299.000000
3.555940 106.528625 299.000000
3.532154 106.300018 297.000000
3.532154 106.783974 297.000000
3.532154 107.267929 297.000000
3.532154 107.751884 297.000000
3.532154 108.235847 297.000000
3.532154 108.719803 297.000000
3.532154 109.203758 297.000000
3.532154 109.687721 297.000000
3.520262 109.800728 296.000000
3.520262 110.283058 296.000000
3.520262 110.765381 296.000000
3.508369 110.871872 295.000000
3.508369 111.352570 295.000000
