-21.012922 118.107193 317.000000
-21.012922 118.623741 317.000000
-19.753471 121.711136 298.000000
-19.753471 122.196724 298.000000
-19.753471 122.682304 298.000000
-22.537519 150.499588 340.000000
-22.537519 151.053619 340.000000
-22.537519 151.607651 340.000000
-22.537519 152.161667 340.000000
-19.620899 132.952484 296.000000
-19.620899 133.434814 296.000000
-19.687185 134.369568 297.000000
-19.687185 134.853516 297.000000
-19.687185 135.337479 297.000000
-19.687185 135.821442 297.000000
-19.687185 136.305389 297.000000
-19.687185 136.789352 297.000000
-19.620899 136.811111 296.000000
-19.620899 137.293442 296.000000
-19.620899 137.775772 296.000000
-19.620899 138.258087 296.000000
-19.620899 138.740417 296.000000
-19.620899 139.222748 296.000000
-19.620899 139.705078 296.000000
-19.620899 140.187408 296.000000
-19.620899 140.669739 296.000000
-19.620899 141.152069 296.000000
-19.554613 141.155899 295.000000
-19.554613 141.636597 295.000000
-20.151194 151.902084 304.000000
-20.151194 152.397446 304.000000
-20.217480 153.395752 305.000000
-20.217480 153.892746 305.000000
-20.217480 154.389740 305.000000
-20.217480 154.886734 305.000000
-20.217480 155.383728 305.000000
-20.217480 155.880722 305.000000
-20.217480 156.377716 305.000000
-20.217480 156.874710 305.000000
-20.217480 157.371704 305.000000
-20.217480 157.868698 305.000000
-20.217480 158.365692 305.000000
-20.217480 158.862686 305.000000
-20.217480 159.359680 305.000000
-20.217480 159.856674 305.000000
-20.217480 160.353668 305.000000
-20.217480 160.850662 305.000000
-20.217480 161.347656 305.000000
-20.217480 161.844650 305.000000
-20.217480 162.341644 305.000000
-20.217480 162.838623 305.000000
-20.217480 163.335617 305.000000
-20.217480 163.832611 305.000000
-20.217480 164.329605 305.000000
-20.217480 164.826599 305.000000
-20.217480 165.323593 305.000000
-20.283768 166.364273 306.000000
-20.283768 166.862885 306.000000
-20.283768 167.361511 306.000000
-20.283768 167.860138 306.000000
-20.283768 168.358765 306.000000
-20.283768 168.857391 306.000000
-20.283768 169.356003 306.000000
-20.283768 169.854630 306.000000
-20.283768 170.353256 306.000000
-20.283768 170.851883 306.000000
-22.953617 61.113586 355.000000
-22.953617 61.692055 355.000000
-22.953617 62.270523 355.000000
-22.949726 62.838341 354.939819
-22.949726 63.416706 354.939819
-22.941242 63.971420 354.808594
-22.935368 64.533043 354.717743
-22.935368 65.111053 354.717743
-22.882055 65.536369 353.893219
-22.846096 66.009140 353.337067
-22.846096 66.584892 353.337067
-22.822121 67.090179 352.966278
-22.803335 67.609627 352.675720
-22.803335 68.184311 352.675720
-22.786356 68.707802 352.413147
-22.768524 69.227829 352.137329
-22.768524 69.801628 352.137329
-22.750071 70.318398 351.851929
-22.759644 70.921562 352.000000
-22.759644 71.495148 352.000000
-22.759644 72.068726 352.000000
-22.694984 72.435936 351.000000
-22.694984 73.007889 351.000000
-22.630327 73.370209 350.000000
-22.630327 73.940529 350.000000
-22.630327 74.510849 350.000000
-22.630327 75.081169 350.000000
-22.565668 75.435341 349.000000
-22.501011 75.786255 348.000000
-22.501011 76.353317 348.000000
-22.436352 76.699348 347.000000
-22.436352 77.264778 347.000000
-22.436352 77.830208 347.000000
-22.436352 78.395645 347.000000
-22.371695 78.733521 346.000000
-22.371695 79.297325 346.000000
-22.307035 79.630310 345.000000
-22.307035 80.192482 345.000000
-22.307035 80.754654 345.000000
-22.242378 81.081131 344.000000
-22.242378 81.641678 344.000000
-22.242378 82.202217 344.000000
-22.242378 82.762764 344.000000
-22.177721 83.081085 343.000000
-22.177721 83.639999 343.000000
-22.113064 83.953438 342.000000
-22.113064 84.510719 342.000000
-22.113064 85.068008 342.000000
-22.113064 85.625290 342.000000
-22.048405 85.930580 341.000000
-22.048405 86.486229 341.000000
-22.048405 87.041885 341.000000
-21.919088 87.083778 339.000000
-21.919088 87.636169 339.000000
-21.919088 88.188568 339.000000
-21.919088 88.740967 339.000000
-21.919088 89.293358 339.000000
-21.854431 89.580727 338.000000
-21.854431 90.131493 338.000000
-21.854431 90.682259 338.000000
-21.854431 91.233025 338.000000
-21.789772 91.512245 337.000000
-21.789772 92.061386 337.000000
-21.789772 92.610519 337.000000
-21.789772 93.159660 337.000000
-21.789772 93.708794 337.000000
-21.789772 94.257935 337.000000
-21.725115 94.525742 336.000000
-21.725115 95.073250 336.000000
-21.725115 95.620758 336.000000
-21.725115 96.168266 336.000000
-21.660456 96.427925 335.000000
-21.660456 96.973801 335.000000
-21.595798 97.228577 334.000000
-21.531139 97.480095 333.000000
-21.531139 98.022713 333.000000
-21.531139 98.565338 333.000000
-21.466482 98.810333 332.000000
-21.466482 99.351318 332.000000
-21.466482 99.892311 332.000000
-21.401823 100.130791 331.000000
-21.401823 100.670151 331.000000
-21.337166 100.903748 330.000000
-21.337166 101.441475 330.000000
-21.337166 101.979210 330.000000
-21.337166 102.516937 330.000000
-21.272507 102.742378 329.000000
-21.272507 103.278481 329.000000
-21.272507 103.814583 329.000000
-21.272507 104.350685 329.000000
-21.272507 104.886787 329.000000
-21.207850 105.102448 328.000000
-21.143192 105.314857 327.000000
-21.143192 105.847702 327.000000
-21.143192 106.380539 327.000000
-21.078533 106.586433 326.000000
-21.078533 107.117645 326.000000
-21.078533 107.648865 326.000000
-21.078533 108.180077 326.000000
-21.013876 108.377815 325.000000
-21.013876 108.907402 325.000000
-21.013876 109.436981 325.000000
-21.013876 109.966568 325.000000
-21.013876 110.496147 325.000000
-20.949217 110.684113 324.000000
-20.884560 110.868820 323.000000
-20.884560 111.395142 323.000000
-20.884560 111.921463 323.000000
-20.819901 112.099655 322.000000
-20.819901 112.624352 322.000000
-20.819901 113.149040 322.000000
-20.561268 116.407066 318.000000
-20.561268 116.925240 318.000000
-20.561268 117.443420 318.000000
-20.561268 117.961594 318.000000
-19.268106 121.225548 298.000000
-19.268106 121.711136 298.000000
-19.268106 122.196724 298.000000
-19.268106 122.682304 298.000000
-19.203449 122.754578 297.000000
-19.203449 123.238533 297.000000
-21.983747 150.499588 340.000000
-21.983747 151.053619 340.000000
-21.983747 151.607651 340.000000
-21.983747 152.161667 340.000000
-19.138792 132.952484 296.000000
-19.138792 133.434814 296.000000
-19.074133 133.464722 295.000000
-19.138792 134.399475 296.000000
-19.138792 134.881790 296.000000
-19.138792 135.364120 296.000000
-19.074133 135.387512 295.000000
-19.074133 135.868210 295.000000
-19.074133 136.348907 295.000000
-19.074133 136.829605 295.000000
-19.074133 137.310303 295.000000
-19.074133 137.791000 295.000000
-19.074133 138.271698 295.000000
-19.074133 138.752396 295.000000
-19.074133 139.233093 295.000000
-19.074133 139.713806 295.000000
-19.074133 140.194504 295.000000
-19.074133 140.675201 295.000000
-19.074133 141.155899 295.000000
-19.074133 141.636597 295.000000
-19.074133 142.117294 295.000000
-19.656055 151.902084 304.000000
-19.656055 152.397446 304.000000
-19.720715 153.395752 305.000000
-19.720715 153.892746 305.000000
-19.720715 154.389740 305.000000
-19.720715 154.886734 305.000000
-19.720715 155.383728 305.000000
-19.720715 155.880722 305.000000
-19.720715 156.377716 305.000000
-19.720715 156.874710 305.000000
-19.720715 157.371704 305.000000
-19.720715 157.868698 305.000000
-19.720715 158.365692 305.000000
-19.720715 158.862686 305.000000
-19.720715 159.359680 305.000000
-19.720715 159.856674 305.000000
-19.720715 160.353668 305.000000
-19.720715 160.850662 305.000000
-19.720715 161.347656 305.000000
-19.720715 161.844650 305.000000
-19.720715 162.341644 305.000000
-19.720715 162.838623 305.000000
-19.720715 163.335617 305.000000
-19.720715 163.832611 305.000000
-19.720715 164.329605 305.000000
-19.720715 164.826599 305.000000
-19.720715 165.323593 305.000000
-19.785372 166.364273 306.000000
-19.785372 166.862885 306.000000
-19.785372 167.361511 306.000000
-19.785372 167.860138 306.000000
-19.785372 168.358765 306.000000
-19.785372 168.857391 306.000000
-19.785372 169.356003 306.000000
-19.785372 169.854630 306.000000
-19.785372 170.353256 306.000000
-19.785372 170.851883 306.000000
-22.375414 61.113586 355.000000
-22.375414 61.692055 355.000000
-22.375414 62.270523 355.000000
-22.371620 62.838341 354.939819
-22.371620 63.416706 354.939819
-22.363350 63.971420 354.808594
-22.357624 64.533043 354.717743
-22.357624 65.111053 354.717743
-22.337887 65.631073 354.404602
-22.311028 66.128960 353.978455
-22.311028 66.705765 353.978455
-22.279682 67.188042 353.481140
-22.267071 67.725670 353.281036
-22.267071 68.301338 353.281036
-22.248997 68.821098 352.994293
-22.240227 69.368950 352.855164
-22.240227 69.943924 352.855164
-22.232128 70.493217 352.726685
-22.206129 70.984871 352.314178
-22.206129 71.558960 352.314178
-22.186260 72.068512 351.998962
-22.148840 72.519562 351.405243
-22.148840 73.092178 351.405243
-22.060266 73.370209 350.000000
-22.060266 73.940529 350.000000
-22.060266 74.510849 350.000000
-21.997238 74.866653 349.000000
-21.997238 75.435341 349.000000
-21.934208 75.786255 348.000000
-21.934208 76.353317 348.000000
-21.871180 76.699348 347.000000
-21.871180 77.264778 347.000000
-21.871180 77.830208 347.000000
-21.808149 78.169716 346.000000
-21.745121 78.505966 345.000000
-21.745121 79.068138 345.000000
-21.745121 79.630310 345.000000
-21.682091 79.960045 344.000000
-21.682091 80.520592 344.000000
-21.682091 81.081131 344.000000
-21.619062 81.404343 343.000000
-21.619062 81.963257 343.000000
-21.619062 82.522171 343.000000
-21.556034 82.838867 342.000000
-21.556034 83.396149 342.000000
-21.556034 83.953438 342.000000
-21.493004 84.263611 341.000000
-21.493004 84.819267 341.000000
-21.493004 85.374924 341.000000
-21.429976 85.678589 340.000000
-21.429976 86.232613 340.000000
-21.429976 86.786636 340.000000
-21.366945 87.083778 339.000000
-21.366945 87.636169 339.000000
-21.366945 88.188568 339.000000
-21.366945 88.740967 339.000000
-21.366945 89.293358 339.000000
-21.303915 89.580727 338.000000
-21.303915 90.131493 338.000000
-21.303915 90.682259 338.000000
-21.303915 91.233025 338.000000
-21.240887 91.512245 337.000000
-21.240887 92.061386 337.000000
-21.240887 92.610519 337.000000
-21.240887 93.159660 337.000000
-21.240887 93.708794 337.000000
-21.240887 94.257935 337.000000
-21.177856 94.525742 336.000000
-21.177856 95.073250 336.000000
-21.177856 95.620758 336.000000
-21.177856 96.168266 336.000000
-21.114828 96.427925 335.000000
-21.114828 96.973801 335.000000
-21.051798 97.228577 334.000000
-20.988770 97.480095 333.000000
-20.988770 98.022713 333.000000
-20.925739 98.269341 332.000000
-20.925739 98.810333 332.000000
-20.925739 99.351318 332.000000
-20.862709 99.591431 331.000000
-20.799681 99.828285 330.000000
-20.799681 100.366013 330.000000
-20.799681 100.903748 330.000000
-20.799681 101.441475 330.000000
-20.799681 101.979210 330.000000
-20.736650 102.206276 329.000000
-20.736650 102.742378 329.000000
-20.736650 103.278481 329.000000
-20.736650 103.814583 329.000000
-20.673622 104.033508 328.000000
-20.673622 104.567978 328.000000
-20.610594 104.782013 327.000000
-20.610594 105.314857 327.000000
-20.610594 105.847702 327.000000
-20.547564 106.055222 326.000000
-20.547564 106.586433 326.000000
-20.484535 106.789063 325.000000
-20.484535 107.318649 325.000000
-20.484535 107.848228 325.000000
-20.484535 108.377815 325.000000
-20.484535 108.907402 325.000000
-20.421505 109.100250 324.000000
-20.421505 109.628204 324.000000
-20.421505 110.156158 324.000000
-20.358477 110.342491 323.000000
-20.358477 110.868820 323.000000
-20.358477 111.395142 323.000000
-20.295446 111.574959 322.000000
-20.232416 111.751526 321.000000
-20.232416 112.274597 321.000000
-20.169388 112.446266 320.000000
-20.043329 116.407066 318.000000
-20.043329 116.925240 318.000000
-20.043329 117.443420 318.000000
-20.043329 117.961594 318.000000
-18.782742 121.225548 298.000000
-18.782742 121.711136 298.000000
-18.782742 122.196724 298.000000
-18.782742 122.682304 298.000000
-18.719711 122.754578 297.000000
-18.719711 123.238533 297.000000
-18.593655 122.889343 295.000000
-18.467596 123.965965 293.000000
-18.467596 124.443405 293.000000
-18.467596 124.920845 293.000000
-18.467596 125.398285 293.000000
-18.467596 125.875725 293.000000
-18.467596 126.353165 293.000000
-21.429976 150.499588 340.000000
-21.429976 151.053619 340.000000
-21.429976 151.607651 340.000000
-21.429976 152.161667 340.000000
-18.593655 132.503311 295.000000
-18.593655 132.984009 295.000000
-18.593655 133.464722 295.000000
-18.593655 133.945419 295.000000
-18.593655 134.426117 295.000000
-18.593655 134.906815 295.000000
-18.593655 135.387512 295.000000
-18.593655 135.868210 295.000000
-18.530626 135.886719 294.000000
-18.530626 136.365784 294.000000
-18.530626 136.844864 294.000000
-18.530626 137.323929 294.000000
-18.530626 137.802994 294.000000
-18.530626 138.282059 294.000000
-18.530626 138.761139 294.000000
-18.530626 139.240204 294.000000
-18.530626 139.719269 294.000000
-18.593655 140.675201 295.000000
-18.593655 141.155899 295.000000
-18.593655 141.636597 295.000000
-18.593655 142.117294 295.000000
-18.593655 142.597992 295.000000
-18.593655 143.078690 295.000000
-19.097889 152.389877 303.000000
-19.160917 153.388184 304.000000
-19.160917 153.883545 304.000000
-19.223948 154.886734 305.000000
-19.223948 155.383728 305.000000
-19.223948 155.880722 305.000000
-19.223948 156.377716 305.000000
-19.223948 156.874710 305.000000
-19.223948 157.371704 305.000000
-19.223948 157.868698 305.000000
-19.223948 158.365692 305.000000
-19.223948 158.862686 305.000000
-19.160917 158.837189 304.000000
-19.160917 159.332550 304.000000
-19.160917 159.827911 304.000000
-19.160917 160.323273 304.000000
-19.160917 160.818634 304.000000
-19.160917 161.314011 304.000000
-19.160917 161.809372 304.000000
-19.223948 162.838623 305.000000
-19.223948 163.335617 305.000000
-19.223948 163.832611 305.000000
-19.223948 164.329605 305.000000
-19.223948 164.826599 305.000000
-19.223948 165.323593 305.000000
-19.223948 165.820587 305.000000
-19.223948 166.317581 305.000000
-19.223948 166.814575 305.000000
-19.223948 167.311569 305.000000
-19.223948 167.808563 305.000000
-19.223948 168.305557 305.000000
-19.223948 168.802551 305.000000
-19.223948 169.299545 305.000000
-19.223948 169.796539 305.000000
-21.797211 61.113586 355.000000
-21.797211 61.692055 355.000000
-21.797211 62.270523 355.000000
-21.793516 62.838341 354.939819
-21.793516 63.416706 354.939819
-21.785460 63.971420 354.808594
-21.779881 64.533043 354.717743
-21.779881 65.111053 354.717743
-21.760654 65.631073 354.404602
-21.734488 66.128960 353.978455
-21.734488 66.705765 353.978455
-21.703951 67.188042 353.481140
-21.691666 67.725670 353.281036
-21.691666 68.301338 353.281036
-21.674061 68.821098 352.994293
-21.665518 69.368950 352.855164
-21.665518 69.943924 352.855164
-21.657627 70.493217 352.726685
-21.632299 70.984871 352.314178
-21.632299 71.558960 352.314178
-21.612946 72.068512 351.998962
-21.576492 72.519562 351.405243
-21.576492 73.092178 351.405243
-21.490208 73.370209 350.000000
-21.490208 73.940529 350.000000
-21.490208 74.510849 350.000000
-21.428806 74.866653 349.000000
-21.428806 75.435341 349.000000
-21.367407 75.786255 348.000000
-21.367407 76.353317 348.000000
-21.306005 76.699348 347.000000
-21.306005 77.264778 347.000000
-21.306005 77.830208 347.000000
-21.244606 78.169716 346.000000
-21.183205 78.505966 345.000000
-21.183205 79.068138 345.000000
-21.183205 79.630310 345.000000
-21.121803 79.960045 344.000000
-21.121803 80.520592 344.000000
-21.060404 80.845428 343.000000
-21.060404 81.404343 343.000000
-21.060404 81.963257 343.000000
-20.999004 82.281578 342.000000
-20.999004 82.838867 342.000000
-20.999004 83.396149 342.000000
-20.937603 83.707954 341.000000
-20.937603 84.263611 341.000000
-20.937603 84.819267 341.000000
-20.876202 85.124557 340.000000
-20.876202 85.678589 340.000000
-20.876202 86.232613 340.000000
-20.814802 86.531380 339.000000
-20.814802 87.083778 339.000000
-20.814802 87.636169 339.000000
-20.753401 87.928421 338.000000
-20.753401 88.479187 338.000000
-20.753401 89.029961 338.000000
-20.692001 89.315697 337.000000
-20.692001 89.864830 337.000000
-20.692001 90.413971 337.000000
-20.692001 90.963112 337.000000
-20.692001 91.512245 337.000000
-20.630600 91.788200 336.000000
-20.630600 92.335709 336.000000
-20.630600 92.883217 336.000000
-20.630600 93.430725 336.000000
-20.630600 93.978233 336.000000
-20.630600 94.525742 336.000000
-20.630600 95.073250 336.000000
-20.630600 95.620758 336.000000
-20.569199 95.882050 335.000000
-20.507799 96.140076 334.000000
-20.507799 96.684326 334.000000
-20.446398 96.937477 333.000000
-20.446398 97.480095 333.000000
-20.446398 98.022713 333.000000
-20.384996 98.269341 332.000000
-20.384996 98.810333 332.000000
-20.384996 99.351318 332.000000
-20.323597 99.591431 331.000000
-20.262196 99.828285 330.000000
-20.262196 100.366013 330.000000
-20.262196 100.903748 330.000000
-20.262196 101.441475 330.000000
-20.262196 101.979210 330.000000
-20.200794 102.206276 329.000000
-20.200794 102.742378 329.000000
-20.200794 103.278481 329.000000
-20.200794 103.814583 329.000000
-20.139397 104.033508 328.000000
-20.139397 104.567978 328.000000
-20.077995 104.782013 327.000000
-20.016594 104.992798 326.000000
-20.016594 105.524010 326.000000
-20.016594 106.055222 326.000000
-19.955194 106.259483 325.000000
-19.955194 106.789063 325.000000
-19.955194 107.318649 325.000000
-19.893793 107.516388 324.000000
-19.893793 108.044342 324.000000
-19.893793 108.572296 324.000000
-19.893793 109.100250 324.000000
-19.888674 109.600006 323.916656
-19.888674 110.127823 323.916656
-19.888674 110.655647 323.916656
-19.770992 110.525566 322.000000
-19.770992 111.050262 322.000000
-19.648190 110.881958 320.000000
-19.648190 111.403389 320.000000
-19.648190 111.924828 320.000000
-19.648190 112.446266 320.000000
-18.297377 118.312019 298.000000
-18.297377 118.797607 298.000000
-18.297377 119.283195 298.000000
-18.297377 119.768784 298.000000
-18.297377 121.225548 298.000000
-18.297377 121.711136 298.000000
-18.297377 122.196724 298.000000
-18.235975 122.270622 297.000000
-18.235975 122.754578 297.000000
-18.235975 123.238533 297.000000
-18.113176 122.889343 295.000000
-17.990376 123.965965 293.000000
-17.990376 124.443405 293.000000
-17.990376 124.920845 293.000000
-17.990376 125.398285 293.000000
-17.990376 125.875725 293.000000
-17.990376 126.353165 293.000000
-20.876202 150.499588 340.000000
-20.876202 151.053619 340.000000
-20.876202 151.607651 340.000000
-20.876202 152.161667 340.000000
-18.113176 132.503311 295.000000
-18.113176 132.984009 295.000000
-18.113176 133.464722 295.000000
-18.113176 133.945419 295.000000
-18.113176 134.426117 295.000000
-18.113176 134.906815 295.000000
-18.113176 135.387512 295.000000
-18.113176 135.868210 295.000000
-18.051775 135.886719 294.000000
-18.051775 136.365784 294.000000
-18.051775 136.844864 294.000000
-18.051775 137.323929 294.000000
-18.051775 137.802994 294.000000
-18.051775 138.282059 294.000000
-18.051775 138.761139 294.000000
-18.051775 139.240204 294.000000
-18.051775 139.719269 294.000000
-18.113176 140.675201 295.000000
-18.113176 141.155899 295.000000
-18.113176 141.636597 295.000000
-18.113176 142.117294 295.000000
-18.113176 142.597992 295.000000
-18.113176 143.078690 295.000000
-18.542980 151.886932 302.000000
-18.542980 152.379044 302.000000
-18.542980 152.871140 302.000000
-18.542980 153.363251 302.000000
-18.604380 154.364807 303.000000
-18.604380 154.858551 303.000000
-18.604380 155.352280 303.000000
-18.604380 155.846024 303.000000
-18.604380 156.339752 303.000000
-18.665781 157.351089 304.000000
-18.665781 157.846451 304.000000
-18.665781 158.341812 304.000000
-18.665781 158.837189 304.000000
-18.665781 159.332550 304.000000
-18.665781 159.827911 304.000000
-18.665781 160.323273 304.000000
-18.665781 160.818634 304.000000
-18.665781 161.314011 304.000000
-18.665781 161.809372 304.000000
-18.604380 161.770828 303.000000
-18.665781 162.800095 304.000000
-18.665781 163.295456 304.000000
-18.665781 163.790817 304.000000
-18.665781 164.286194 304.000000
-18.665781 164.781555 304.000000
-18.727180 165.820587 305.000000
-18.727180 166.317581 305.000000
-18.727180 166.814575 305.000000
-18.727180 167.311569 305.000000
-18.665781 167.258377 304.000000
-18.665781 167.753738 304.000000
-18.665781 168.249100 304.000000
-18.542980 167.634308 302.000000
-18.542980 168.126404 302.000000
-21.219007 61.113586 355.000000
-21.219007 61.692055 355.000000
-21.219007 62.270523 355.000000
-21.215410 62.838341 354.939819
-21.215410 63.416706 354.939819
-21.207567 63.971420 354.808594
-21.202137 64.533043 354.717743
-21.202137 65.111053 354.717743
-21.185146 65.636429 354.433502
-21.173117 66.176369 354.232239
-21.173117 66.753586 354.232239
-21.162540 67.297173 354.055298
-21.116262 67.725670 353.281036
-21.116262 68.301338 353.281036
-21.099123 68.821098 352.994293
-21.090807 69.368950 352.855164
-21.090807 69.943924 352.855164
-21.083128 70.493217 352.726685
-21.058470 70.984871 352.314178
-21.058470 71.558960 352.314178
-21.098797 72.271187 352.988861
-21.098797 72.846382 352.988861
-21.098797 73.421570 352.988861
-21.055531 73.845009 352.264984
-20.920149 73.940529 350.000000
-20.920149 74.510849 350.000000
-20.860376 74.866653 349.000000
-20.860376 75.435341 349.000000
-20.800604 75.786255 348.000000
-20.800604 76.353317 348.000000
-20.740833 76.699348 347.000000
-20.740833 77.264778 347.000000
-20.740833 77.830208 347.000000
-20.681061 78.169716 346.000000
-20.621288 78.505966 345.000000
-20.621288 79.068138 345.000000
-20.621288 79.630310 345.000000
-20.561516 79.960045 344.000000
-20.561516 80.520592 344.000000
-20.501747 80.845428 343.000000
-20.501747 81.404343 343.000000
-20.501747 81.963257 343.000000
-20.441975 82.281578 342.000000
-20.441975 82.838867 342.000000
-20.441975 83.396149 342.000000
-20.322430 83.462479 340.000000
-20.322430 84.016510 340.000000
-20.322430 84.570534 340.000000
-20.262659 84.874191 339.000000
-20.262659 85.426590 339.000000
-20.262659 85.978981 339.000000
-20.202887 86.276123 338.000000
-20.202887 86.826889 338.000000
-20.202887 87.377655 338.000000
-20.143114 87.668282 337.000000
-20.143114 88.217422 337.000000
-20.143114 88.766556 337.000000
-20.143114 89.315697 337.000000
-20.143114 89.864830 337.000000
-20.143114 90.413971 337.000000
-20.083344 90.693184 336.000000
-20.083344 91.240692 336.000000
-20.083344 91.788200 336.000000
-20.083344 92.335709 336.000000
-20.083344 92.883217 336.000000
-20.083344 93.430725 336.000000
-20.083344 93.978233 336.000000
-20.023571 94.244415 335.000000
-20.023571 94.790291 335.000000
-20.023571 95.336166 335.000000
-19.963799 95.595833 334.000000
-19.904026 95.852242 333.000000
-19.904026 96.394859 333.000000
-19.904026 96.937477 333.000000
-19.844255 97.187363 332.000000
-19.844255 97.728348 332.000000
-19.844255 98.269341 332.000000
-19.784483 98.512711 331.000000
-19.784483 99.052071 331.000000
-19.724710 99.290550 330.000000
-19.724710 99.828285 330.000000
-19.724710 100.366013 330.000000
-19.664938 100.597977 329.000000
-19.664938 101.134079 329.000000
-19.664938 101.670174 329.000000
-19.664938 102.206276 329.000000
-19.605169 102.430092 328.000000
-19.605169 102.964561 328.000000
-19.605169 103.499031 328.000000
-19.545397 103.716331 327.000000
-19.545397 104.249168 327.000000
-19.545397 104.782013 327.000000
-19.485624 104.992798 326.000000
-19.485624 105.524010 326.000000
-19.485624 106.055222 326.000000
-19.425852 106.259483 325.000000
-19.425852 106.789063 325.000000
-19.425852 107.318649 325.000000
-19.366081 107.516388 324.000000
-19.366081 108.044342 324.000000
-19.366081 108.572296 324.000000
-19.366081 109.100250 324.000000
-19.361099 109.600006 323.916656
-19.361099 110.127823 323.916656
-19.361099 110.655647 323.916656
-19.246536 110.525566 322.000000
-19.246536 111.050262 322.000000
-19.126993 110.881958 320.000000
-19.126993 111.403389 320.000000
-19.126993 111.924828 320.000000
-19.067221 112.094864 319.000000
-17.752239 116.947083 297.000000
-17.752239 117.431046 297.000000
-17.812012 118.312019 298.000000
-17.812012 118.797607 298.000000
-17.812012 119.283195 298.000000
-17.812012 119.768784 298.000000
-17.632698 119.043755 295.000000
-17.632698 119.524452 295.000000
-17.692469 120.411949 296.000000
-17.692469 120.894279 296.000000
-17.692469 121.376602 296.000000
-17.632698 121.447243 295.000000
-17.632698 121.927948 295.000000
-17.632698 122.408646 295.000000
-17.632698 122.889343 295.000000
-17.513153 123.965965 293.000000
-17.513153 124.443405 293.000000
-17.513153 124.920845 293.000000
-17.513153 125.398285 293.000000
-17.513153 125.875725 293.000000
-17.513153 126.353165 293.000000
-17.453381 126.397728 292.000000
-17.453381 126.873543 292.000000
-17.453381 127.349350 292.000000
-17.453381 130.680023 292.000000
-17.572926 132.054169 294.000000
-17.572926 132.533234 294.000000
-17.572926 133.012299 294.000000
-17.572926 133.491379 294.000000
-17.572926 133.970444 294.000000
-17.572926 134.449509 294.000000
-17.572926 134.928574 294.000000
-17.572926 135.407654 294.000000
-17.572926 135.886719 294.000000
-17.572926 136.365784 294.000000
-17.572926 136.844864 294.000000
-17.572926 137.323929 294.000000
-17.572926 137.802994 294.000000
-17.572926 138.282059 294.000000
-17.572926 138.761139 294.000000
-17.572926 139.240204 294.000000
-17.572926 139.719269 294.000000
-17.572926 140.198349 294.000000
-17.632698 141.155899 295.000000
-17.632698 141.636597 295.000000
-17.632698 142.117294 295.000000
-17.632698 142.597992 295.000000
-17.632698 143.078690 295.000000
-17.632698 143.559387 295.000000
-17.931555 150.881073 300.000000
-17.931555 151.369919 300.000000
-17.931555 151.858765 300.000000
-17.991327 152.855423 301.000000
-18.051100 153.855362 302.000000
-18.051100 154.347458 302.000000
-18.051100 154.839569 302.000000
-18.110872 155.846024 303.000000
-18.110872 156.339752 303.000000
-18.170643 157.351089 304.000000
-18.170643 157.846451 304.000000
-18.170643 158.341812 304.000000
-18.170643 158.837189 304.000000
-18.170643 159.332550 304.000000
-18.170643 159.827911 304.000000
-18.170643 160.323273 304.000000
-18.170643 160.818634 304.000000
-18.170643 161.314011 304.000000
-18.170643 161.809372 304.000000
-18.051100 161.236938 302.000000
-18.170643 162.800095 304.000000
-18.170643 163.295456 304.000000
-18.170643 163.790817 304.000000
-18.170643 164.286194 304.000000
-18.170643 164.781555 304.000000
-18.230415 165.820587 305.000000
-18.230415 166.317581 305.000000
-18.230415 166.814575 305.000000
-18.230415 167.311569 305.000000
-18.170643 167.258377 304.000000
-18.170643 167.753738 304.000000
-18.170643 168.249100 304.000000
-18.051100 167.634308 302.000000
-18.051100 168.126404 302.000000
-17.931555 167.501846 300.000000
-17.931555 167.990692 300.000000
-17.931555 168.479538 300.000000
-18.110872 178.557816 303.000000
-18.110872 179.051544 303.000000
-18.110872 179.545288 303.000000
-18.110872 180.039017 303.000000
-18.110872 180.532745 303.000000
-18.110872 181.026489 303.000000
-18.110872 181.520218 303.000000
-18.110872 182.013947 303.000000
-18.110872 182.507690 303.000000
-18.110872 183.001419 303.000000
-18.110872 183.495163 303.000000
-18.110872 183.988892 303.000000
-18.051100 183.873779 302.000000
-20.640804 61.113586 355.000000
-20.640804 61.692055 355.000000
-20.640804 62.270523 355.000000
-20.637306 62.838341 354.939819
-20.637306 63.416706 354.939819
-20.629675 63.971420 354.808594
-20.624393 64.533043 354.717743
-20.624393 65.111053 354.717743
-20.607868 65.636429 354.433502
-20.596165 66.176369 354.232239
-20.596165 66.753586 354.232239
-20.585876 67.297173 354.055298
-20.523870 72.271187 352.988861
-20.523870 72.846382 352.988861
-20.523870 73.421570 352.988861
-20.481781 73.845009 352.264984
-19.943089 79.168686 343.000000
-19.943089 79.727600 343.000000
-19.943089 80.286514 343.000000
-19.943089 80.845428 343.000000
-19.943089 81.404343 343.000000
-19.943089 81.963257 343.000000
-19.884945 82.281578 342.000000
-19.826801 82.596649 341.000000
-19.826801 83.152298 341.000000
-19.768658 83.462479 340.000000
-19.768658 84.016510 340.000000
-19.768658 84.570534 340.000000
-19.710516 84.874191 339.000000
-19.710516 85.426590 339.000000
-19.710516 85.978981 339.000000
-19.652372 86.276123 338.000000
-19.652372 86.826889 338.000000
-19.652372 87.377655 338.000000
-19.594229 87.668282 337.000000
-19.594229 88.217422 337.000000
-19.594229 88.766556 337.000000
-19.594229 89.315697 337.000000
-19.594229 89.864830 337.000000
-19.594229 90.413971 337.000000
-19.536085 90.693184 336.000000
-19.536085 91.240692 336.000000
-19.536085 91.788200 336.000000
-19.536085 92.335709 336.000000
-19.536085 92.883217 336.000000
-19.536085 93.430725 336.000000
-19.536085 93.978233 336.000000
-19.477942 94.244415 335.000000
-19.477942 94.790291 335.000000
-19.477942 95.336166 335.000000
-19.361656 95.309616 333.000000
-19.303513 95.564392 332.000000
-19.303513 96.105385 332.000000
-19.303513 96.646370 332.000000
-19.303513 97.187363 332.000000
-19.303513 97.728348 332.000000
-19.245369 97.973351 331.000000
-19.187225 98.215088 330.000000
-19.187225 98.752823 330.000000
-19.187225 99.290550 330.000000
-19.129084 99.525772 329.000000
-19.129084 100.061874 329.000000
-19.129084 100.597977 329.000000
-19.129084 101.134079 329.000000
-19.129084 101.670174 329.000000
-19.070942 101.895622 328.000000
-19.070942 102.430092 328.000000
-19.070942 102.964561 328.000000
-19.012798 103.183487 327.000000
-19.012798 103.716331 327.000000
-19.012798 104.249168 327.000000
-18.954655 104.461586 326.000000
-18.896511 104.670731 325.000000
-18.896511 105.200317 325.000000
-18.896511 105.729897 325.000000
-18.896511 106.259483 325.000000
-18.838369 106.460480 324.000000
-18.838369 106.988434 324.000000
-18.780226 107.184547 323.000000
-18.780226 107.710869 323.000000
-18.780226 108.237198 323.000000
-18.780226 108.763519 323.000000
-18.865654 109.787003 324.469299
-18.865654 110.315720 324.469299
-18.865654 110.844437 324.469299
-18.836744 111.202484 323.972076
-18.836744 111.730392 323.972076
-18.605795 110.881958 320.000000
-18.605795 111.403389 320.000000
-18.605795 111.924828 320.000000
-18.547653 112.094864 319.000000
-17.152218 115.678864 295.000000
-17.268503 116.947083 297.000000
-17.268503 117.431046 297.000000
-17.326647 118.312019 298.000000
-17.326647 118.797607 298.000000
-17.326647 119.283195 298.000000
-17.326647 119.768784 298.000000
-17.152218 119.043755 295.000000
-17.152218 119.524452 295.000000
-17.094076 119.598366 294.000000
-17.094076 120.077431 294.000000
-17.094076 120.556503 294.000000
-17.094076 121.035568 294.000000
-17.152218 121.927948 295.000000
-17.152218 122.408646 295.000000
-17.152218 122.889343 295.000000
-17.035933 123.965965 293.000000
-17.035933 124.443405 293.000000
-17.035933 124.920845 293.000000
-17.035933 125.398285 293.000000
-17.035933 125.875725 293.000000
-17.035933 126.353165 293.000000
-16.977789 126.397728 292.000000
-16.977789 126.873543 292.000000
-16.977789 127.349350 292.000000
-16.977789 127.825165 292.000000
-16.977789 128.300964 292.000000
-16.977789 128.776779 292.000000
-16.977789 129.252594 292.000000
-16.977789 129.728409 292.000000
-16.977789 130.204208 292.000000
-16.977789 130.680023 292.000000
-17.094076 132.054169 294.000000
-17.094076 132.533234 294.000000
-17.094076 133.012299 294.000000
-17.094076 133.491379 294.000000
-17.094076 133.970444 294.000000
-17.094076 134.449509 294.000000
-17.094076 134.928574 294.000000
-17.094076 135.407654 294.000000
-17.094076 135.886719 294.000000
-17.035933 135.901962 293.000000
-17.035933 136.379395 293.000000
-17.035933 136.856842 293.000000
-17.035933 137.334274 293.000000
-17.035933 137.811722 293.000000
-17.035933 138.289154 293.000000
-17.094076 139.240204 294.000000
-17.094076 139.719269 294.000000
-17.094076 140.198349 294.000000
-17.094076 140.677414 294.000000
-17.094076 141.156479 294.000000
-17.094076 141.635544 294.000000
-17.152218 142.597992 295.000000
-17.152218 143.078690 295.000000
-17.152218 143.559387 295.000000
-17.152218 145.962891 295.000000
-17.152218 146.443588 295.000000
-17.210361 147.422333 296.000000
-17.268503 148.404343 297.000000
-17.268503 148.888290 297.000000
-17.442932 150.881073 300.000000
-17.442932 151.369919 300.000000
-17.442932 151.858765 300.000000
-17.501076 152.855423 301.000000
-17.559219 153.855362 302.000000
-17.559219 154.347458 302.000000
-17.559219 154.839569 302.000000
-17.617363 155.846024 303.000000
-17.617363 156.339752 303.000000
-17.617363 156.833481 303.000000
-17.617363 157.327225 303.000000
-17.617363 157.820953 303.000000
-17.617363 158.314697 303.000000
-17.617363 158.808426 303.000000
-17.617363 159.302155 303.000000
-17.617363 159.795898 303.000000
-17.617363 160.289627 303.000000
-17.617363 160.783356 303.000000
-17.617363 161.277100 303.000000
-17.559219 161.236938 302.000000
-17.559219 161.729034 302.000000
-17.559219 162.221146 302.000000
-17.559219 162.713257 302.000000
-17.559219 163.205353 302.000000
-17.559219 163.697464 302.000000
-17.559219 164.189560 302.000000
-17.559219 164.681671 302.000000
-17.559219 165.173782 302.000000
-17.575846 165.822739 302.285950
-17.575846 166.315323 302.285950
-17.575846 166.807877 302.285950
-17.559219 167.142197 302.000000
-17.559219 167.634308 302.000000
-17.559219 168.126404 302.000000
-17.442932 167.501846 300.000000
-17.442932 167.990692 300.000000
-17.442932 168.479538 300.000000
-17.617363 178.557816 303.000000
-17.617363 179.051544 303.000000
-17.617363 179.545288 303.000000
-17.617363 180.039017 303.000000
-17.617363 180.532745 303.000000
-17.617363 181.026489 303.000000
-17.617363 181.520218 303.000000
-17.617363 182.013947 303.000000
-17.617363 182.507690 303.000000
-17.617363 183.001419 303.000000
-17.617363 183.495163 303.000000
-17.617363 183.988892 303.000000
-17.559219 183.873779 302.000000
-20.062601 61.113586 355.000000
-20.062601 61.692055 355.000000
-20.062601 62.270523 355.000000
-20.059200 62.838341 354.939819
-20.059200 63.416706 354.939819
-20.051785 63.971420 354.808594
-20.046650 64.533043 354.717743
-20.046650 65.111053 354.717743
-20.030586 65.636429 354.433502
-20.019213 66.176369 354.232239
-20.019213 66.753586 354.232239
-20.009212 67.297173 354.055298
-19.948942 72.271187 352.988861
-19.948942 72.846382 352.988861
-19.948942 73.421570 352.988861
-19.908033 73.845009 352.264984
-19.271400 80.929680 341.000000
-19.271400 81.485336 341.000000
-19.271400 82.040993 341.000000
-19.271400 82.596649 341.000000
-19.271400 83.152298 341.000000
-19.214886 83.462479 340.000000
-19.158371 83.769402 339.000000
-19.158371 84.321793 339.000000
-19.158371 84.874191 339.000000
-19.158371 85.426590 339.000000
-19.158371 85.978981 339.000000
-19.101858 86.276123 338.000000
-19.045343 86.570007 337.000000
-19.045343 87.119148 337.000000
-19.045343 87.668282 337.000000
-19.045343 88.217422 337.000000
-19.045343 88.766556 337.000000
-18.988829 89.050659 336.000000
-18.988829 89.598167 336.000000
-18.988829 90.145676 336.000000
-18.988829 90.693184 336.000000
-18.988829 91.240692 336.000000
-18.932314 91.515022 335.000000
-18.932314 92.060898 335.000000
-18.932314 92.606773 335.000000
-18.875799 92.874588 334.000000
-18.875799 93.418839 334.000000
-18.875799 93.963081 334.000000
-18.819284 94.224380 333.000000
-18.819284 94.766998 333.000000
-18.819284 95.309616 333.000000
-18.762770 95.564392 332.000000
-18.762770 96.105385 332.000000
-18.762770 96.646370 332.000000
-18.762770 97.187363 332.000000
-18.762770 97.728348 332.000000
-18.706255 97.973351 331.000000
-18.649742 98.215088 330.000000
-18.649742 98.752823 330.000000
-18.649742 99.290550 330.000000
-18.593227 99.525772 329.000000
-18.593227 100.061874 329.000000
-18.593227 100.597977 329.000000
-18.593227 101.134079 329.000000
-18.593227 101.670174 329.000000
-18.536715 101.895622 328.000000
-18.536715 102.430092 328.000000
-18.536715 102.964561 328.000000
-18.480200 103.183487 327.000000
-18.423685 103.399155 326.000000
-18.423685 103.930374 326.000000
-18.367170 104.141151 325.000000
-18.367170 104.670731 325.000000
-18.367170 105.200317 325.000000
-18.367170 105.729897 325.000000
-18.310656 105.932526 324.000000
-18.254141 106.131905 323.000000
-18.254141 106.658226 323.000000
-18.254141 107.184547 323.000000
-18.254141 107.710869 323.000000
-18.254141 108.237198 323.000000
-18.254141 108.763519 323.000000
-18.337177 109.787003 324.469299
-18.337177 110.315720 324.469299
-18.337177 110.844437 324.469299
-18.309078 111.202484 323.972076
-18.309078 111.730392 323.972076
-16.671740 115.678864 295.000000
-16.784767 116.947083 297.000000
-16.784767 117.431046 297.000000
-16.784767 117.915001 297.000000
-16.784767 118.398956 297.000000
-16.784767 118.882919 297.000000
-16.784767 119.366875 297.000000
-16.671740 119.043755 295.000000
-16.671740 119.524452 295.000000
-16.615225 119.598366 294.000000
-16.615225 120.077431 294.000000
-16.615225 120.556503 294.000000
-16.615225 121.035568 294.000000
-16.671740 121.927948 295.000000
-16.671740 122.408646 295.000000
-16.671740 122.889343 295.000000
-16.558710 123.965965 293.000000
-16.558710 124.443405 293.000000
-16.558710 124.920845 293.000000
-16.558710 125.398285 293.000000
-16.558710 125.875725 293.000000
-16.558710 126.353165 293.000000
-16.502197 126.397728 292.000000
-16.502197 126.873543 292.000000
-16.502197 127.349350 292.000000
-16.502197 127.825165 292.000000
-16.502197 128.300964 292.000000
-16.502197 128.776779 292.000000
-16.502197 129.252594 292.000000
-16.502197 129.728409 292.000000
-16.502197 130.204208 292.000000
-16.502197 130.680023 292.000000
-16.615225 132.054169 294.000000
-16.615225 132.533234 294.000000
-16.615225 133.012299 294.000000
-16.615225 133.491379 294.000000
-16.615225 133.970444 294.000000
-16.615225 134.449509 294.000000
-16.615225 134.928574 294.000000
-16.615225 135.407654 294.000000
-16.615225 135.886719 294.000000
-16.558710 135.901962 293.000000
-16.558710 136.379395 293.000000
-16.558710 136.856842 293.000000
-16.558710 137.334274 293.000000
-16.558710 137.811722 293.000000
-16.558710 138.289154 293.000000
-16.615225 139.240204 294.000000
-16.615225 139.719269 294.000000
-16.615225 140.198349 294.000000
-16.615225 140.677414 294.000000
-16.615225 141.156479 294.000000
-16.615225 141.635544 294.000000
-16.671740 142.597992 295.000000
-16.671740 143.078690 295.000000
-16.671740 143.559387 295.000000
-16.671740 145.962891 295.000000
-16.671740 146.443588 295.000000
-16.728254 147.422333 296.000000
-16.784767 148.404343 297.000000
-16.784767 148.888290 297.000000
-16.897797 150.378128 299.000000
-16.954311 151.369919 300.000000
-16.954311 151.858765 300.000000
-16.954311 152.347610 300.000000
-17.010824 153.345901 301.000000
-17.010824 153.836380 301.000000
-17.010824 154.326843 301.000000
-17.067339 155.331665 302.000000
-17.067339 155.823776 302.000000
-17.067339 156.315887 302.000000
-17.067339 156.807983 302.000000
-17.067339 157.300095 302.000000
-17.067339 157.792191 302.000000
-17.067339 158.284302 302.000000
-17.067339 158.776413 302.000000
-17.010824 158.741135 301.000000
-17.010824 159.231613 301.000000
-17.010824 159.722076 301.000000
-17.010824 160.212555 301.000000
-17.010824 160.703033 301.000000
-17.010824 161.193512 301.000000
-17.010824 161.683990 301.000000
-17.010824 162.174469 301.000000
-17.010824 162.664932 301.000000
-17.010824 163.155411 301.000000
-17.010824 163.645889 301.000000
-16.954311 163.591064 300.000000
-16.954311 164.079926 300.000000
-16.954311 164.568771 300.000000
-17.010824 165.607788 301.000000
-17.010824 166.098267 301.000000
-17.010824 166.588745 301.000000
-17.010824 167.079224 301.000000
-17.010824 167.569687 301.000000
-16.954311 167.501846 300.000000
-16.954311 167.990692 300.000000
-16.954311 168.479538 300.000000
-17.010824 175.907776 301.000000
-17.067339 176.984299 302.000000
-17.067339 177.476410 302.000000
-17.123854 178.557816 303.000000
-17.123854 179.051544 303.000000
-17.123854 179.545288 303.000000
-17.123854 180.039017 303.000000
-17.123854 180.532745 303.000000
-17.123854 181.026489 303.000000
-17.123854 181.520218 303.000000
-17.123854 182.013947 303.000000
-17.123854 182.507690 303.000000
-17.123854 183.001419 303.000000
-17.123854 183.495163 303.000000
-17.123854 183.988892 303.000000
-17.067339 183.873779 302.000000
-17.067339 184.365875 302.000000
-17.067339 184.857986 302.000000
-19.484398 61.113586 355.000000
-19.484398 61.692055 355.000000
-19.484398 62.270523 355.000000
-19.481094 62.838341 354.939819
-19.481094 63.416706 354.939819
-19.473892 63.971420 354.808594
-19.467714 64.529099 354.696045
-19.467714 65.107071 354.696045
-19.288265 72.523956 351.426514
-19.288265 73.096603 351.426514
-19.288265 73.669243 351.426514
-18.496456 86.570007 337.000000
-18.496456 87.119148 337.000000
-18.496456 87.668282 337.000000
-18.441570 87.955650 336.000000
-18.441570 88.503159 336.000000
-18.441570 89.050659 336.000000
-18.441570 89.598167 336.000000
-18.441570 90.145676 336.000000
-18.386684 90.423264 335.000000
-18.386684 90.969139 335.000000
-18.331800 91.241837 334.000000
-18.331800 91.786087 334.000000
-18.276915 92.053902 333.000000
-18.276915 92.596519 333.000000
-18.276915 93.139145 333.000000
-18.276915 93.681763 333.000000
-18.222029 93.941422 332.000000
-18.222029 94.482414 332.000000
-18.222029 95.023399 332.000000
-18.167143 95.276543 331.000000
-18.167143 95.815903 331.000000
-18.167143 96.355263 331.000000
-18.167143 96.894630 331.000000
-18.167143 97.433990 331.000000
-18.112257 97.677361 330.000000
-18.112257 98.215088 330.000000
-18.112257 98.752823 330.000000
-18.112257 99.290550 330.000000
-18.057371 99.525772 329.000000
-18.057371 100.061874 329.000000
-18.002487 100.292206 328.000000
-17.947601 100.519272 327.000000
-17.947601 101.052116 327.000000
-17.947601 101.584961 327.000000
-17.947601 102.117805 327.000000
-17.947601 102.650642 327.000000
-17.947601 103.183487 327.000000
-17.892715 103.399155 326.000000
-17.892715 103.930374 326.000000
-17.837830 104.141151 325.000000
-17.837830 104.670731 325.000000
-17.837830 105.200317 325.000000
-17.837830 105.729897 325.000000
-17.782944 105.932526 324.000000
-17.728058 106.131905 323.000000
-17.728058 106.658226 323.000000
-17.728058 107.184547 323.000000
-17.728058 107.710869 323.000000
-17.728058 108.237198 323.000000
-17.728058 108.763519 323.000000
-17.808702 109.787003 324.469299
-17.808702 110.315720 324.469299
-17.808702 110.844437 324.469299
-17.781410 111.202484 323.972076
-17.781410 111.730392 323.972076
-16.191261 115.678864 295.000000
-16.191261 116.159561 295.000000
-16.191261 116.640259 295.000000
-16.191261 117.120956 295.000000
-16.191261 117.601654 295.000000
-16.191261 118.082352 295.000000
-16.191261 118.563049 295.000000
-16.136375 118.640228 294.000000
-16.136375 119.119293 294.000000
-16.136375 119.598366 294.000000
-16.136375 120.077431 294.000000
-16.136375 120.556503 294.000000
-16.136375 121.035568 294.000000
-16.136375 121.514641 294.000000
-16.136375 121.993713 294.000000
-16.026604 123.542870 292.000000
-16.026604 124.018677 292.000000
-16.026604 124.494492 292.000000
-16.026604 124.970299 292.000000
-16.026604 125.446106 292.000000
-16.026604 125.921921 292.000000
-16.026604 126.397728 292.000000
-16.026604 126.873543 292.000000
-16.026604 127.349350 292.000000
-16.026604 127.825165 292.000000
-16.026604 128.300964 292.000000
-16.026604 128.776779 292.000000
-16.026604 129.252594 292.000000
-16.026604 129.728409 292.000000
-16.026604 130.204208 292.000000
-16.026604 130.680023 292.000000
-16.026604 131.155838 292.000000
-16.026604 131.631638 292.000000
-16.026604 132.107452 292.000000
-16.026604 132.583267 292.000000
-16.026604 133.059082 292.000000
-16.026604 133.534882 292.000000
-16.081490 134.469635 293.000000
-16.081490 134.947083 293.000000
-16.081490 135.424515 293.000000
-16.081490 135.901962 293.000000
-16.081490 136.379395 293.000000
-16.081490 136.856842 293.000000
-16.081490 137.334274 293.000000
-16.081490 137.811722 293.000000
-16.081490 138.289154 293.000000
-16.081490 138.766602 293.000000
-16.081490 139.244034 293.000000
-16.136375 140.198349 294.000000
-16.136375 140.677414 294.000000
-16.136375 141.156479 294.000000
-16.136375 141.635544 294.000000
-16.136375 142.114624 294.000000
-16.136375 142.593689 294.000000
-16.136375 143.072754 294.000000
-16.136375 143.551834 294.000000
-16.136375 144.030899 294.000000
-16.136375 144.509964 294.000000
-16.191261 145.482178 295.000000
-16.191261 145.962891 295.000000
-16.191261 146.443588 295.000000
-16.246147 147.422333 296.000000
-16.301031 148.404343 297.000000
-16.301031 148.888290 297.000000
-16.355917 149.875198 298.000000
-16.410803 150.865341 299.000000
-16.410803 151.352570 299.000000
-16.410803 151.839783 299.000000
-16.465689 152.836456 300.000000
-16.465689 153.325302 300.000000
-16.465689 153.814148 300.000000
-16.465689 154.302994 300.000000
-16.465689 154.791840 300.000000
-16.520575 155.798279 301.000000
-16.520575 156.288757 301.000000
-16.520575 156.779236 301.000000
-16.520575 157.269699 301.000000
-16.520575 157.760178 301.000000
-16.520575 158.250656 301.000000
-16.465689 158.213760 300.000000
-16.520575 159.231613 301.000000
-16.520575 159.722076 301.000000
-16.520575 160.212555 301.000000
-16.465689 160.169144 300.000000
-16.465689 160.657990 300.000000
-16.465689 161.146835 300.000000
-16.465689 161.635681 300.000000
-16.465689 162.124527 300.000000
-16.465689 162.613373 300.000000
-16.465689 163.102219 300.000000
-16.465689 163.591064 300.000000
-16.465689 164.079926 300.000000
-16.465689 164.568771 300.000000
-16.465689 165.057617 300.000000
-16.465689 165.546463 300.000000
-16.465689 166.035309 300.000000
-16.465689 166.524155 300.000000
-16.465689 167.013000 300.000000
-16.465689 167.501846 300.000000
-16.465689 167.990692 300.000000
-16.465689 168.479538 300.000000
-16.410803 168.405151 299.000000
-16.410803 168.892365 299.000000
-16.410803 169.379578 299.000000
-16.355917 173.668961 298.000000
-16.520575 175.907776 301.000000
-16.575460 176.984299 302.000000
-16.575460 177.476410 302.000000
-16.575460 177.968506 302.000000
-16.630344 179.051544 303.000000
-16.630344 179.545288 303.000000
-16.630344 180.039017 303.000000
-16.630344 180.532745 303.000000
-16.630344 181.026489 303.000000
-16.630344 181.520218 303.000000
-16.630344 182.013947 303.000000
-16.630344 182.507690 303.000000
-16.630344 183.001419 303.000000
-16.575460 182.889557 302.000000
-16.575460 183.381668 302.000000
-16.575460 183.873779 302.000000
-16.575460 184.365875 302.000000
-16.575460 184.857986 302.000000
-19.918076 39.397900 374.000000
-19.918076 40.007328 374.000000
-19.918076 40.616756 374.000000
-19.918076 41.226181 374.000000
-19.918076 41.835609 374.000000
-19.904762 42.416668 373.750000
-19.901432 43.018490 373.687500
-18.707500 72.491478 351.269165
-18.707500 73.063873 351.269165
-18.707500 73.636261 351.269165
-18.593950 75.464958 349.137024
-18.593950 76.033875 349.137024
-18.593950 76.602783 349.137024
-17.947571 86.570007 337.000000
-17.947571 87.119148 337.000000
-17.947571 87.668282 337.000000
-17.894314 87.955650 336.000000
-17.894314 88.503159 336.000000
-17.894314 89.050659 336.000000
-17.894314 89.598167 336.000000
-17.894314 90.145676 336.000000
-17.787800 90.153343 334.000000
-17.734543 90.426048 333.000000
-17.734543 90.968666 333.000000
-17.734543 91.511284 333.000000
-17.734543 92.053902 333.000000
-17.681286 92.318451 332.000000
-17.681286 92.859444 332.000000
-17.681286 93.400436 332.000000
-17.628029 93.658463 331.000000
-17.628029 94.197823 331.000000
-17.574772 94.450974 330.000000
-17.574772 94.988708 330.000000
-17.574772 95.526436 330.000000
-17.574772 96.064171 330.000000
-17.521515 96.309166 329.000000
-17.521515 96.845268 329.000000
-17.521515 97.381363 329.000000
-17.521515 97.917465 329.000000
-17.521515 98.453568 329.000000
-17.521515 98.989670 329.000000
-17.468260 99.223259 328.000000
-17.468260 99.757729 328.000000
