-15.306016 123.983353 296.466522
-15.306016 124.466446 296.466522
-15.306016 124.949524 296.466522
-15.245940 124.940292 295.302887
-15.245940 125.421486 295.302887
-15.232696 125.793304 295.046356
-15.219425 126.164063 294.789307
-15.219425 126.644417 294.789307
-15.178881 126.786118 294.003998
-15.136361 126.908691 293.180420
-15.136361 127.386436 293.180420
-15.097324 127.534386 292.424286
-15.080591 127.869019 292.100189
-15.080591 128.344986 292.100189
-15.059075 128.637161 291.683441
-15.057210 129.096466 291.647308
-14.972162 128.839844 290.000000
-14.972162 129.312393 290.000000
-14.972162 129.784958 290.000000
-14.972162 130.257507 290.000000
-14.972162 130.730057 290.000000
-15.023790 131.655029 291.000000
-15.023790 132.129211 291.000000
-15.023790 132.603394 291.000000
-15.075418 133.534882 292.000000
-15.075418 134.010696 292.000000
-15.075418 134.486511 292.000000
-15.075418 134.962311 292.000000
-15.075418 135.438126 292.000000
-15.075418 135.913940 292.000000
-15.127047 136.856842 293.000000
-15.127047 137.334274 293.000000
-15.127047 137.811722 293.000000
-15.127047 138.289154 293.000000
-15.127047 138.766602 293.000000
-15.127047 139.244034 293.000000
-15.178676 140.198349 294.000000
-15.178676 140.677414 294.000000
-15.178676 141.156479 294.000000
-15.178676 141.635544 294.000000
-15.178676 142.114624 294.000000
-15.178676 142.593689 294.000000
-15.178676 143.072754 294.000000
-15.178676 143.551834 294.000000
-15.178676 144.030899 294.000000
-15.178676 144.509964 294.000000
-15.178676 144.989029 294.000000
-15.230304 145.962891 295.000000
-15.230304 146.443588 295.000000
-15.281932 147.422333 296.000000
-15.281932 147.904663 296.000000
-15.281932 148.386993 296.000000
-15.333558 149.372253 297.000000
-15.333558 149.856216 297.000000
-15.333558 150.340164 297.000000
-15.366749 151.150589 297.642853
-15.436815 152.326996 299.000000
-15.436815 152.814209 299.000000
-15.488443 153.814148 300.000000
-15.488443 154.302994 300.000000
-15.488443 154.791840 300.000000
-15.488443 155.280685 300.000000
-15.643328 157.327225 303.000000
-15.643328 157.820953 303.000000
-15.643328 158.314697 303.000000
-15.643328 158.808426 303.000000
-15.643328 159.302155 303.000000
-15.643328 159.795898 303.000000
-15.746584 161.347656 305.000000
-15.746584 161.844650 305.000000
-15.746584 162.341644 305.000000
-15.798213 163.372528 306.000000
-15.798213 163.871155 306.000000
-15.798213 164.369781 306.000000
-15.798213 164.868393 306.000000
-15.798213 165.367020 306.000000
-15.798213 165.865646 306.000000
-17.624788 46.323353 352.500000
-17.624788 46.897747 352.500000
-17.624788 47.472141 352.500000
-17.617647 48.027065 352.357147
-17.617647 48.601227 352.357147
-17.605146 49.140499 352.107147
-17.599611 49.698620 351.996429
-17.599611 50.272194 351.996429
-17.595459 50.833775 351.913391
-17.649790 51.565941 353.000000
-17.649790 52.141151 353.000000
-17.649790 52.716362 353.000000
-17.649790 53.291569 353.000000
-17.649790 53.866779 353.000000
-17.599791 54.287758 352.000000
-17.599791 54.861340 352.000000
-17.599791 55.434917 352.000000
-17.549791 55.849388 351.000000
-17.549791 56.421337 351.000000
-17.549791 56.993286 351.000000
-17.581053 57.667774 351.625244
-17.582413 58.245255 351.652466
-17.582413 58.818268 351.652466
-17.582413 59.391281 351.652466
-17.581692 59.961830 351.638031
-17.579168 60.526131 351.587555
-17.579168 61.099041 351.587555
-17.571590 61.645367 351.436005
-17.564962 62.194553 351.303436
-17.564962 62.766998 351.303436
-17.564962 63.339447 351.303436
-17.561800 63.900379 351.240173
-17.561800 64.472725 351.240173
-17.517962 64.882698 350.363403
-17.459471 65.235062 349.193573
-17.459471 65.804070 349.193573
-17.435434 66.281700 348.712830
-17.406752 66.739952 348.139160
-17.406752 67.307236 348.139160
-17.238260 67.217529 344.769318
-17.155350 67.453339 343.111115
-17.155350 68.012428 343.111115
-17.138777 68.505280 342.779633
-17.114721 68.966896 342.298492
-17.114721 69.524666 342.298492
-17.073345 69.913010 341.470978
-17.036505 70.317368 340.734161
-17.036505 70.872589 340.734161
-16.993589 71.247887 339.875854
-16.993589 71.801712 339.875854
-16.993589 72.355537 339.875854
-16.928627 72.630653 338.576599
-16.853214 72.856339 337.068298
-16.853214 73.405586 337.068298
-16.812197 73.774841 336.247925
-16.809944 74.312798 336.202881
-16.802696 74.828354 336.057922
-16.802696 75.375961 336.057922
-16.742235 75.650368 334.848694
-16.742994 76.199448 334.863861
-16.742994 76.745102 334.863861
-16.742994 77.290764 334.863861
-16.713642 77.699966 334.276825
-16.713642 78.244667 334.276825
-16.496048 77.763626 329.924927
-16.395203 77.822540 327.907959
-16.395203 78.356865 327.907959
-16.298861 78.427605 325.981110
-16.226273 78.607140 324.529327
-16.226273 79.135956 324.529327
-16.211899 79.594208 324.241852
-16.180912 79.969414 323.622131
-16.180912 80.496750 323.622131
-16.447590 82.359444 328.955750
-16.516682 83.243698 330.337585
-16.516682 83.781975 330.337585
-16.516682 84.320251 330.337585
-15.711530 80.721870 314.234344
-15.711530 81.233910 314.234344
-15.711530 81.745949 314.234344
-16.210787 84.871864 324.219604
-16.210787 85.400169 324.219604
-16.774181 88.914871 335.487640
-16.774181 89.461540 335.487640
-16.860142 90.469460 337.206848
-16.860142 91.018936 337.206848
-18.021278 97.874619 360.429871
-18.890223 103.209541 377.808960
-18.890223 103.825172 377.808960
-18.890223 104.440811 377.808960
-18.987690 105.598503 379.758331
-18.987690 106.217316 379.758331
-19.179724 107.916618 383.599060
-19.179724 108.541695 383.599060
-19.179724 109.166763 383.599060
-19.227690 110.066399 384.558380
-19.227690 110.693039 384.558380
-19.227690 111.319664 384.558380
-18.984627 110.531158 379.697052
-18.746340 109.754761 374.931274
-18.746340 110.365715 374.931274
-18.901432 111.894798 378.033173
-19.004301 113.123108 380.090546
-19.013214 113.795807 380.268829
-19.013214 114.415459 380.268829
-19.071796 115.389534 381.440491
-19.095724 116.156647 381.919037
-19.095724 116.778969 381.919037
-19.109253 117.484482 382.189636
-19.112427 118.126862 382.253082
-19.112427 118.749741 382.253082
-19.112427 119.372612 382.253082
-19.101954 119.929733 382.043610
-19.101954 120.552277 382.043610
-19.123726 121.312927 382.479065
-19.123726 121.936165 382.479065
-19.123726 122.559410 382.479065
-19.098644 123.021103 381.977448
-19.098644 123.643524 381.977448
-19.098644 124.265953 381.977448
-19.115385 124.997849 382.312256
-19.115385 125.620819 382.312256
-19.115385 126.243797 382.312256
-19.063913 126.525177 381.282837
-19.086662 127.298172 381.737793
-19.086662 127.920219 381.737793
-19.086662 128.542252 381.737793
-19.084085 129.146851 381.686279
-19.084085 129.768814 381.686279
-19.083185 130.384613 381.668274
-19.061485 130.857559 381.234253
-19.061485 131.478775 381.234253
-19.040340 131.953461 380.811340
-19.040340 132.573990 380.811340
-19.034510 133.153732 380.694733
-19.034510 133.774063 380.694733
-19.028902 134.354813 380.582581
-19.023073 134.933609 380.466003
-19.023073 135.553574 380.466003
-18.439024 131.992722 368.784882
-18.321590 131.749176 366.436157
-18.321590 132.346283 366.436157
-18.000210 130.611435 360.008484
-17.686926 128.914627 353.742737
-17.686926 129.491043 353.742737
-17.482924 128.567245 349.662628
-17.354681 128.189774 347.097748
-17.354681 128.755356 347.097748
-17.540413 130.704956 350.812439
-17.540413 131.276611 350.812439
-17.540413 131.848251 350.812439
-17.144405 129.430267 342.892212
-17.760689 134.661682 355.218018
-17.760689 135.240494 355.218018
-17.760689 135.819321 355.218018
-17.648302 135.535034 352.970245
-17.648302 136.110199 352.970245
-16.409481 127.090744 328.193542
-16.409481 127.625534 328.193542
-16.409481 128.160309 328.193542
-16.313618 127.943283 326.276276
-16.181812 127.436920 323.640106
-16.181812 127.964294 323.640106
-15.867273 125.994064 317.349243
-14.730028 117.443840 294.604095
-14.730028 117.923889 294.604095
-15.513988 124.705612 310.283447
-15.513988 125.211212 310.283447
-15.513988 125.716805 310.283447
-15.437287 125.598381 308.749420
-15.321548 125.156052 306.434601
-15.321548 125.655388 306.434601
-15.151179 124.751938 303.027191
-15.069443 124.570045 301.392456
-15.069443 125.061165 301.392456
-14.712439 122.577866 294.252289
-14.618512 122.271729 292.373718
-14.618512 122.748146 292.373718
-14.764969 124.459099 295.302887
-14.807668 125.301605 296.156891
-14.807668 125.784203 296.156891
-14.807668 126.266785 296.156891
-14.754538 126.294586 295.094269
-14.754538 126.775444 295.094269
-14.695807 126.749748 293.919647
-14.653446 126.861946 293.072418
-14.653446 127.339500 293.072418
-14.621039 127.534386 292.424286
-14.604835 127.869019 292.100189
-14.604835 128.344986 292.100189
-14.583999 128.637161 291.683441
-14.582191 129.096466 291.647308
-14.499827 128.839844 290.000000
-14.499827 129.312393 290.000000
-14.499827 129.784958 290.000000
-14.499827 130.257507 290.000000
-14.499827 130.730057 290.000000
-14.549827 131.655029 291.000000
-14.549827 132.129211 291.000000
-14.549827 132.603394 291.000000
-14.599826 133.534882 292.000000
-14.599826 134.010696 292.000000
-14.599826 134.486511 292.000000
-14.599826 134.962311 292.000000
-14.599826 135.438126 292.000000
-14.599826 135.913940 292.000000
-14.649826 136.856842 293.000000
-14.649826 137.334274 293.000000
-14.649826 137.811722 293.000000
-14.649826 138.289154 293.000000
-14.649826 138.766602 293.000000
-14.649826 139.244034 293.000000
-14.699825 140.198349 294.000000
-14.699825 140.677414 294.000000
-14.699825 141.156479 294.000000
-14.699825 141.635544 294.000000
-14.699825 142.114624 294.000000
-14.699825 142.593689 294.000000
-14.699825 143.072754 294.000000
-14.699825 143.551834 294.000000
-14.699825 144.030899 294.000000
-14.699825 144.509964 294.000000
-14.699825 144.989029 294.000000
-14.749825 145.962891 295.000000
-14.749825 146.443588 295.000000
-14.749825 146.924286 295.000000
-14.799825 147.904663 296.000000
-14.799825 148.386993 296.000000
-14.849822 149.372253 297.000000
-14.849822 149.856216 297.000000
-14.849822 150.340164 297.000000
-14.881965 151.150589 297.642853
-14.949821 152.326996 299.000000
-14.949821 152.814209 299.000000
-14.999821 153.814148 300.000000
-14.999821 154.302994 300.000000
-14.999821 154.791840 300.000000
-14.999821 155.280685 300.000000
-15.099820 156.807983 302.000000
-15.099820 157.300095 302.000000
-15.149819 158.314697 303.000000
-15.149819 158.808426 303.000000
-15.149819 159.302155 303.000000
-15.149819 159.795898 303.000000
-15.249818 161.347656 305.000000
-15.249818 161.844650 305.000000
-15.249818 162.341644 305.000000
-15.299818 163.372528 306.000000
-15.299818 163.871155 306.000000
-15.299818 164.369781 306.000000
-15.299818 164.868393 306.000000
-15.299818 165.367020 306.000000
-15.299818 165.865646 306.000000
-15.249818 170.790527 305.000000
-15.249818 171.287521 305.000000
-15.249818 171.784515 305.000000
-17.014380 46.224796 351.750000
-17.014380 46.797966 351.750000
-17.014380 47.371140 351.750000
-16.990196 47.876160 351.250000
-16.990196 48.448517 351.250000
-16.987778 49.013897 351.200012
-16.986393 49.582138 351.171417
-16.986393 50.154366 351.171417
-16.986393 50.726593 351.171417
-16.986393 51.298824 351.171417
-16.986393 51.871056 351.171417
-16.986393 52.443283 351.171417
-17.069118 53.273701 352.881622
-17.069118 53.848713 352.881622
-17.069118 54.423733 352.881622
-17.063459 54.980507 352.764618
-17.063459 55.555336 352.764618
-17.053785 56.098343 352.564636
-17.049387 56.658230 352.473724
-17.049387 57.232578 352.473724
-17.042274 57.782818 352.326691
-17.040945 58.352375 352.299194
-17.039282 58.920692 352.264801
-17.039282 59.494698 352.264801
-17.049370 60.104271 352.473358
-17.049370 60.678627 352.473358
-17.049370 61.252975 352.473358
-17.049370 61.827328 352.473358
-17.049370 62.401676 352.473358
-17.049370 62.976025 352.473358
-17.047396 63.543026 352.432556
-16.989719 63.900379 351.240173
-16.989719 64.472725 351.240173
-16.971062 64.973633 350.854462
-16.910460 65.311295 349.601593
-16.910460 65.880966 349.601593
-16.884947 66.350372 349.074097
-16.855995 66.804451 348.475616
-16.855995 67.372284 348.475616
-16.676720 67.217529 344.769318
-16.596512 67.453339 343.111115
-16.596512 68.012428 343.111115
-16.580479 68.505280 342.779633
-16.557205 68.966896 342.298492
-16.557205 69.524666 342.298492
-16.517178 69.913010 341.470978
-16.481537 70.317368 340.734161
-16.481537 70.872589 340.734161
-16.440020 71.247887 339.875854
-16.440020 71.801712 339.875854
-16.440020 72.355537 339.875854
-16.377174 72.630653 338.576599
-16.304216 72.856339 337.068298
-16.304216 73.405586 337.068298
-16.264536 73.774841 336.247925
-16.262356 74.312798 336.202881
-16.255342 74.828354 336.057922
-16.255342 75.375961 336.057922
-16.161760 75.486458 334.123199
-16.128338 75.873688 333.432251
-16.128338 76.417007 333.432251
-16.026548 76.474617 331.327881
-15.994884 76.862350 330.673279
-15.994884 77.401184 330.673279
-15.919600 77.573158 329.116852
-15.821939 77.630272 327.097839
-15.821939 78.163284 327.097839
-15.726979 78.223961 325.134674
-15.638025 78.308319 323.295654
-15.638025 78.835129 323.295654
-15.604620 79.192406 322.605042
-15.570084 79.541649 321.891052
-15.570084 80.066170 321.891052
-15.773082 81.641403 326.087769
-15.815922 82.395943 326.973450
-15.815922 82.928749 326.973450
-15.815922 83.461548 326.973450
-14.366086 76.294632 297.000000
-14.366086 76.778595 297.000000
-14.366086 77.262550 297.000000
-14.366086 77.746506 297.000000
-14.366086 78.230469 297.000000
-14.366086 78.714424 297.000000
-14.366086 79.198380 297.000000
-16.310919 90.469460 337.206848
-16.310919 91.018936 337.206848
-17.434231 97.874619 360.429871
-17.434231 98.461929 360.429871
-17.434231 99.049248 360.429871
-18.315474 104.672867 378.648407
-18.315474 105.289864 378.648407
-18.315474 105.906868 378.648407
-18.554941 107.916618 383.599060
-18.554941 108.541695 383.599060
-18.554941 109.166763 383.599060
-18.601343 110.066399 384.558380
-18.601343 110.693039 384.558380
-18.601343 111.319664 384.558380
-17.966824 108.127640 371.440491
-18.081270 109.425522 373.806549
-18.081270 110.034637 373.806549
-18.249180 111.671211 377.277832
-18.352467 112.921524 379.413208
-18.360933 113.592140 379.588196
-18.360933 114.210670 379.588196
-18.424162 115.224640 380.895386
-18.450060 116.008141 381.430786
-18.450060 116.629677 381.430786
-18.464985 117.346069 381.739349
-18.467119 117.981735 381.783447
-18.467119 118.603844 381.783447
-18.467119 119.225960 381.783447
-18.446339 119.713219 381.353851
-18.446339 120.334625 381.353851
-18.362284 120.404884 379.616150
-18.475220 121.767799 381.950928
-18.475220 122.390182 381.950928
-18.476501 123.021103 381.977448
-18.476501 123.643524 381.977448
-18.476501 124.265953 381.977448
-18.468704 124.835686 381.816254
-18.465425 125.435585 381.748474
-18.465425 126.057625 381.748474
-18.437603 126.488800 381.173248
-18.437603 127.109917 381.173248
-18.437603 127.731033 381.173248
-18.434864 128.333084 381.116638
-18.431639 128.931564 381.049957
-18.431639 129.552475 381.049957
-18.440554 130.236343 381.234253
-18.440554 130.857559 381.234253
-18.440554 131.478775 381.234253
-18.420097 131.953461 380.811340
-18.420097 132.573990 380.811340
-18.414457 133.153732 380.694733
-18.414457 133.774063 380.694733
-18.409031 134.354813 380.582581
-18.403393 134.933609 380.466003
-18.403393 135.553574 380.466003
-18.269394 135.182022 377.695740
-17.724760 131.749176 366.436157
-17.724760 132.346283 366.436157
-17.369532 130.279022 359.092285
-17.117662 128.966553 353.885223
-17.117662 129.543198 353.885223
-16.911375 128.551758 349.620483
-16.835941 128.545502 348.061005
-16.835941 129.112671 348.061005
-16.723021 128.810059 345.726532
-16.686728 129.092636 344.976196
-16.686728 129.654770 344.976196
-16.585924 129.430267 342.892212
-17.182131 134.661682 355.218018
-17.182131 135.240494 355.218018
-17.182131 135.819321 355.218018
-17.073404 135.535034 352.970245
-17.073404 136.110199 352.970245
-15.869271 127.045372 328.076385
-15.740012 126.540794 325.404114
-15.740012 127.071037 325.404114
-15.636623 126.763130 323.266693
-15.498049 126.161827 320.401825
-15.498049 126.683907 320.401825
-15.350393 125.994064 317.349243
-15.157176 124.918770 313.354736
-15.157176 125.429382 313.354736
-15.069454 125.211105 311.541199
-15.053971 125.589607 311.221130
-15.053971 126.096733 311.221130
-14.970836 125.904686 309.502380
-14.904044 125.845055 308.121582
-14.904044 126.347137 308.121582
-14.821011 126.142509 306.404968
-14.578552 124.570045 301.392456
-14.578552 125.061165 301.392456
-14.244074 122.671707 294.477539
-14.144117 122.287346 292.411072
-14.144117 122.763817 292.411072
-14.147014 123.265533 292.470947
-14.325305 125.301605 296.156891
-14.325305 125.784203 296.156891
-14.325305 126.266785 296.156891
-14.273905 126.294586 295.094269
-14.273905 126.775444 295.094269
-14.172152 126.349113 292.990631
-14.172152 126.826538 292.990631
-14.172152 127.303970 292.990631
-14.166455 127.730042 292.872894
-14.136572 127.936821 292.255066
-14.136572 128.413040 292.255066
-14.103784 128.590332 291.577240
-14.101092 129.040833 291.521606
-14.095531 129.464767 291.406616
-14.095531 129.939606 291.406616
-14.027493 129.784958 290.000000
-14.027493 130.257507 290.000000
-14.027493 130.730057 290.000000
-14.075863 131.655029 291.000000
-14.075863 132.129211 291.000000
-14.075863 132.603394 291.000000
-14.124233 133.534882 292.000000
-14.124233 134.010696 292.000000
-14.124233 134.486511 292.000000
-14.124233 134.962311 292.000000
-14.124233 135.438126 292.000000
-14.124233 135.913940 292.000000
-14.172605 136.856842 293.000000
-14.172605 137.334274 293.000000
-14.172605 137.811722 293.000000
-14.172605 138.289154 293.000000
-14.172605 138.766602 293.000000
-14.172605 139.244034 293.000000
-14.220975 140.198349 294.000000
-14.220975 140.677414 294.000000
-14.220975 141.156479 294.000000
-14.220975 141.635544 294.000000
-14.220975 142.114624 294.000000
-14.220975 142.593689 294.000000
-14.220975 143.072754 294.000000
-14.220975 143.551834 294.000000
-14.220975 144.030899 294.000000
-14.220975 144.509964 294.000000
-14.220975 144.989029 294.000000
-14.269346 145.962891 295.000000
-14.269346 146.443588 295.000000
-14.269346 146.924286 295.000000
-14.317717 147.904663 296.000000
-14.317717 148.386993 296.000000
-14.366086 149.372253 297.000000
-14.366086 149.856216 297.000000
-14.366086 150.340164 297.000000
-14.366086 150.824127 297.000000
-14.462828 152.326996 299.000000
-14.462828 152.814209 299.000000
-14.511198 153.814148 300.000000
-14.511198 154.302994 300.000000
-14.511198 154.791840 300.000000
-14.511198 155.280685 300.000000
-14.607940 156.807983 302.000000
-14.607940 157.300095 302.000000
-14.656310 158.314697 303.000000
-14.656310 158.808426 303.000000
-14.656310 159.302155 303.000000
-14.656310 159.795898 303.000000
-14.656310 160.289627 303.000000
-14.704681 161.314011 304.000000
-14.704681 161.809372 304.000000
-14.753052 162.838623 305.000000
-14.753052 163.335617 305.000000
-14.753052 163.832611 305.000000
-14.753052 164.329605 305.000000
-14.753052 164.826599 305.000000
-14.753052 165.323593 305.000000
-15.381870 176.515594 318.000000
-15.381870 177.033768 318.000000
-15.381870 177.551941 318.000000
-15.381870 178.070129 318.000000
-15.381870 178.588303 318.000000
-14.753052 171.784515 305.000000
-16.441469 46.224796 351.750000
-16.441469 46.797966 351.750000
-16.441469 47.371140 351.750000
-16.418100 47.876160 351.250000
-16.418100 48.448517 351.250000
-16.415764 49.013897 351.200012
-16.414425 49.582138 351.171417
-16.414425 50.154366 351.171417
-16.414425 50.726593 351.171417
-16.414425 51.298824 351.171417
-16.414425 51.871056 351.171417
-16.414425 52.443283 351.171417
-16.494364 53.273701 352.881622
-16.494364 53.848713 352.881622
-16.494364 54.423733 352.881622
-16.488895 54.980507 352.764618
-16.488895 55.555336 352.764618
-16.479548 56.098343 352.564636
-16.475298 56.658230 352.473724
-16.475298 57.232578 352.473724
-16.468426 57.782818 352.326691
-16.467140 58.352375 352.299194
-16.465534 58.920692 352.264801
-16.465534 59.494698 352.264801
-16.475283 60.104271 352.473358
-16.475283 60.678627 352.473358
-16.475283 61.252975 352.473358
-16.475283 61.827328 352.473358
-16.475283 62.401676 352.473358
-16.475283 62.976025 352.473358
-16.473375 63.543026 352.432556
-16.417641 63.900379 351.240173
-16.417641 64.472725 351.240173
-16.399611 64.973633 350.854462
-16.341049 65.311295 349.601593
-16.341049 65.880966 349.601593
-16.316395 66.350372 349.074097
-16.288420 66.804451 348.475616
-16.288420 67.372284 348.475616
-16.057568 66.977219 343.536743
-16.012659 67.348129 342.575989
-16.012659 67.906349 342.575989
-15.994663 68.387627 342.190979
-15.968292 68.831551 341.626770
-15.968292 69.388222 341.626770
-15.924028 69.751022 340.679810
-15.884261 70.130577 339.829010
-15.884261 70.684326 339.829010
-15.886450 71.247887 339.875854
-15.886450 71.801712 339.875854
-15.886450 72.355537 339.875854
-15.825720 72.630653 338.576599
-15.755219 72.856339 337.068298
-15.755219 73.405586 337.068298
-15.716874 73.774841 336.247925
-15.714768 74.312798 336.202881
-15.707993 74.828354 336.057922
-15.707993 75.375961 336.057922
-15.617560 75.486458 334.123199
-15.585264 75.873688 333.432251
-15.585264 76.417007 333.432251
-15.486902 76.474617 331.327881
-15.456305 76.862350 330.673279
-15.456305 77.401184 330.673279
-15.383554 77.573158 329.116852
-15.073033 76.532791 322.473541
-15.073033 77.058250 322.473541
-14.955176 76.977097 319.952118
-14.850719 76.957146 317.717346
-14.850719 77.474869 317.717346
-14.820682 77.834839 317.074738
-14.788221 78.179893 316.380249
-14.788221 78.695427 316.380249
-15.098737 80.874207 323.023468
-15.138871 81.616943 323.882111
-15.138871 82.144707 323.882111
-15.138871 82.672470 323.882111
-13.882350 76.294632 297.000000
-13.882350 76.778595 297.000000
-13.882350 77.262550 297.000000
-13.882350 77.746506 297.000000
-13.882350 78.230469 297.000000
-13.882350 78.714424 297.000000
-13.882350 79.198380 297.000000
-15.547524 89.240158 332.624878
-15.547524 89.782166 332.624878
-16.752594 97.325089 358.406189
-17.213766 100.604385 368.272522
-17.213766 101.204475 368.272522
-17.698753 104.672867 378.648407
-17.698753 105.289864 378.648407
-17.698753 105.906868 378.648407
-17.930157 107.916618 383.599060
-17.930157 108.541695 383.599060
-17.930157 109.166763 383.599060
-17.974997 110.066399 384.558380
-17.974997 110.693039 384.558380
-17.974997 111.319664 384.558380
-17.210320 107.183975 368.198792
-17.266178 108.133774 369.393860
-17.266178 108.735703 369.393860
-17.443256 110.458961 373.182281
-17.734501 112.921524 379.413208
-17.742682 113.592140 379.588196
-17.742682 114.210670 379.588196
-17.803782 115.224640 380.895386
-17.828808 116.008141 381.430786
-17.828808 116.629677 381.430786
-17.843229 117.346069 381.739349
-17.845291 117.981735 381.783447
-17.845291 118.603844 381.783447
-17.845291 119.225960 381.783447
-17.825212 119.713219 381.353851
-17.825212 120.334625 381.353851
-17.743988 120.404884 379.616150
-17.853119 121.767799 381.950928
-17.853119 122.390182 381.950928
-17.854359 123.021103 381.977448
-17.854359 123.643524 381.977448
-17.854359 124.265953 381.977448
-17.846825 124.835686 381.816254
-17.843658 125.435585 381.748474
-17.843658 126.057625 381.748474
-17.816769 126.488800 381.173248
-17.816769 127.109917 381.173248
-17.816769 127.731033 381.173248
-17.814123 128.333084 381.116638
-17.811007 128.931564 381.049957
-17.811007 129.552475 381.049957
-17.819620 130.236343 381.234253
-17.819620 130.857559 381.234253
-17.819620 131.478775 381.234253
-17.799852 131.953461 380.811340
-17.799852 132.573990 380.811340
-17.794403 133.153732 380.694733
-17.794403 133.774063 380.694733
-17.789162 134.354813 380.582581
-17.783712 134.933609 380.466003
-17.783712 135.553574 380.466003
-17.680305 135.381729 378.253693
-17.674150 135.950760 378.122040
-17.674150 136.566910 378.122040
-17.667063 137.128052 377.970428
-16.541275 128.966553 353.885223
-16.541275 129.543198 353.885223
-16.422501 129.185547 351.344177
-16.313267 128.894958 349.007202
-16.313267 129.463669 349.007202
-16.197256 129.107651 346.525269
-16.165237 129.415970 345.840240
-16.165237 129.979507 345.840240
-16.067812 129.756302 343.755920
-16.603573 134.661682 355.218018
-16.603573 135.240494 355.218018
-16.603573 135.819321 355.218018
-16.498508 135.535034 352.970245
-16.498508 136.110199 352.970245
-15.304262 126.791382 327.420471
-15.263090 126.982376 326.539642
-15.263090 127.514465 326.539642
-15.110043 126.762596 323.265320
-14.913248 125.631531 319.055084
-14.913248 126.151421 319.055084
-14.820848 125.886482 317.078278
-14.646802 124.918770 313.354736
-14.646802 125.429382 313.354736
-14.562035 125.211105 311.541199
-14.547073 125.589607 311.221130
-14.547073 126.096733 311.221130
-14.466736 125.904686 309.502380
-14.469190 126.430450 309.554871
-14.469190 126.934860 309.554871
-14.469190 127.439278 309.554871
-14.369073 127.058411 307.412964
-14.369073 127.559341 307.412964
-13.764445 122.671707 294.477539
-13.674451 122.346367 292.552185
-13.674451 122.823067 292.552185
-13.677529 123.327538 292.618042
-14.002862 126.749168 299.578247
-14.002862 127.237320 299.578247
-14.002862 127.725479 299.578247
-13.793273 126.294586 295.094269
-13.793273 126.775444 295.094269
-13.694944 126.349113 292.990631
-13.710150 126.967354 293.315918
-13.710150 127.445297 293.315918
-13.710150 127.923264 293.315918
-13.660563 127.936821 292.255066
-13.660563 128.413040 292.255066
-13.628880 128.590332 291.577240
-13.626280 129.040833 291.521606
-13.620905 129.464767 291.406616
-13.620905 129.939606 291.406616
-13.555157 129.784958 290.000000
-13.555157 130.257507 290.000000
-13.555157 130.730057 290.000000
-13.601899 131.655029 291.000000
-13.601899 132.129211 291.000000
-13.601899 132.603394 291.000000
-13.648642 133.534882 292.000000
-13.648642 134.010696 292.000000
-13.648642 134.486511 292.000000
-13.648642 134.962311 292.000000
-13.648642 135.438126 292.000000
-13.648642 135.913940 292.000000
-13.648642 136.389740 292.000000
-13.695383 137.334274 293.000000
-13.695383 137.811722 293.000000
-13.695383 138.289154 293.000000
-13.695383 138.766602 293.000000
-13.695383 139.244034 293.000000
-13.742126 140.198349 294.000000
-13.742126 140.677414 294.000000
-13.742126 141.156479 294.000000
-13.742126 141.635544 294.000000
-13.742126 142.114624 294.000000
-13.742126 142.593689 294.000000
-13.742126 143.072754 294.000000
-13.742126 143.551834 294.000000
-13.742126 144.030899 294.000000
-13.742126 144.509964 294.000000
-13.742126 144.989029 294.000000
-13.788867 145.962891 295.000000
-13.788867 146.443588 295.000000
-13.788867 146.924286 295.000000
-13.835609 147.904663 296.000000
-13.835609 148.386993 296.000000
-13.882350 149.372253 297.000000
-13.882350 149.856216 297.000000
-13.882350 150.340164 297.000000
-13.882350 150.824127 297.000000
-13.975834 152.326996 299.000000
-13.975834 152.814209 299.000000
-13.975834 153.301437 299.000000
-14.022575 154.302994 300.000000
-14.022575 154.791840 300.000000
-14.022575 155.280685 300.000000
-14.116059 156.807983 302.000000
-14.116059 157.300095 302.000000
-14.116059 157.792191 302.000000
-14.116059 158.284302 302.000000
-14.116059 158.776413 302.000000
-14.116059 159.268509 302.000000
-14.116059 159.760620 302.000000
-14.162802 160.783356 303.000000
-14.162802 161.277100 303.000000
-14.162802 161.770828 303.000000
-14.162802 162.264572 303.000000
-14.162802 162.758301 303.000000
-14.162802 163.252029 303.000000
-14.116059 163.205353 302.000000
-14.116059 163.697464 302.000000
-14.022575 163.102219 300.000000
-14.069318 164.136368 301.000000
-14.069318 164.626846 301.000000
-14.069318 165.117310 301.000000
-14.116059 166.157990 302.000000
-14.116059 166.650085 302.000000
-14.116059 167.142197 302.000000
-14.863931 176.515594 318.000000
-14.863931 177.033768 318.000000
-14.863931 177.551941 318.000000
-14.863931 178.070129 318.000000
-14.863931 178.588303 318.000000
-14.256286 171.784515 305.000000
-15.932503 52.741352 353.167358
-15.932503 53.316837 353.167358
-15.932503 53.892315 353.167358
-15.921044 54.428627 352.913391
-15.916117 54.986668 352.804138
-15.916117 55.561562 352.804138
-15.907845 56.107281 352.620789
-15.916312 56.712040 352.808502
-15.916312 57.286938 352.808502
-15.916312 57.861835 352.808502
-15.913661 58.426994 352.749725
-15.913661 59.001797 352.749725
-15.913661 59.576599 352.749725
-15.913661 60.151398 352.749725
-15.913661 60.726200 352.749725
-15.913661 61.301003 352.749725
-15.913661 61.875805 352.749725
-15.911777 62.443214 352.707977
-15.911777 63.017948 352.707977
-15.910851 63.588974 352.687439
-15.828160 63.830208 350.854462
-15.828160 64.401924 350.854462
-15.828160 64.973633 350.854462
-15.771639 65.311295 349.601593
-15.771639 65.880966 349.601593
-15.747843 66.350372 349.074097
-15.720842 66.804451 348.475616
-15.720842 67.372284 348.475616
-15.498034 66.977219 343.536743
-15.327294 66.792961 339.752045
-15.327294 67.346588 339.752045
-15.303568 67.795097 339.226105
-15.275571 68.222824 338.605499
-15.275571 68.774574 338.605499
-15.228223 69.111450 337.555969
-15.182913 69.454216 336.551605
-15.182913 70.002625 336.551605
-15.179216 70.533859 336.469666
-15.179216 71.082130 336.469666
-15.179216 71.630402 336.469666
-15.121142 71.902527 335.182373
-15.056082 72.136986 333.740234
-15.056082 72.680817 333.740234
-15.020163 73.049934 332.944000
-15.019241 73.587952 332.923584
-15.011723 74.093346 332.756927
-15.011723 74.635559 332.756927
-14.932573 74.781410 331.002441
-14.901197 75.162514 330.306976
-14.901197 75.700752 330.306976
-14.814352 75.794655 328.381927
-14.785469 76.180931 327.741699
-14.785469 76.714989 327.741699
-14.670207 76.646828 325.186737
-14.547807 76.532791 322.473541
-14.547807 77.058250 322.473541
-14.346182 76.508453 318.004242
-14.252394 76.523079 315.925293
-14.252394 77.037880 315.925293
-14.201435 77.275391 314.795715
-14.149316 77.502853 313.640411
-14.149316 78.013931 313.640411
-14.572615 80.874207 323.023468
-14.611351 81.616943 323.882111
-14.611351 82.144707 323.882111
-14.611351 82.672470 323.882111
-13.443727 76.551521 298.000000
-13.443727 77.037109 298.000000
-13.443727 77.522697 298.000000
-13.443727 78.008286 298.000000
-13.443727 78.493874 298.000000
-13.443727 78.979454 298.000000
-13.398613 79.198380 297.000000
-13.398613 79.682343 297.000000
-14.646935 87.635216 324.670837
-15.880348 95.588554 352.011292
-16.613945 100.604385 368.272522
-16.613945 101.204475 368.272522
-17.082033 104.672867 378.648407
-17.082033 105.289864 378.648407
-17.082033 105.906868 378.648407
-17.305372 107.916618 383.599060
-17.305372 108.541695 383.599060
-17.305372 109.166763 383.599060
-17.348650 110.066399 384.558380
-17.348650 110.693039 384.558380
-17.348650 111.319664 384.558380
-16.554342 106.820839 366.951385
-16.664532 108.133774 369.393860
-16.664532 108.735703 369.393860
-16.835440 110.458961 373.182281
-16.904694 111.523949 374.717407
-16.970533 112.571289 376.176849
-16.970533 113.184258 376.176849
-16.977930 113.846848 376.340820
-17.061417 115.022919 378.191406
-17.061417 115.639183 378.191406
-17.083340 116.404808 378.677338
-17.117682 117.257111 379.438599
-17.117682 117.875397 379.438599
-17.117682 118.493683 379.438599
-16.906427 117.641983 374.755829
-16.906427 118.252647 374.755829
-16.940153 119.100418 375.503418
-17.088642 120.761642 378.794891
-17.088642 121.378868 378.794891
-17.128138 122.278084 379.670380
-17.150450 123.056839 380.164948
-17.150450 123.676308 380.164948
-17.158337 124.352951 380.339813
-17.158337 124.972717 380.339813
-17.158337 125.592468 380.339813
-17.133265 126.027802 379.784027
-17.126682 126.598007 379.638123
-17.126682 127.216614 379.638123
-17.126682 127.835228 379.638123
-17.053055 127.901619 378.006042
-17.053055 128.517578 378.006042
-17.065365 129.226746 378.278900
-17.065365 129.843140 378.278900
-17.065365 130.459549 378.278900
-17.080097 131.189117 378.605499
-17.080097 131.806046 378.605499
-17.080097 132.422974 378.605499
-17.077478 133.019516 378.547455
-17.073578 133.605820 378.460968
-17.068071 134.179245 378.338928
-17.068071 134.795746 378.338928
-17.064226 135.381729 378.253693
-17.058287 135.950760 378.122040
-17.058287 136.566910 378.122040
-17.051449 137.128052 377.970428
-15.964887 128.966553 353.885223
-15.964887 129.543198 353.885223
-15.850253 129.185547 351.344177
-15.744823 128.894958 349.007202
-15.744823 129.463669 349.007202
-15.632857 129.107651 346.525269
-15.601953 129.415970 345.840240
-15.601953 129.979507 345.840240
-15.561502 130.204605 344.943604
-15.296070 128.536209 339.059906
-15.296070 129.088699 339.059906
-15.219327 128.990753 337.358765
-15.096663 128.496414 334.639740
-15.096663 129.041702 334.639740
-14.921366 128.082275 330.754028
-14.731240 126.982376 326.539642
-14.731240 127.514465 326.539642
-14.583526 126.762596 323.265320
-14.439538 126.032585 320.073608
-14.439538 126.554138 320.073608
-14.352225 126.307304 318.138214
-14.184151 125.340469 314.412567
-14.184151 125.852806 314.412567
-14.103772 125.649071 312.630890
-14.040174 125.589607 311.221130
-14.040174 126.096733 311.221130
-14.574800 131.424728 323.071899
-14.574800 131.951157 323.071899
-14.574800 132.477600 323.071899
-13.965004 127.439278 309.554871
-13.868377 127.058411 307.412964
-13.868377 127.559341 307.412964
-13.295994 122.774910 294.725281
-13.197959 122.346367 292.552185
-13.197959 122.823067 292.552185
-13.200930 123.327538 292.618042
-13.514927 126.749168 299.578247
-13.514927 127.237320 299.578247
-13.514927 127.725479 299.578247
-13.191670 125.146957 292.412781
-13.191670 125.623444 292.412781
-13.162461 125.820717 291.765320
-13.232413 126.967354 293.315918
-13.232413 127.445297 293.315918
-13.232413 127.923264 293.315918
-13.184555 127.936821 292.255066
-13.184555 128.413040 292.255066
-13.153976 128.590332 291.577240
-13.151466 129.040833 291.521606
-13.146278 129.464767 291.406616
-13.146278 129.939606 291.406616
-13.082822 129.784958 290.000000
-13.082822 130.257507 290.000000
-13.082822 130.730057 290.000000
-13.127935 131.655029 291.000000
-13.127935 132.129211 291.000000
-13.127935 132.603394 291.000000
-13.173049 133.534882 292.000000
-13.173049 134.010696 292.000000
-13.173049 134.486511 292.000000
-13.173049 134.962311 292.000000
-13.173049 135.438126 292.000000
-13.173049 135.913940 292.000000
-13.173049 136.389740 292.000000
-13.218161 137.334274 293.000000
-13.218161 137.811722 293.000000
-13.218161 138.289154 293.000000
-13.218161 138.766602 293.000000
-13.218161 139.244034 293.000000
-13.263274 140.198349 294.000000
-13.263274 140.677414 294.000000
-13.263274 141.156479 294.000000
-13.263274 141.635544 294.000000
-13.263274 142.114624 294.000000
-13.263274 142.593689 294.000000
-13.263274 143.072754 294.000000
-13.308388 144.040085 295.000000
-13.308388 144.520782 295.000000
-13.308388 145.001480 295.000000
-13.308388 145.482178 295.000000
-13.308388 145.962891 295.000000
-13.308388 146.443588 295.000000
-13.308388 146.924286 295.000000
-13.353501 147.904663 296.000000
-13.353501 148.386993 296.000000
-13.398613 149.372253 297.000000
-13.398613 149.856216 297.000000
-13.398613 150.340164 297.000000
-13.398613 150.824127 297.000000
-13.443727 151.817535 298.000000
-13.443727 152.303131 298.000000
-13.488840 153.301437 299.000000
-13.533954 154.302994 300.000000
-13.533954 154.791840 300.000000
-13.533954 155.280685 300.000000
-13.579066 156.288757 301.000000
-13.579066 156.779236 301.000000
-13.624180 157.792191 302.000000
-13.624180 158.284302 302.000000
-13.624180 158.776413 302.000000
-13.624180 159.268509 302.000000
-13.624180 159.760620 302.000000
-13.624180 160.252716 302.000000
-13.624180 160.744827 302.000000
-13.579066 160.703033 301.000000
-13.579066 161.193512 301.000000
-13.579066 161.683990 301.000000
-13.579066 162.174469 301.000000
-13.579066 162.664932 301.000000
-13.579066 163.155411 301.000000
-13.533954 163.102219 300.000000
-13.579066 164.136368 301.000000
-13.579066 164.626846 301.000000
-13.579066 165.117310 301.000000
-13.624180 166.157990 302.000000
-13.624180 166.650085 302.000000
-14.300878 175.443970 317.000000
-14.345991 176.515594 318.000000
-14.345991 177.033768 318.000000
-14.345991 177.551941 318.000000
-14.345991 178.070129 318.000000
-14.345991 178.588303 318.000000
-14.300878 178.543243 317.000000
-14.300878 179.059799 317.000000
-14.300878 179.576340 317.000000
-15.350177 50.991295 353.003906
-15.357307 51.590469 353.167908
-15.357307 52.165955 353.167908
-15.357307 52.741436 353.167908
-15.357284 53.316837 353.167358
-15.357284 53.892315 353.167358
-15.347431 54.432854 352.940765
-15.343273 54.993065 352.845184
-15.343273 55.568027 352.845184
-15.348521 56.162178 352.965851
-15.348521 56.737335 352.965851
-15.348521 57.312489 352.965851
-15.348521 57.887642 352.965851
-15.348521 58.462791 352.965851
-15.348521 59.037949 352.965851
-15.348521 59.613102 352.965851
-15.348521 60.188255 352.965851
-15.348355 60.762749 352.962036
-15.348355 61.337894 352.962036
-15.347462 61.909439 352.941467
-15.346550 62.480839 352.920502
-15.346550 63.055916 352.920502
-15.346461 63.630627 352.918457
-15.145344 63.364285 348.293427
-15.145344 63.931824 348.293427
-15.145344 64.499359 348.293427
-15.086669 64.814827 346.944092
-15.086669 65.380165 346.944092
-15.058251 65.821289 346.290588
-15.029971 66.260895 345.640259
-15.029971 66.824112 345.640259
-14.815838 66.427254 340.715881
-14.773927 66.792961 339.752045
-14.773927 67.346588 339.752045
-14.751056 67.795097 339.226105
-14.724071 68.222824 338.605499
-14.724071 68.774574 338.605499
-14.678432 69.111450 337.555969
-14.634757 69.454216 336.551605
-14.634757 70.002625 336.551605
-14.631194 70.533859 336.469666
-14.631194 71.082130 336.469666
-14.631194 71.630402 336.469666
-14.441889 71.244797 332.116272
-14.380372 71.480194 330.701599
-14.380372 72.019073 330.701599
-14.347207 72.390610 329.938904
-14.345804 72.921104 329.906647
-14.345804 73.458687 329.906647
-14.339811 73.965355 329.768829
-14.270576 74.142982 328.176605
-14.240396 74.519814 327.482574
-14.240396 75.053444 327.482574
-14.163762 75.180305 325.720276
-14.138427 75.575630 325.137604
-14.138427 76.105438 325.137604
-14.038340 76.092751 322.835968
-13.930360 76.029465 320.352753
-13.930360 76.551468 320.352753
-13.828236 76.508453 318.004242
-13.737834 76.523079 315.925293
-13.737834 77.037880 315.925293
-13.045331 73.643364 300.000000
-13.045331 74.132210 300.000000
-13.045331 74.621056 300.000000
-13.921083 80.152138 320.139435
-13.983582 81.035988 321.576691
-13.983582 81.559990 321.576691
-13.983582 82.083992 321.576691
-12.958363 76.551521 298.000000
-12.958363 77.037109 298.000000
-12.958363 77.522697 298.000000
-12.958363 78.008286 298.000000
-12.958363 78.493874 298.000000
-12.958363 78.979454 298.000000
-12.914878 79.198380 297.000000
-12.914878 79.682343 297.000000
-14.118129 87.635216 324.670837
-15.054914 94.014267 346.213867
-16.014122 100.604385 368.272522
-16.014122 101.204475 368.272522
-16.431128 104.455536 377.862244
-16.431128 105.071259 377.862244
-16.431128 105.686981 377.862244
-15.793231 102.175774 363.192719
-15.835299 103.041336 364.160156
-15.835299 103.634727 364.160156
-16.012226 105.392662 368.228912
-16.012226 105.992683 368.228912
-16.012226 106.592712 368.228912
-15.956675 106.820839 366.951385
-16.013971 107.804504 368.269043
-16.013971 108.404602 368.269043
-16.190430 110.205795 372.326965
-16.271353 111.366371 374.187958
-16.271353 111.976105 374.187958
-16.271353 112.585838 374.187958
-16.271410 113.195976 374.189270
-16.323133 114.167488 375.378754
-16.323133 114.779152 375.378754
-16.392672 115.882393 376.977875
-16.424320 116.721603 377.705719
-16.424320 117.337067 377.705719
-16.424320 117.952530 377.705719
-16.335466 117.926559 375.662384
-16.335466 118.538696 375.662384
-16.390970 119.555679 376.938782
-16.471684 120.761642 378.794891
-16.471684 121.378868 378.794891
-16.488688 122.122055 379.185944
-16.498539 122.813263 379.412476
-16.498539 123.431519 379.412476
-16.510223 124.137634 379.681213
-16.510223 124.756317 379.681213
-16.510223 125.375000 379.681213
-16.505398 125.956856 379.570221
-16.508350 126.598007 379.638123
-16.508350 127.216614 379.638123
-16.508350 127.835228 379.638123
-16.479698 128.230896 378.979218
-16.479698 128.848434 378.979218
-16.474249 129.423172 378.853882
-16.447018 129.825577 378.227692
-16.447018 130.441895 378.227692
-16.463448 131.189117 378.605499
-16.463448 131.806046 378.605499
-16.463448 132.422974 378.605499
-16.460922 133.019516 378.547455
-16.457163 133.605820 378.460968
-16.451855 134.179245 378.338928
-16.451855 134.795746 378.338928
-16.448149 135.381729 378.253693
-16.446747 135.986496 378.221466
-16.446747 136.602814 378.221466
-16.446747 137.219116 378.221466
-16.443453 137.807816 378.145691
-16.443453 138.423996 378.145691
-15.278005 129.185547 351.344177
-15.197854 129.077332 349.501007
-15.197854 129.646835 349.501007
-15.093169 129.319397 347.093597
-15.078450 129.758316 346.755096
-15.078450 130.323349 346.755096
-14.999680 130.204605 344.943604
-14.743830 128.536209 339.059906
-14.743830 129.088699 339.059906
-14.675060 129.036514 337.478455
-14.557046 128.544327 334.764526
-14.557046 129.089828 334.764526
-14.385735 128.109726 330.824890
-14.199393 126.982376 326.539642
-14.199393 127.514465 326.539642
-14.057010 126.762596 323.265320
-13.918221 126.032585 320.073608
-13.918221 126.554138 320.073608
-13.834062 126.307304 318.138214
-13.710264 125.690773 315.291290
-13.710264 126.204536 315.291290
-14.163857 130.910675 325.722443
-14.163857 131.441437 325.722443
-14.163857 131.972198 325.722443
-14.105549 131.957489 324.381561
-14.048599 131.951157 323.071899
-14.048599 132.477600 323.071899
-13.460819 127.439278 309.554871
-13.440065 127.746422 309.077576
-13.440065 128.250061 309.077576
-12.815963 122.774910 294.725281
-12.728216 122.411263 292.707397
-12.728216 122.888237 292.707397
-12.731367 123.395729 292.779846
-13.026992 126.749168 299.578247
-13.026992 127.237320 299.578247
-13.026992 127.725479 299.578247
-12.721549 125.207428 292.554077
-12.721549 125.684143 292.554077
-12.874174 127.674446 296.063934
-12.874174 128.156876 296.063934
-12.874174 128.639313 296.063934
-12.809969 128.477798 294.587433
-12.752330 128.377579 293.261932
-12.752330 128.855438 293.261932
-12.712698 128.931366 292.350525
-12.686646 129.142563 291.751434
-12.678455 129.534271 291.563049
-12.678455 130.009369 291.563049
-12.671571 130.413620 291.404724
-12.610487 130.257507 290.000000
-12.610487 130.730057 290.000000
-12.653972 131.655029 291.000000
-12.653972 132.129211 291.000000
-12.653972 132.603394 291.000000
-12.697456 133.534882 292.000000
-12.697456 134.010696 292.000000
-12.697456 134.486511 292.000000
-12.697456 134.962311 292.000000
-12.697456 135.438126 292.000000
-12.697456 135.913940 292.000000
-12.697456 136.389740 292.000000
-12.697456 136.865555 292.000000
-12.697456 137.341370 292.000000
-12.740940 138.289154 293.000000
-12.740940 138.766602 293.000000
-12.740940 139.244034 293.000000
-12.784425 140.198349 294.000000
-12.784425 140.677414 294.000000
-12.784425 141.156479 294.000000
-12.784425 141.635544 294.000000
-12.784425 142.114624 294.000000
-12.784425 142.593689 294.000000
-12.827909 143.559387 295.000000
-12.827909 144.040085 295.000000
-12.827909 144.520782 295.000000
-12.827909 145.001480 295.000000
-12.827909 145.482178 295.000000
-12.827909 145.962891 295.000000
-12.827909 146.443588 295.000000
-12.827909 146.924286 295.000000
-12.871393 147.904663 296.000000
-12.871393 148.386993 296.000000
-12.871393 148.869308 296.000000
-12.914878 149.856216 297.000000
-12.914878 150.340164 297.000000
-12.914878 150.824127 297.000000
-12.914878 151.308090 297.000000
-12.914878 151.792038 297.000000
-13.001847 153.301437 299.000000
-13.045331 154.302994 300.000000
-13.045331 154.791840 300.000000
-13.045331 155.280685 300.000000
-13.088816 156.288757 301.000000
-13.088816 156.779236 301.000000
-13.132299 157.792191 302.000000
-13.132299 158.284302 302.000000
-13.132299 158.776413 302.000000
-13.132299 159.268509 302.000000
-13.132299 159.760620 302.000000
-13.132299 160.252716 302.000000
-13.132299 160.744827 302.000000
-13.088816 160.703033 301.000000
-13.088816 161.193512 301.000000
-13.088816 161.683990 301.000000
-13.088816 162.174469 301.000000
-13.088816 162.664932 301.000000
-13.088816 163.155411 301.000000
-13.045331 163.102219 300.000000
-13.088816 164.136368 301.000000
-13.088816 164.626846 301.000000
-13.088816 165.117310 301.000000
-13.132299 166.157990 302.000000
-13.132299 166.650085 302.000000
-13.784566 175.443970 317.000000
-13.828051 176.515594 318.000000
-13.828051 177.033768 318.000000
-13.828051 177.551941 318.000000
-13.828051 178.070129 318.000000
-13.828051 178.588303 318.000000
-13.784566 178.543243 317.000000
-13.784566 179.059799 317.000000
-13.784566 179.576340 317.000000
-13.001847 169.866806 299.000000
-13.001847 170.354019 299.000000
-13.001847 170.841232 299.000000
-13.001847 171.328445 299.000000
-13.695893 44.600407 327.216980
-13.695893 45.133602 327.216980
-13.695893 45.666798 327.216980
-14.350120 48.406872 342.847473
-14.350120 48.965538 342.847473
-14.775225 50.991295 353.003906
-14.782088 51.590469 353.167908
-14.782088 52.165955 353.167908
-14.782088 52.741436 353.167908
-14.782065 53.316837 353.167358
-14.782065 53.892315 353.167358
-14.772581 54.432854 352.940765
-14.768580 54.993065 352.845184
-14.768580 55.568027 352.845184
-14.773631 56.162178 352.965851
-14.773631 56.737335 352.965851
-14.773631 57.312489 352.965851
-14.773631 57.887642 352.965851
-14.773631 58.462791 352.965851
-14.773631 59.037949 352.965851
-14.773631 59.613102 352.965851
-14.773631 60.188255 352.965851
-14.773472 60.762749 352.962036
-14.773472 61.337894 352.962036
-14.772612 61.909439 352.941467
-14.771733 62.480839 352.920502
-14.771733 63.055916 352.920502
-14.771647 63.630627 352.918457
-14.467758 62.884830 345.658051
-14.467758 63.448082 345.658051
-14.467758 64.011322 345.658051
-14.413282 64.331429 344.356537
-14.413282 64.892555 344.356537
-14.382448 65.313652 343.619873
-14.350818 65.728706 342.864166
-14.350818 66.287399 342.864166
-14.146035 65.892220 337.971588
-14.109588 66.271744 337.100769
-14.109588 66.821045 337.100769
-14.084182 67.249039 336.493805
-14.052886 67.646698 335.746063
-14.052886 68.193794 335.746063
-14.007006 68.516464 334.649933
-13.959258 68.826347 333.509155
-13.959258 69.369797 333.509155
-13.953889 69.886360 333.380890
-13.953889 70.429596 333.380890
-13.953889 70.972839 333.380890
-13.900958 71.244797 332.116272
-13.841745 71.480194 330.701599
-13.841745 72.019073 330.701599
-13.809823 72.390610 329.938904
-13.808473 72.921104 329.906647
-13.808473 73.458687 329.906647
-13.802704 73.965355 329.768829
-13.613262 73.480164 325.242767
-13.588287 73.874359 324.646057
-13.588287 74.403358 324.646057
-13.521334 74.563156 323.046448
-13.502282 74.983757 322.591278
-13.502282 75.509415 322.591278
-13.415625 75.547073 320.520874
-13.321834 75.537544 318.280060
-13.321834 76.056183 318.280060
-13.232581 76.061783 316.147675
-12.556708 72.665672 300.000000
-12.556708 73.154518 300.000000
-12.556708 73.643364 300.000000
-12.556708 74.132210 300.000000
-12.556708 74.621056 300.000000
-13.130589 78.542656 313.710938
-13.371808 80.506119 319.474030
-13.371808 81.026703 319.474030
-13.371808 81.547279 319.474030
-12.514853 76.808411 299.000000
-12.514853 77.295624 299.000000
-12.514853 77.782837 299.000000
-12.472998 78.008286 298.000000
-12.472998 78.493874 298.000000
-12.472998 78.979454 298.000000
-12.472998 79.465042 298.000000
-12.472998 79.950630 298.000000
-12.472998 80.436218 298.000000
-12.431142 80.650253 297.000000
-15.127717 98.733932 361.425537
-15.127717 99.322868 361.425537
-15.127717 99.911804 361.425537
-14.330709 95.205833 342.383728
-14.330709 95.763741 342.383728
-14.945503 100.453896 357.072144
