-2.228651 81.180252 370.000000
-2.222628 81.562126 369.000000
-2.222628 82.163406 369.000000
-2.222628 82.764687 369.000000
-2.216604 83.140045 368.000000
-2.204558 83.284592 366.000000
-2.204558 83.880981 366.000000
-2.186487 83.784935 363.000000
-2.174441 83.911560 361.000000
-2.174441 84.499802 361.000000
-2.174441 85.088051 361.000000
-2.168417 85.438965 360.000000
-2.168417 86.025574 360.000000
-2.162394 86.371597 359.000000
-2.150347 86.472153 357.000000
-2.150347 87.053879 357.000000
-2.144324 87.390129 356.000000
-2.138300 87.723114 355.000000
-2.138300 88.301582 355.000000
-2.132277 88.629692 354.000000
-2.132277 89.206528 354.000000
-2.132277 89.783363 354.000000
-2.120230 89.849693 352.000000
-2.114207 90.166389 351.000000
-2.114207 90.738342 351.000000
-2.108183 91.050148 350.000000
-2.102160 91.358688 349.000000
-2.102160 91.927383 349.000000
-2.096137 92.231041 348.000000
-2.090113 92.531448 347.000000
-2.084090 92.828583 346.000000
-2.084090 93.392387 346.000000
-2.084090 93.956192 346.000000
-2.078067 94.246811 345.000000
-2.078067 94.808983 345.000000
-2.066020 94.818283 343.000000
-2.059996 95.099129 342.000000
-2.059996 95.656410 342.000000
-2.059996 96.213699 342.000000
-2.053973 96.488022 341.000000
-2.053973 97.043678 341.000000
-2.041926 97.026909 339.000000
-2.041926 97.579308 339.000000
-2.041926 98.131699 339.000000
-2.035903 98.392990 338.000000
-2.029880 98.651031 337.000000
-2.029880 99.200165 337.000000
-2.023856 99.453308 336.000000
-2.023856 100.000816 336.000000
-2.023856 100.548325 336.000000
-2.017833 100.794952 335.000000
-2.005786 100.735809 333.000000
-2.005786 101.278435 333.000000
-2.005786 101.821053 333.000000
-1.999763 102.056267 332.000000
-1.999763 102.597260 332.000000
-1.993739 102.827591 331.000000
-1.987716 103.054665 330.000000
-1.987716 103.592400 330.000000
-1.987716 104.130127 330.000000
-1.981693 104.350685 329.000000
-1.981693 104.886787 329.000000
-1.975669 105.102448 328.000000
-1.975669 105.636925 328.000000
-1.969646 105.847702 327.000000
-1.969646 106.380539 327.000000
-1.963622 106.586433 326.000000
-1.963622 107.117645 326.000000
-1.963622 107.648865 326.000000
-1.951576 107.516388 324.000000
-1.945552 107.710869 323.000000
-1.945552 108.237198 323.000000
-1.945552 108.763519 323.000000
-1.939529 108.951485 322.000000
-1.939529 109.476181 322.000000
-1.927482 109.317650 320.000000
-1.927482 109.839081 320.000000
-1.927482 110.360519 320.000000
-1.927482 110.881958 320.000000
-1.915435 110.707115 318.000000
-1.915435 111.225296 318.000000
-1.909412 111.392075 317.000000
-1.909412 111.908623 317.000000
-1.909412 112.425171 317.000000
-1.909412 112.941719 317.000000
-1.897365 112.742432 315.000000
-1.897365 113.255722 315.000000
-1.897365 113.769012 315.000000
-1.891342 113.919510 314.000000
-1.891342 114.431168 314.000000
-1.885319 114.576767 313.000000
-1.879295 114.719109 312.000000
-1.879295 115.227509 312.000000
-1.879295 115.735909 312.000000
-1.873271 115.871727 311.000000
-1.873271 116.378494 311.000000
-1.867248 116.509430 310.000000
-1.861225 116.637100 309.000000
-1.861225 117.140610 309.000000
-1.855201 117.263397 308.000000
-1.849178 117.382935 307.000000
-1.843155 117.499199 306.000000
-1.843155 117.997826 306.000000
-1.843155 118.496445 306.000000
-1.837131 118.606194 305.000000
-1.837131 119.103188 305.000000
-1.831108 119.208054 304.000000
-1.825084 119.309654 303.000000
-1.825084 119.803383 303.000000
-1.825084 120.297119 303.000000
-1.819061 120.392204 302.000000
-1.819061 120.884308 302.000000
-1.813038 120.974503 301.000000
-1.813038 121.464981 301.000000
-1.813038 121.955452 301.000000
-1.813038 122.445930 301.000000
-1.800991 122.119560 299.000000
-1.800991 122.606781 299.000000
-1.800991 123.093994 299.000000
-1.794968 123.167892 298.000000
-1.794968 123.653481 298.000000
-1.788944 123.722496 297.000000
-1.788944 124.206451 297.000000
-1.788944 124.690407 297.000000
-1.782921 124.752899 296.000000
-1.782921 125.235229 296.000000
-1.782921 125.717560 296.000000
-1.776897 125.773537 295.000000
-1.776897 126.254234 295.000000
-1.776897 126.734932 295.000000
-1.770874 126.784401 294.000000
-1.770874 127.263474 294.000000
-1.770874 127.742538 294.000000
-1.770874 128.221603 294.000000
-1.764851 128.262924 293.000000
-1.764851 128.740356 293.000000
-1.764851 129.217804 293.000000
-1.758827 129.252594 292.000000
-1.758827 129.728409 292.000000
-1.758827 130.204208 292.000000
-1.758827 130.680023 292.000000
-1.758827 131.155838 292.000000
-1.758827 131.631638 292.000000
-1.758827 132.107452 292.000000
-1.752804 132.129211 291.000000
-1.752804 132.603394 291.000000
-1.752804 133.077576 291.000000
-1.752804 133.551758 291.000000
-1.752804 134.025940 291.000000
-1.752804 134.500107 291.000000
-1.746781 134.510468 290.000000
-1.746781 134.983017 290.000000
-1.746781 135.455566 290.000000
-1.750436 136.212540 290.606812
-1.750436 136.686081 290.606812
-1.750436 137.159622 290.606812
-1.749626 137.569473 290.472321
-1.749626 138.042786 290.472321
-1.803633 31.196262 410.416656
-1.803633 31.865030 410.416656
-1.803633 32.533802 410.416656
-1.798964 33.116611 409.354156
-1.798964 33.783649 409.354156
-1.797972 34.431694 409.128479
-1.796803 35.075539 408.862427
-1.796803 35.741776 408.862427
-1.795545 36.382523 408.576172
-1.794235 37.021271 408.278168
-1.794235 37.686554 408.278168
-1.793206 38.329842 408.044006
-1.801802 39.181671 410.000000
-1.801802 39.849758 410.000000
-1.801802 40.517849 410.000000
-1.797408 41.085487 409.000000
-1.797408 41.751945 409.000000
-1.793013 42.314693 408.000000
-1.793013 42.979523 408.000000
-1.793013 43.644356 408.000000
-1.788618 44.200584 407.000000
-1.784224 44.753555 406.000000
-1.779829 45.303268 405.000000
-1.779829 45.963211 405.000000
-1.779829 46.623154 405.000000
-1.775434 47.166344 404.000000
-1.775434 47.824657 404.000000
-1.775434 48.482971 404.000000
-1.766645 48.898014 402.000000
-1.766645 49.553066 402.000000
-1.766645 50.208122 402.000000
-1.762251 50.736649 401.000000
-1.762251 51.390072 401.000000
-1.757856 51.913715 400.000000
-1.757856 52.565510 400.000000
-1.757856 53.217304 400.000000
-1.749067 53.599751 398.000000
-1.744672 54.111984 397.000000
-1.744672 54.758892 397.000000
-1.740277 55.266239 396.000000
-1.740277 55.911518 396.000000
-1.740277 56.556793 396.000000
-1.735883 57.057621 395.000000
-1.727094 57.409107 393.000000
-1.727094 58.049496 393.000000
-1.722699 58.540550 392.000000
-1.722699 59.179310 392.000000
-1.722699 59.818066 392.000000
-1.718304 60.302597 391.000000
-1.718304 60.939728 391.000000
-1.718304 61.576859 391.000000
-1.713910 62.054871 390.000000
-1.713910 62.690369 390.000000
-1.705120 63.001125 388.000000
-1.705120 63.633366 388.000000
-1.705120 64.265610 388.000000
-1.705120 64.897850 388.000000
-1.705120 65.530090 388.000000
-1.700726 65.991806 387.000000
-1.696331 66.450264 386.000000
-1.696331 67.079247 386.000000
-1.696331 67.708229 386.000000
-1.691936 68.160179 385.000000
-1.691936 68.787529 385.000000
-1.678752 68.873985 382.000000
-1.678752 69.496452 382.000000
-1.678752 70.118919 382.000000
-1.674358 70.556190 381.000000
-1.669963 70.990211 380.000000
-1.669963 71.609413 380.000000
-1.665568 72.038544 379.000000
-1.661174 72.464417 378.000000
-1.661174 73.080360 378.000000
-1.656779 73.501343 377.000000
-1.652385 73.919067 376.000000
-1.652385 74.531754 376.000000
-1.647990 74.944595 375.000000
-1.643595 75.354164 374.000000
-1.643595 75.963593 374.000000
-1.643595 76.573021 374.000000
-1.639201 76.976082 373.000000
-1.639201 77.583878 373.000000
-1.639201 78.191673 373.000000
-1.634806 78.588211 372.000000
-1.630411 78.981499 371.000000
-1.630411 79.586037 371.000000
-1.626017 79.974434 370.000000
-1.626017 80.577339 370.000000
-1.626017 81.180252 370.000000
-1.621622 81.562126 369.000000
-1.621622 82.163406 369.000000
-1.621622 82.764687 369.000000
-1.617227 83.140045 368.000000
-1.604043 83.057030 365.000000
-1.604043 83.651794 365.000000
-1.595254 83.784935 363.000000
-1.586465 83.911560 361.000000
-1.586465 84.499802 361.000000
-1.586465 85.088051 361.000000
-1.582070 85.438965 360.000000
-1.582070 86.025574 360.000000
-1.573281 86.131020 358.000000
-1.568886 86.472153 357.000000
-1.568886 87.053879 357.000000
-1.560097 87.144646 355.000000
-1.555702 87.476013 354.000000
-1.555702 88.052849 354.000000
-1.555702 88.629692 354.000000
-1.555702 89.206528 354.000000
-1.555702 89.783363 354.000000
-1.551308 90.104950 353.000000
-1.542519 90.166389 351.000000
-1.542519 90.738342 351.000000
-1.538124 91.050148 350.000000
-1.533729 91.358688 349.000000
-1.533729 91.927383 349.000000
-1.529335 92.231041 348.000000
-1.524940 92.531448 347.000000
-1.520545 92.828583 346.000000
-1.520545 93.392387 346.000000
-1.520545 93.956192 346.000000
-1.516151 94.246811 345.000000
-1.516151 94.808983 345.000000
-1.507361 94.818283 343.000000
-1.502967 95.099129 342.000000
-1.502967 95.656410 342.000000
-1.502967 96.213699 342.000000
-1.494178 96.205070 340.000000
-1.494178 96.759102 340.000000
-1.489783 97.026909 339.000000
-1.489783 97.579308 339.000000
-1.489783 98.131699 339.000000
-1.485388 98.392990 338.000000
-1.480994 98.651031 337.000000
-1.480994 99.200165 337.000000
-1.476599 99.453308 336.000000
-1.476599 100.000816 336.000000
-1.476599 100.548325 336.000000
-1.467810 100.494072 334.000000
-1.463415 100.735809 333.000000
-1.463415 101.278435 333.000000
-1.463415 101.821053 333.000000
-1.459020 102.056267 332.000000
-1.459020 102.597260 332.000000
-1.454626 102.827591 331.000000
-1.450231 103.054665 330.000000
-1.450231 103.592400 330.000000
-1.445837 103.814583 329.000000
-1.445837 104.350685 329.000000
-1.445837 104.886787 329.000000
-1.441442 105.102448 328.000000
-1.437047 105.314857 327.000000
-1.437047 105.847702 327.000000
-1.437047 106.380539 327.000000
-1.432653 106.586433 326.000000
-1.432653 107.117645 326.000000
-1.432653 107.648865 326.000000
-1.423863 107.516388 324.000000
-1.419469 107.710869 323.000000
-1.419469 108.237198 323.000000
-1.419469 108.763519 323.000000
-1.415074 108.951485 322.000000
-1.415074 109.476181 322.000000
-1.406285 109.317650 320.000000
-1.406285 109.839081 320.000000
-1.406285 110.360519 320.000000
-1.406285 110.881958 320.000000
-1.401890 111.055252 319.000000
-1.401890 111.575058 319.000000
-1.393101 111.392075 317.000000
-1.393101 111.908623 317.000000
-1.393101 112.425171 317.000000
-1.393101 112.941719 317.000000
-1.384312 112.742432 315.000000
-1.384312 113.255722 315.000000
-1.384312 113.769012 315.000000
-1.379917 113.919510 314.000000
-1.379917 114.431168 314.000000
-1.375522 114.576767 313.000000
-1.371128 114.719109 312.000000
-1.371128 115.227509 312.000000
-1.371128 115.735909 312.000000
-1.366733 115.871727 311.000000
-1.366733 116.378494 311.000000
-1.362338 116.509430 310.000000
-1.357944 116.637100 309.000000
-1.357944 117.140610 309.000000
-1.353549 117.263397 308.000000
-1.349154 117.382935 307.000000
-1.344760 117.499199 306.000000
-1.344760 117.997826 306.000000
-1.344760 118.496445 306.000000
-1.340365 118.606194 305.000000
-1.340365 119.103188 305.000000
-1.335971 119.208054 304.000000
-1.331576 119.309654 303.000000
-1.331576 119.803383 303.000000
-1.331576 120.297119 303.000000
-1.327181 120.392204 302.000000
-1.327181 120.884308 302.000000
-1.327181 121.376411 302.000000
-1.322787 121.464981 301.000000
-1.322787 121.955452 301.000000
-1.322787 122.445930 301.000000
-1.313997 122.119560 299.000000
-1.313997 122.606781 299.000000
-1.313997 123.093994 299.000000
-1.309603 123.167892 298.000000
-1.309603 123.653481 298.000000
-1.305208 123.722496 297.000000
-1.305208 124.206451 297.000000
-1.305208 124.690407 297.000000
-1.305208 125.174370 297.000000
-1.300813 125.235229 296.000000
-1.300813 125.717560 296.000000
-1.296419 125.773537 295.000000
-1.296419 126.254234 295.000000
-1.296419 126.734932 295.000000
-1.296419 127.215630 295.000000
-1.292024 127.263474 294.000000
-1.292024 127.742538 294.000000
-1.292024 128.221603 294.000000
-1.292024 128.700684 294.000000
-1.287629 128.740356 293.000000
-1.287629 129.217804 293.000000
-1.287629 129.695236 293.000000
-1.283235 129.728409 292.000000
-1.283235 130.204208 292.000000
-1.283235 130.680023 292.000000
-1.283235 131.155838 292.000000
-1.283235 131.631638 292.000000
-1.283235 132.107452 292.000000
-1.278840 132.129211 291.000000
-1.278840 132.603394 291.000000
-1.278840 133.077576 291.000000
-1.278840 133.551758 291.000000
-1.278840 134.025940 291.000000
-1.278840 134.500107 291.000000
-1.274446 134.510468 290.000000
-1.274446 134.983017 290.000000
-1.274446 135.455566 290.000000
-1.277112 136.212540 290.606812
-1.277112 136.686081 290.606812
-1.277112 137.159622 290.606812
-1.276521 137.569473 290.472321
-1.276521 138.042786 290.472321
-1.134776 31.185402 410.273804
-1.134776 31.853941 410.273804
-1.134776 32.522476 410.273804
-1.131442 33.093502 409.068451
-1.131442 33.760071 409.068451
-1.130488 34.397629 408.723694
-1.129892 35.045155 408.508240
-1.129892 35.710815 408.508240
-1.129198 36.354137 408.257416
-1.128448 36.994774 407.985962
-1.128448 37.659580 407.985962
-1.127858 38.304356 407.772675
-1.131252 39.086105 409.000000
-1.131252 39.752567 409.000000
-1.131252 40.419025 409.000000
-1.131252 41.085487 409.000000
-1.131252 41.751945 409.000000
-1.128487 42.314693 408.000000
-1.125721 42.874184 407.000000
-1.125721 43.537384 407.000000
-1.125721 44.200584 407.000000
-1.122955 44.753555 406.000000
-1.120189 45.303268 405.000000
-1.120189 45.963211 405.000000
-1.120189 46.623154 405.000000
-1.117423 47.166344 404.000000
-1.117423 47.824657 404.000000
-1.114657 48.362965 403.000000
-1.111891 48.898014 402.000000
-1.111891 49.553066 402.000000
-1.109125 50.083221 401.000000
-1.109125 50.736649 401.000000
-1.109125 51.390072 401.000000
-1.106359 51.913715 400.000000
-1.106359 52.565510 400.000000
-1.106359 53.217304 400.000000
-1.100827 53.599751 398.000000
-1.095296 53.975685 396.000000
-1.095296 54.620964 396.000000
-1.095296 55.266239 396.000000
-1.095296 55.911518 396.000000
-1.095296 56.556793 396.000000
-1.092530 57.057621 395.000000
-1.086998 57.409107 393.000000
-1.086998 58.049496 393.000000
-1.084232 58.540550 392.000000
-1.084232 59.179310 392.000000
-1.084232 59.818066 392.000000
-1.081466 60.302597 391.000000
-1.081466 60.939728 391.000000
-1.081466 61.576859 391.000000
-1.078700 62.054871 390.000000
-1.078700 62.690369 390.000000
-1.073169 63.001125 388.000000
-1.073169 63.633366 388.000000
-1.073169 64.265610 388.000000
-1.073169 64.897850 388.000000
-1.073169 65.530090 388.000000
-1.070403 65.991806 387.000000
-1.067637 66.450264 386.000000
-1.067637 67.079247 386.000000
-1.067637 67.708229 386.000000
-1.064871 68.160179 385.000000
-1.064871 68.787529 385.000000
-1.059339 69.054283 383.000000
-1.056573 69.496452 382.000000
-1.056573 70.118919 382.000000
-1.056573 70.741379 382.000000
-1.051041 70.990211 380.000000
-1.051041 71.609413 380.000000
-1.048275 72.038544 379.000000
-1.045510 72.464417 378.000000
-1.045510 73.080360 378.000000
-1.042744 73.501343 377.000000
-1.039978 73.919067 376.000000
-1.039978 74.531754 376.000000
-1.037212 74.944595 375.000000
-1.034446 75.354164 374.000000
-1.034446 75.963593 374.000000
-1.034446 76.573021 374.000000
-1.031680 76.976082 373.000000
-1.031680 77.583878 373.000000
-1.031680 78.191673 373.000000
-1.028914 78.588211 372.000000
-1.026148 78.981499 371.000000
-1.026148 79.586037 371.000000
-1.023382 79.974434 370.000000
-1.020616 80.359566 369.000000
-1.020616 80.960846 369.000000
-1.020616 81.562126 369.000000
-1.020616 82.163406 369.000000
-1.020616 82.764687 369.000000
-1.015085 82.914124 367.000000
-1.009553 83.057030 365.000000
-1.009553 83.651794 365.000000
-1.004021 83.784935 363.000000
-0.998489 83.911560 361.000000
-0.998489 84.499802 361.000000
-0.998489 85.088051 361.000000
-0.995723 85.438965 360.000000
-0.995723 86.025574 360.000000
-0.990192 86.131020 358.000000
-0.987426 86.472153 357.000000
-0.987426 87.053879 357.000000
-0.981894 87.144646 355.000000
-0.979128 87.476013 354.000000
-0.979128 88.052849 354.000000
-0.979128 88.629692 354.000000
-0.979128 89.206528 354.000000
-0.979128 89.783363 354.000000
-0.976362 90.104950 353.000000
-0.970830 90.166389 351.000000
-0.970830 90.738342 351.000000
-0.968064 91.050148 350.000000
-0.965298 91.358688 349.000000
-0.965298 91.927383 349.000000
-0.962533 92.231041 348.000000
-0.959767 92.531448 347.000000
-0.957001 92.828583 346.000000
-0.957001 93.392387 346.000000
-0.957001 93.956192 346.000000
-0.954235 94.246811 345.000000
-0.954235 94.808983 345.000000
-0.948703 94.818283 343.000000
-0.945937 95.099129 342.000000
-0.945937 95.656410 342.000000
-0.945937 96.213699 342.000000
-0.940405 96.205070 340.000000
-0.940405 96.759102 340.000000
-0.937639 97.026909 339.000000
-0.937639 97.579308 339.000000
-0.937639 98.131699 339.000000
-0.934874 98.392990 338.000000
-0.932108 98.651031 337.000000
-0.932108 99.200165 337.000000
-0.929342 99.453308 336.000000
-0.929342 100.000816 336.000000
-0.929342 100.548325 336.000000
-0.923810 100.494072 334.000000
-0.921044 100.735809 333.000000
-0.921044 101.278435 333.000000
-0.921044 101.821053 333.000000
-0.918278 102.056267 332.000000
-0.918278 102.597260 332.000000
-0.915512 102.827591 331.000000
-0.912746 103.054665 330.000000
-0.912746 103.592400 330.000000
-0.909981 103.814583 329.000000
-0.909981 104.350685 329.000000
-0.909981 104.886787 329.000000
-0.907215 105.102448 328.000000
-0.904449 105.314857 327.000000
-0.904449 105.847702 327.000000
-0.904449 106.380539 327.000000
-0.901683 106.586433 326.000000
-0.898917 106.789063 325.000000
-0.898917 107.318649 325.000000
-0.896151 107.516388 324.000000
-0.893385 107.710869 323.000000
-0.893385 108.237198 323.000000
-0.893385 108.763519 323.000000
-0.890619 108.951485 322.000000
-0.890619 109.476181 322.000000
-0.885087 109.317650 320.000000
-0.885087 109.839081 320.000000
-0.885087 110.360519 320.000000
-0.885087 110.881958 320.000000
-0.882322 111.055252 319.000000
-0.882322 111.575058 319.000000
-0.876790 111.392075 317.000000
-0.876790 111.908623 317.000000
-0.876790 112.425171 317.000000
-0.876790 112.941719 317.000000
-0.871258 112.742432 315.000000
-0.871258 113.255722 315.000000
-0.868492 113.407852 314.000000
-0.868492 113.919510 314.000000
-0.868492 114.431168 314.000000
-0.865726 114.576767 313.000000
-0.862960 114.719109 312.000000
-0.862960 115.227509 312.000000
-0.860194 115.364952 311.000000
-0.860194 115.871727 311.000000
-0.860194 116.378494 311.000000
-0.857428 116.509430 310.000000
-0.854663 116.637100 309.000000
-0.854663 117.140610 309.000000
-0.851897 117.263397 308.000000
-0.849131 117.382935 307.000000
-0.846365 117.499199 306.000000
-0.846365 117.997826 306.000000
-0.846365 118.496445 306.000000
-0.843599 118.606194 305.000000
-0.843599 119.103188 305.000000
-0.840833 119.208054 304.000000
-0.838067 119.309654 303.000000
-0.838067 119.803383 303.000000
-0.838067 120.297119 303.000000
-0.835301 120.392204 302.000000
-0.835301 120.884308 302.000000
-0.835301 121.376411 302.000000
-0.832535 121.464981 301.000000
-0.832535 121.955452 301.000000
-0.832535 122.445930 301.000000
-0.827004 122.119560 299.000000
-0.827004 122.606781 299.000000
-0.827004 123.093994 299.000000
-0.824238 123.167892 298.000000
-0.824238 123.653481 298.000000
-0.821472 123.722496 297.000000
-0.821472 124.206451 297.000000
-0.821472 124.690407 297.000000
-0.821472 125.174370 297.000000
-0.818706 125.235229 296.000000
-0.818706 125.717560 296.000000
-0.815940 125.773537 295.000000
-0.815940 126.254234 295.000000
-0.815940 126.734932 295.000000
-0.815940 127.215630 295.000000
-0.813174 127.263474 294.000000
-0.813174 127.742538 294.000000
-0.813174 128.221603 294.000000
-0.813174 128.700684 294.000000
-0.810408 128.740356 293.000000
-0.810408 129.217804 293.000000
-0.810408 129.695236 293.000000
-0.807642 129.728409 292.000000
-0.807642 130.204208 292.000000
-0.807642 130.680023 292.000000
-0.807642 131.155838 292.000000
-0.807642 131.631638 292.000000
-0.807642 132.107452 292.000000
-0.804876 132.129211 291.000000
-0.804876 132.603394 291.000000
-0.804876 133.077576 291.000000
-0.804876 133.551758 291.000000
-0.804876 134.025940 291.000000
-0.804876 134.500107 291.000000
-0.802110 134.510468 290.000000
-0.802110 134.983017 290.000000
-0.802110 135.455566 290.000000
-0.803789 136.212540 290.606812
-0.803789 136.686081 290.606812
-0.803789 137.159622 290.606812
-0.466546 31.185402 410.273804
-0.466546 31.853941 410.273804
-0.466546 32.522476 410.273804
-0.465175 33.093502 409.068451
-0.465175 33.760071 409.068451
-0.464783 34.397629 408.723694
-0.464538 35.045155 408.508240
-0.464538 35.710815 408.508240
-0.464253 36.354137 408.257416
-0.463944 36.994774 407.985962
-0.463944 37.659580 407.985962
-0.463701 38.304356 407.772675
-0.465097 39.086105 409.000000
-0.465097 39.752567 409.000000
-0.465097 40.419025 409.000000
-0.465097 41.085487 409.000000
-0.465097 41.751945 409.000000
-0.463960 42.314693 408.000000
-0.462823 42.874184 407.000000
-0.462823 43.537384 407.000000
-0.462823 44.200584 407.000000
-0.461686 44.753555 406.000000
-0.460548 45.303268 405.000000
-0.460548 45.963211 405.000000
-0.460548 46.623154 405.000000
-0.459411 47.166344 404.000000
-0.459411 47.824657 404.000000
-0.458274 48.362965 403.000000
-0.457137 48.898014 402.000000
-0.457137 49.553066 402.000000
-0.456000 50.083221 401.000000
-0.456000 50.736649 401.000000
-0.456000 51.390072 401.000000
-0.454863 51.913715 400.000000
-0.454863 52.565510 400.000000
-0.454863 53.217304 400.000000
-0.453726 53.734428 399.000000
-0.450314 53.975685 396.000000
-0.450314 54.620964 396.000000
-0.450314 55.266239 396.000000
-0.450314 55.911518 396.000000
-0.450314 56.556793 396.000000
-0.449177 57.057621 395.000000
-0.448040 57.555187 394.000000
-0.448040 58.197205 394.000000
-0.446903 58.689884 393.000000
-0.445765 59.179310 392.000000
-0.445765 59.818066 392.000000
-0.444628 60.302597 391.000000
-0.444628 60.939728 391.000000
-0.444628 61.576859 391.000000
-0.443491 62.054871 390.000000
-0.443491 62.690369 390.000000
-0.441217 63.001125 388.000000
-0.441217 63.633366 388.000000
-0.441217 64.265610 388.000000
-0.441217 64.897850 388.000000
-0.441217 65.530090 388.000000
-0.440080 65.991806 387.000000
-0.438942 66.450264 386.000000
-0.438942 67.079247 386.000000
-0.438942 67.708229 386.000000
-0.437805 68.160179 385.000000
-0.437805 68.787529 385.000000
-0.435531 69.054283 383.000000
-0.434394 69.496452 382.000000
-0.434394 70.118919 382.000000
-0.434394 70.741379 382.000000
-0.432120 70.990211 380.000000
-0.432120 71.609413 380.000000
-0.430982 72.038544 379.000000
-0.429845 72.464417 378.000000
-0.429845 73.080360 378.000000
-0.428708 73.501343 377.000000
-0.427571 73.919067 376.000000
-0.427571 74.531754 376.000000
-0.426434 74.944595 375.000000
-0.425297 75.354164 374.000000
-0.425297 75.963593 374.000000
-0.425297 76.573021 374.000000
-0.424159 76.976082 373.000000
-0.426994 78.102364 375.492706
-0.426994 78.714218 375.492706
-0.426994 79.326080 375.492706
-0.425454 79.649658 374.138550
-0.425454 80.259308 374.138550
-0.423805 80.555550 372.688538
-0.422276 80.869888 371.343353
-0.422276 81.474991 371.343353
-0.420853 81.803612 370.092529
-0.419328 82.108063 368.751465
-0.419328 82.708946 368.751465
-0.417469 82.940514 367.116821
-0.413925 82.829483 364.000000
-0.413925 83.422615 364.000000
-0.411651 83.554123 362.000000
-0.410514 83.911560 361.000000
-0.410514 84.499802 361.000000
-0.409376 84.852348 360.000000
-0.409376 85.438965 360.000000
-0.409376 86.025574 360.000000
-0.407102 86.131020 358.000000
-0.405965 86.472153 357.000000
-0.405965 87.053879 357.000000
-0.403691 87.144646 355.000000
-0.402553 87.476013 354.000000
-0.402553 88.052849 354.000000
-0.402553 88.629692 354.000000
-0.402553 89.206528 354.000000
-0.402553 89.783363 354.000000
-0.401416 90.104950 353.000000
-0.399142 90.166389 351.000000
-0.399142 90.738342 351.000000
-0.398005 91.050148 350.000000
-0.396868 91.358688 349.000000
-0.396868 91.927383 349.000000
-0.394593 91.966011 347.000000
-0.394593 92.531448 347.000000
-0.393456 92.828583 346.000000
-0.393456 93.392387 346.000000
-0.393456 93.956192 346.000000
-0.392319 94.246811 345.000000
-0.392319 94.808983 345.000000
-0.390045 94.818283 343.000000
-0.388908 95.099129 342.000000
-0.388908 95.656410 342.000000
-0.387770 95.932373 341.000000
-0.386633 96.205070 340.000000
-0.386633 96.759102 340.000000
-0.385496 97.026909 339.000000
-0.384359 97.291458 338.000000
-0.384359 97.842224 338.000000
-0.383222 98.101891 337.000000
-0.383222 98.651031 337.000000
-0.383222 99.200165 337.000000
-0.382085 99.453308 336.000000
-0.382085 100.000816 336.000000
-0.382085 100.548325 336.000000
-0.379810 100.494072 334.000000
-0.378673 100.735809 333.000000
-0.378673 101.278435 333.000000
-0.378673 101.821053 333.000000
-0.377536 102.056267 332.000000
-0.377536 102.597260 332.000000
-0.376399 102.827591 331.000000
-0.375262 103.054665 330.000000
-0.375262 103.592400 330.000000
-0.374125 103.814583 329.000000
-0.374125 104.350685 329.000000
-0.374125 104.886787 329.000000
-0.372987 105.102448 328.000000
-0.371850 105.314857 327.000000
-0.371850 105.847702 327.000000
-0.371850 106.380539 327.000000
-0.370713 106.586433 326.000000
-0.369576 106.789063 325.000000
-0.369576 107.318649 325.000000
-0.367302 107.184547 323.000000
-0.367302 107.710869 323.000000
-0.367302 108.237198 323.000000
-0.366164 108.426788 322.000000
-0.365027 108.613136 321.000000
-0.365027 109.136200 321.000000
-0.363890 109.317650 320.000000
-0.363890 109.839081 320.000000
-0.363890 110.360519 320.000000
-0.362753 110.535446 319.000000
-0.362753 111.055252 319.000000
-0.362753 111.575058 319.000000
-0.360479 111.392075 317.000000
-0.360479 111.908623 317.000000
-0.360479 112.425171 317.000000
-0.359342 112.585434 316.000000
-0.358204 112.742432 315.000000
-0.358204 113.255722 315.000000
-0.357067 113.407852 314.000000
-0.357067 113.919510 314.000000
-0.357067 114.431168 314.000000
-0.355930 114.576767 313.000000
-0.354793 114.719109 312.000000
-0.354793 115.227509 312.000000
-0.353656 115.364952 311.000000
-0.353656 115.871727 311.000000
-0.353656 116.378494 311.000000
-0.352519 116.509430 310.000000
-0.350244 116.259636 308.000000
-0.350244 116.761513 308.000000
-0.350244 117.263397 308.000000
-0.349107 117.382935 307.000000
-0.349107 117.883186 307.000000
-0.349107 118.383438 307.000000
-0.347970 118.496445 306.000000
-0.346833 118.606194 305.000000
-0.346833 119.103188 305.000000
-0.346833 119.600182 305.000000
-0.345696 119.703415 304.000000
-0.345696 120.198776 304.000000
-0.344558 120.297119 303.000000
-0.344558 120.790855 303.000000
-0.344558 121.284592 303.000000
-0.343421 121.376411 302.000000
-0.342284 121.464981 301.000000
-0.342284 121.955452 301.000000
-0.342284 122.445930 301.000000
-0.341147 122.527992 300.000000
-0.341147 123.016838 300.000000
-0.340010 123.093994 299.000000
-0.338873 123.167892 298.000000
-0.338873 123.653481 298.000000
-0.338873 124.139069 298.000000
-0.337736 124.206451 297.000000
-0.337736 124.690407 297.000000
-0.337736 125.174370 297.000000
-0.336598 125.235229 296.000000
-0.336598 125.717560 296.000000
-0.335461 125.773537 295.000000
-0.335461 126.254234 295.000000
-0.335461 126.734932 295.000000
-0.335461 127.215630 295.000000
-0.334324 127.263474 294.000000
-0.334324 127.742538 294.000000
-0.334324 128.221603 294.000000
-0.334324 128.700684 294.000000
-0.333187 128.740356 293.000000
-0.333187 129.217804 293.000000
-0.333187 129.695236 293.000000
-0.332050 129.728409 292.000000
-0.332050 130.204208 292.000000
-0.332050 130.680023 292.000000
-0.332050 131.155838 292.000000
-0.332050 131.631638 292.000000
-0.332050 132.107452 292.000000
-0.330913 132.129211 291.000000
-0.330913 132.603394 291.000000
-0.330913 133.077576 291.000000
-0.330913 133.551758 291.000000
-0.330913 134.025940 291.000000
-0.330913 134.500107 291.000000
-0.329775 134.510468 290.000000
-0.329775 134.983017 290.000000
-0.329775 135.455566 290.000000
-0.329775 135.928116 290.000000
-0.329775 136.400665 290.000000
-0.329775 136.873215 290.000000
0.201684 31.185402 410.273804
0.201684 31.853941 410.273804
0.201684 32.522476 410.273804
0.201260 33.121208 409.410950
0.201260 33.788338 409.410950
0.200922 34.397629 408.723694
0.200816 35.045155 408.508240
0.200816 35.710815 408.508240
0.200693 36.354137 408.257416
0.200560 36.994774 407.985962
0.200560 37.659580 407.985962
0.200455 38.304356 407.772675
0.201058 39.086105 409.000000
0.201058 39.752567 409.000000
0.201058 40.419025 409.000000
0.201058 41.085487 409.000000
0.201058 41.751945 409.000000
0.200567 42.314693 408.000000
0.200075 42.874184 407.000000
0.200075 43.537384 407.000000
0.200075 44.200584 407.000000
0.199583 44.753555 406.000000
0.199092 45.303268 405.000000
0.199092 45.963211 405.000000
0.199092 46.623154 405.000000
0.198600 47.166344 404.000000
0.198600 47.824657 404.000000
0.198109 48.362965 403.000000
0.197617 48.898014 402.000000
0.197617 49.553066 402.000000
0.197126 50.083221 401.000000
0.197126 50.736649 401.000000
0.197126 51.390072 401.000000
0.196634 51.913715 400.000000
0.196634 52.565510 400.000000
0.196634 53.217304 400.000000
0.196142 53.734428 399.000000
0.194668 53.975685 396.000000
0.194668 54.620964 396.000000
0.194668 55.266239 396.000000
0.194668 55.911518 396.000000
0.194668 56.556793 396.000000
0.194176 57.057621 395.000000
0.193684 57.555187 394.000000
0.193684 58.197205 394.000000
0.193193 58.689884 393.000000
0.192701 59.179310 392.000000
0.192701 59.818066 392.000000
0.192210 60.302597 391.000000
0.192210 60.939728 391.000000
0.192210 61.576859 391.000000
0.191718 62.054871 390.000000
0.191718 62.690369 390.000000
0.190735 63.001125 388.000000
0.190735 63.633366 388.000000
0.190735 64.265610 388.000000
0.190735 64.897850 388.000000
0.190735 65.530090 388.000000
0.190243 65.991806 387.000000
0.189752 66.450264 386.000000
0.189752 67.079247 386.000000
0.189752 67.708229 386.000000
0.189260 68.160179 385.000000
0.189260 68.787529 385.000000
0.188769 69.234581 384.000000
0.187785 69.496452 382.000000
0.187785 70.118919 382.000000
0.189506 71.389534 385.500000
0.189506 72.017700 385.500000
0.189506 72.645866 385.500000
0.189383 73.226517 385.250000
0.189248 73.801559 384.975006
0.189248 74.428871 384.975006
0.189148 75.016693 384.772491
0.189039 75.599884 384.549744
0.189039 76.226509 384.549744
0.188968 76.824142 384.404724
0.188889 77.418388 384.245209
0.188889 78.044510 384.245209
0.188852 78.655174 384.169708
0.185699 77.957481 377.755554
0.185699 78.573036 377.755554
0.185185 78.969429 376.710114
0.184587 79.326080 375.492706
0.183921 79.649658 374.138550
0.183921 80.259308 374.138550
0.183208 80.555550 372.688538
0.182547 80.869888 371.343353
0.182547 81.474991 371.343353
0.181932 81.803612 370.092529
0.181273 82.108063 368.751465
0.181273 82.708946 368.751465
0.180469 82.940514 367.116821
0.180304 83.462120 366.780182
0.180304 84.059784 366.780182
0.179221 84.148933 364.577026
0.177462 83.911560 361.000000
0.177462 84.499802 361.000000
0.176971 84.852348 360.000000
0.176479 85.201630 359.000000
0.176479 85.786613 359.000000
0.175987 86.131020 358.000000
0.175004 86.229935 356.000000
0.175004 86.810028 356.000000
0.174513 87.144646 355.000000
0.174021 87.476013 354.000000
0.174021 88.052849 354.000000
0.174021 88.629692 354.000000
0.173529 88.954529 353.000000
0.173529 89.529739 353.000000
0.173529 90.104950 353.000000
0.172546 90.166389 351.000000
0.172546 90.738342 351.000000
0.172055 91.050148 350.000000
0.171563 91.358688 349.000000
0.171563 91.927383 349.000000
0.170580 91.966011 347.000000
0.170580 92.531448 347.000000
0.170088 92.828583 346.000000
0.170088 93.392387 346.000000
0.170088 93.956192 346.000000
0.169597 94.246811 345.000000
0.169597 94.808983 345.000000
0.168614 94.818283 343.000000
0.168122 95.099129 342.000000
0.168122 95.656410 342.000000
0.167630 95.932373 341.000000
0.167139 96.205070 340.000000
0.167139 96.759102 340.000000
0.166647 97.026909 339.000000
0.166156 97.291458 338.000000
0.166156 97.842224 338.000000
0.165664 98.101891 337.000000
0.165173 98.358292 336.000000
0.165173 98.905800 336.000000
0.165173 99.453308 336.000000
0.164681 99.703194 335.000000
0.164681 100.249069 335.000000
0.164189 100.494072 334.000000
0.163698 100.735809 333.000000
0.163698 101.278435 333.000000
0.163698 101.821053 333.000000
0.163206 102.056267 332.000000
0.163206 102.597260 332.000000
0.162715 102.827591 331.000000
0.162223 103.054665 330.000000
0.162223 103.592400 330.000000
0.161731 103.814583 329.000000
0.161731 104.350685 329.000000
0.161731 104.886787 329.000000
0.161240 105.102448 328.000000
0.160748 105.314857 327.000000
0.160748 105.847702 327.000000
0.160748 106.380539 327.000000
0.160257 106.586433 326.000000
0.159765 106.789063 325.000000
0.159765 107.318649 325.000000
0.158782 107.184547 323.000000
0.158782 107.710869 323.000000
0.158782 108.237198 323.000000
0.157799 108.090073 321.000000
0.157799 108.613136 321.000000
0.157799 109.136200 321.000000
0.157307 109.317650 320.000000
0.157307 109.839081 320.000000
0.157307 110.360519 320.000000
0.156816 110.535446 319.000000
0.156324 110.707115 318.000000
0.156324 111.225296 318.000000
0.155832 111.392075 317.000000
0.155832 111.908623 317.000000
0.155832 112.425171 317.000000
0.155341 112.585434 316.000000
0.154849 112.742432 315.000000
0.154849 113.255722 315.000000
0.154358 113.407852 314.000000
0.154358 113.919510 314.000000
0.154358 114.431168 314.000000
0.153866 114.576767 313.000000
0.153374 114.719109 312.000000
0.153374 115.227509 312.000000
0.152883 115.364952 311.000000
0.152883 115.871727 311.000000
0.152883 116.378494 311.000000
0.152391 116.509430 310.000000
0.151408 116.259636 308.000000
0.151408 116.761513 308.000000
0.151408 117.263397 308.000000
0.150917 117.382935 307.000000
0.150917 117.883186 307.000000
0.150917 118.383438 307.000000
0.150425 118.496445 306.000000
0.149933 118.606194 305.000000
0.149933 119.103188 305.000000
0.149933 119.600182 305.000000
0.149442 119.703415 304.000000
0.149442 120.198776 304.000000
0.148950 120.297119 303.000000
0.148950 120.790855 303.000000
0.148950 121.284592 303.000000
0.148459 121.376411 302.000000
0.147967 121.464981 301.000000
0.147967 121.955452 301.000000
0.147475 122.039146 300.000000
0.147475 122.527992 300.000000
0.147475 123.016838 300.000000
0.146984 123.093994 299.000000
0.146984 123.581215 299.000000
0.146984 124.068428 299.000000
0.146492 124.139069 298.000000
0.146001 124.206451 297.000000
0.146001 124.690407 297.000000
0.146001 125.174370 297.000000
0.146001 125.658325 297.000000
0.146001 126.142281 297.000000
0.145018 125.773537 295.000000
0.145018 126.254234 295.000000
0.145018 126.734932 295.000000
0.145018 127.215630 295.000000
0.144526 127.263474 294.000000
0.144526 127.742538 294.000000
0.144526 128.221603 294.000000
0.144526 128.700684 294.000000
0.144526 129.179749 294.000000
0.144526 129.658813 294.000000
0.144034 129.695236 293.000000
0.144034 130.172684 293.000000
0.144034 130.650116 293.000000
0.143543 130.680023 292.000000
0.143543 131.155838 292.000000
0.143543 131.631638 292.000000
0.143543 132.107452 292.000000
0.143051 132.129211 291.000000
0.143051 132.603394 291.000000
0.143051 133.077576 291.000000
0.143051 133.551758 291.000000
0.143051 134.025940 291.000000
0.143051 134.500107 291.000000
0.142560 134.510468 290.000000
0.142560 134.983017 290.000000
0.142560 135.455566 290.000000
0.142560 135.928116 290.000000
0.142560 136.400665 290.000000
0.142560 136.873215 290.000000
0.869679 31.176960 410.162689
0.869679 31.845314 410.162689
0.869679 32.513668 410.162689
0.868085 33.121208 409.410950
0.868085 33.788338 409.410950
0.866003 34.372822 408.428955
0.865359 35.012306 408.125336
0.865359 35.677341 408.125336
0.864908 36.323448 407.912781
0.864394 36.966125 407.670044
0.864394 37.630421 407.670044
0.863838 38.270088 407.407898
0.867214 39.086105 409.000000
0.867214 39.752567 409.000000
0.867214 40.419025 409.000000
0.865093 40.985031 408.000000
0.865093 41.649864 408.000000
0.865093 42.314693 408.000000
0.862973 42.874184 407.000000
0.862973 43.537384 407.000000
0.860853 44.091984 406.000000
0.860853 44.753555 406.000000
0.858732 45.303268 405.000000
0.858732 45.963211 405.000000
0.856612 46.508034 404.000000
0.854492 47.049599 403.000000
0.854492 47.706284 403.000000
0.852371 48.242958 402.000000
0.852371 48.898014 402.000000
0.852371 49.553066 402.000000
0.850251 50.083221 401.000000
0.850251 50.736649 401.000000
0.850251 51.390072 401.000000
0.848131 51.913715 400.000000
0.848131 52.565510 400.000000
0.848131 53.217304 400.000000
0.846010 53.734428 399.000000
0.841770 54.111984 397.000000
0.841770 54.758892 397.000000
0.839649 55.266239 396.000000
0.839649 55.911518 396.000000
0.839649 56.556793 396.000000
0.837529 57.057621 395.000000
0.835409 57.555187 394.000000
0.835409 58.197205 394.000000
0.833288 58.689884 393.000000
0.831168 59.179310 392.000000
0.831168 59.818066 392.000000
0.829048 60.302597 391.000000
0.829048 60.939728 391.000000
0.829048 61.576859 391.000000
0.826927 62.054871 390.000000
0.826927 62.690369 390.000000
0.822687 63.001125 388.000000
0.822687 63.633366 388.000000
0.822687 64.265610 388.000000
0.822687 64.897850 388.000000
0.822687 65.530090 388.000000
0.820566 65.991806 387.000000
0.818446 66.450264 386.000000
0.818446 67.079247 386.000000
0.818446 67.708229 386.000000
0.816326 68.160179 385.000000
0.816326 68.787529 385.000000
0.814205 69.234581 384.000000
0.809965 69.496452 382.000000
0.809965 70.118919 382.000000
0.817386 71.389534 385.500000
0.817386 72.017700 385.500000
0.817386 72.645866 385.500000
0.816856 73.226517 385.250000
0.816273 73.801559 384.975006
0.816273 74.428871 384.975006
0.815843 75.016693 384.772491
0.815371 75.599884 384.549744
0.815371 76.226509 384.549744
0.815064 76.824142 384.404724
0.814725 77.418388 384.245209
0.814725 78.044510 384.245209
0.814565 78.655174 384.169708
0.806811 78.526451 380.512573
0.806811 79.146492 380.512573
0.806811 79.766533 380.512573
0.803292 80.035934 378.852844
0.799652 80.287849 377.136353
0.799652 80.902390 377.136353
0.795902 81.134621 375.367584
0.792419 81.388611 373.725220
0.792419 81.997589 373.725220
0.789264 82.277649 372.237122
0.785986 82.539925 370.690948
0.785986 83.143959 370.690948
0.781944 83.317360 368.784851
0.777694 83.462120 366.780182
0.777694 84.059784 366.780182
0.773022 84.148933 364.577026
0.765438 83.911560 361.000000
0.765438 84.499802 361.000000
0.763318 84.852348 360.000000
0.761197 85.201630 359.000000
0.761197 85.786613 359.000000
0.756957 85.890427 357.000000
0.754836 86.229935 356.000000
0.754836 86.810028 356.000000
0.752716 87.144646 355.000000
0.750596 87.476013 354.000000
0.750596 88.052849 354.000000
0.750596 88.629692 354.000000
0.748475 88.954529 353.000000
0.748475 89.529739 353.000000
0.748475 90.104950 353.000000
0.744235 90.166389 351.000000
0.744235 90.738342 351.000000
0.742114 91.050148 350.000000
0.737874 91.096916 348.000000
0.737874 91.663979 348.000000
0.735753 91.966011 347.000000
0.733633 92.264786 346.000000
0.733633 92.828583 346.000000
0.733633 93.392387 346.000000
0.731513 93.684639 345.000000
0.729392 93.973640 344.000000
0.729392 94.534180 344.000000
0.727272 94.818283 343.000000
0.725152 95.099129 342.000000
0.725152 95.656410 342.000000
0.723031 95.932373 341.000000
0.720911 96.205070 340.000000
0.720911 96.759102 340.000000
0.718791 97.026909 339.000000
0.716670 97.291458 338.000000
0.716670 97.842224 338.000000
0.714550 98.101891 337.000000
0.712430 98.358292 336.000000
0.712430 98.905800 336.000000
0.712430 99.453308 336.000000
0.710309 99.703194 335.000000
0.710309 100.249069 335.000000
0.706069 100.193192 333.000000
0.706069 100.735809 333.000000
0.706069 101.278435 333.000000
0.703948 101.515282 332.000000
0.701828 101.748871 331.000000
0.701828 102.288231 331.000000
0.701828 102.827591 331.000000
0.699708 103.054665 330.000000
0.699708 103.592400 330.000000
0.697587 103.814583 329.000000
0.697587 104.350685 329.000000
0.697587 104.886787 329.000000
0.695467 105.102448 328.000000
0.693347 105.314857 327.000000
0.693347 105.847702 327.000000
0.693347 106.380539 327.000000
0.691226 106.586433 326.000000
0.686986 106.460480 324.000000
0.686986 106.988434 324.000000
0.684865 107.184547 323.000000
0.682745 107.377396 322.000000
0.682745 107.902092 322.000000
0.680625 108.090073 321.000000
0.680625 108.613136 321.000000
0.680625 109.136200 321.000000
0.678504 109.317650 320.000000
0.678504 109.839081 320.000000
0.678504 110.360519 320.000000
0.676384 110.535446 319.000000
0.674264 110.707115 318.000000
0.674264 111.225296 318.000000
0.672143 111.392075 317.000000
0.672143 111.908623 317.000000
0.672143 112.425171 317.000000
0.670023 112.585434 316.000000
0.665783 112.384537 314.000000
0.665783 112.896194 314.000000
0.665783 113.407852 314.000000
0.663662 113.556709 313.000000
0.663662 114.066734 313.000000
0.663662 114.576767 313.000000
0.661542 114.719109 312.000000
0.661542 115.227509 312.000000
0.659422 115.364952 311.000000
0.657301 115.499146 310.000000
0.657301 116.004288 310.000000
0.655181 116.133591 309.000000
0.653061 116.259636 308.000000
0.653061 116.761513 308.000000
0.653061 117.263397 308.000000
0.650940 117.382935 307.000000
0.650940 117.883186 307.000000
0.650940 118.383438 307.000000
0.648820 118.496445 306.000000
0.646700 118.606194 305.000000
0.646700 119.103188 305.000000
0.646700 119.600182 305.000000
0.644579 119.703415 304.000000
0.644579 120.198776 304.000000
0.642459 120.297119 303.000000
0.642459 120.790855 303.000000
0.642459 121.284592 303.000000
0.640339 121.376411 302.000000
0.638218 121.464981 301.000000
0.638218 121.955452 301.000000
0.636098 122.039146 300.000000
0.636098 122.527992 300.000000
0.636098 123.016838 300.000000
0.633978 123.093994 299.000000
0.633978 123.581215 299.000000
0.633978 124.068428 299.000000
0.631857 124.139069 298.000000
0.629737 124.206451 297.000000
0.629737 124.690407 297.000000
0.629737 125.174370 297.000000
0.629737 125.658325 297.000000
0.629737 126.142281 297.000000
0.627617 126.199890 296.000000
0.625496 126.254234 295.000000
0.625496 126.734932 295.000000
0.625496 127.215630 295.000000
0.623376 127.263474 294.000000
0.623376 127.742538 294.000000
0.623376 128.221603 294.000000
0.623376 128.700684 294.000000
0.623376 129.179749 294.000000
0.623376 129.658813 294.000000
0.621256 129.695236 293.000000
0.621256 130.172684 293.000000
0.621256 130.650116 293.000000
0.619135 130.680023 292.000000
0.619135 131.155838 292.000000
0.619135 131.631638 292.000000
0.619135 132.107452 292.000000
0.619135 132.583267 292.000000
0.619135 133.059082 292.000000
0.617015 133.077576 291.000000
0.617015 133.551758 291.000000
0.617015 134.025940 291.000000
0.617015 134.500107 291.000000
0.614895 134.510468 290.000000
0.614895 134.983017 290.000000
0.614895 135.455566 290.000000
0.614895 135.928116 290.000000
0.614895 136.400665 290.000000
0.614895 136.873215 290.000000
0.614895 137.345779 290.000000
0.614895 137.818329 290.000000
1.537728 31.176960 410.162689
1.537728 31.845314 410.162689
1.537728 32.513668 410.162689
1.534909 33.121208 409.410950
1.534909 33.788338 409.410950
1.531228 34.372822 408.428955
1.530090 35.012306 408.125336
1.530090 35.677341 408.125336
1.529293 36.323448 407.912781
1.528383 36.966125 407.670044
1.528383 37.630421 407.670044
1.527400 38.270088 407.407898
1.533369 39.086105 409.000000
1.533369 39.752567 409.000000
1.533369 40.419025 409.000000
1.529620 40.985031 408.000000
1.529620 41.649864 408.000000
1.529620 42.314693 408.000000
1.525871 42.874184 407.000000
1.525871 43.537384 407.000000
1.522122 44.091984 406.000000
1.522122 44.753555 406.000000
1.518373 45.303268 405.000000
1.518373 45.963211 405.000000
1.514624 46.508034 404.000000
1.510874 47.049599 403.000000
1.510874 47.706284 403.000000
1.507125 48.242958 402.000000
1.503376 48.776375 401.000000
1.503376 49.429798 401.000000
1.503376 50.083221 401.000000
1.503376 50.736649 401.000000
1.503376 51.390072 401.000000
1.499627 51.913715 400.000000
1.499627 52.565510 400.000000
1.499627 53.217304 400.000000
1.495878 53.734428 399.000000
1.488380 54.111984 397.000000
1.488380 54.758892 397.000000
1.484631 55.266239 396.000000
1.484631 55.911518 396.000000
1.484631 56.556793 396.000000
1.480882 57.057621 395.000000
1.477133 57.555187 394.000000
1.477133 58.197205 394.000000
1.473384 58.689884 393.000000
1.469635 59.179310 392.000000
1.469635 59.818066 392.000000
1.471339 60.526932 392.454559
1.471339 61.166431 392.454559
1.471339 61.805927 392.454559
1.468349 62.318527 391.657013
1.465564 62.837315 390.914154
1.462823 63.355583 390.182983
1.462823 63.991383 390.182983
1.461491 64.568329 389.827667
1.459416 65.111008 389.274384
1.459416 65.745323 389.274384
1.457929 66.312004 388.877747
1.455182 66.819519 388.144928
1.455182 67.451996 388.144928
1.447140 67.708229 386.000000
1.459262 68.909645 389.233337
1.459262 69.543892 389.233337
1.459262 70.178146 389.233337
1.458055 70.753792 388.911224
1.458055 71.387520 388.911224
1.457025 71.970406 388.636658
1.456171 72.561127 388.408905
1.456171 73.194038 388.408905
1.455506 73.793221 388.231476
1.454908 74.395241 388.071869
1.454908 75.027603 388.071869
1.454457 75.636505 387.951599
1.454110 76.250465 387.859009
1.454110 76.882477 387.859009
1.454689 77.545357 388.013458
1.455819 78.238335 388.314789
1.455819 78.871086 388.314789
1.455819 79.503838 388.314789
1.455474 80.117638 388.222931
1.426568 79.146492 380.512573
1.426568 79.766533 380.512573
1.420345 80.035934 378.852844
1.415370 80.370750 377.525757
1.415370 80.985931 377.525757
1.415370 81.601105 377.525757
1.408511 81.817833 375.696167
1.408511 82.430023 375.696167
1.402289 82.675430 374.036774
1.395996 82.911133 372.358063
1.395996 83.517883 372.358063
1.386280 83.539154 369.766541
1.378221 83.652550 367.617035
1.378221 84.251579 367.617035
1.369364 84.305305 365.254486
1.361763 84.429230 363.227081
1.361763 85.021103 363.227081
1.345915 84.616646 359.000000
1.342166 84.964302 358.000000
1.342166 85.547661 358.000000
1.338417 85.890427 357.000000
1.334668 86.229935 356.000000
1.334668 86.810028 356.000000
1.330919 87.144646 355.000000
1.327170 87.476013 354.000000
1.327170 88.052849 354.000000
1.327170 88.629692 354.000000
1.323421 88.954529 353.000000
1.323421 89.529739 353.000000
1.323421 90.104950 353.000000
1.315923 90.166389 351.000000
1.315923 90.738342 351.000000
1.308425 90.790001 349.000000
1.300927 90.835152 347.000000
1.300927 91.400581 347.000000
1.300927 91.966011 347.000000
1.297178 92.264786 346.000000
1.293428 92.560295 345.000000
1.293428 93.122467 345.000000
1.289679 93.413094 344.000000
1.285930 93.700455 343.000000
1.285930 94.259369 343.000000
1.285930 94.818283 343.000000
1.282181 95.099129 342.000000
1.282181 95.656410 342.000000
1.274683 95.651047 340.000000
1.274683 96.205070 340.000000
1.274683 96.759102 340.000000
1.270934 97.026909 339.000000
1.263436 97.003616 337.000000
1.263436 97.552757 337.000000
1.263436 98.101891 337.000000
1.259687 98.358292 336.000000
1.259687 98.905800 336.000000
1.259687 99.453308 336.000000
1.255938 99.703194 335.000000
1.255938 100.249069 335.000000
1.248440 100.193192 333.000000
1.248440 100.735809 333.000000
1.248440 101.278435 333.000000
1.244691 101.515282 332.000000
1.240942 101.748871 331.000000
1.240942 102.288231 331.000000
1.240942 102.827591 331.000000
1.237192 103.054665 330.000000
1.237192 103.592400 330.000000
1.233443 103.814583 329.000000
1.233443 104.350685 329.000000
1.233443 104.886787 329.000000
1.229694 105.102448 328.000000
1.225945 105.314857 327.000000
1.222196 105.524010 326.000000
1.222196 106.055222 326.000000
1.218447 106.259483 325.000000
1.210949 106.131905 323.000000
1.210949 106.658226 323.000000
1.207200 106.852707 322.000000
1.203451 107.043938 321.000000
1.203451 107.567001 321.000000
1.203451 108.090073 321.000000
1.203451 108.613136 321.000000
1.203451 109.136200 321.000000
1.199702 109.317650 320.000000
1.199702 109.839081 320.000000
