93.851120 67.408012 364.000000
93.851120 68.001152 364.000000
93.851120 68.594284 364.000000
93.851120 69.187416 364.000000
93.851120 69.780548 364.000000
93.851120 70.373680 364.000000
93.851120 70.966812 364.000000
93.851120 71.559952 364.000000
93.851120 72.153084 364.000000
93.851120 72.746216 364.000000
93.851120 73.339348 364.000000
93.851120 73.932480 364.000000
93.593285 74.320877 363.000000
93.593285 74.912376 363.000000
93.593285 75.503883 363.000000
93.593285 76.095383 363.000000
93.593285 76.686890 363.000000
93.593285 77.278397 363.000000
93.593285 77.869896 363.000000
93.593285 78.461403 363.000000
93.593285 79.052902 363.000000
93.593285 79.644409 363.000000
93.593285 80.235916 363.000000
93.593285 80.827415 363.000000
93.593285 81.418922 363.000000
93.593285 82.010422 363.000000
93.335457 82.374374 362.000000
93.335457 82.964249 362.000000
93.335457 83.554123 362.000000
93.659637 84.436256 363.257324
93.659637 85.028175 363.257324
93.659637 85.620102 363.257324
93.443840 86.013382 362.420349
93.443840 86.603943 362.420349
93.501106 87.247940 362.642456
93.501106 87.838860 362.642456
93.501106 88.429787 362.642456
95.741287 -34.485073 369.000000
96.257126 -34.066353 370.988098
96.257126 -33.461830 370.988098
96.257126 -32.857311 370.988098
96.091110 -32.197166 370.348236
96.091110 -31.593685 370.348236
95.914360 -30.933208 369.667053
95.897057 -30.325365 369.600342
95.897057 -29.723106 369.600342
95.884079 -29.116905 369.550323
96.000748 -28.549427 370.000000
96.000748 -27.946516 370.000000
96.000748 -27.343607 370.000000
96.000748 -26.740696 370.000000
96.000748 -26.137785 370.000000
95.741287 -25.465862 369.000000
95.741287 -24.864582 369.000000
95.741287 -24.263300 369.000000
95.741287 -23.662020 369.000000
95.741287 -23.060740 369.000000
95.741287 -22.459457 369.000000
95.741287 -21.858177 369.000000
95.741287 -21.256897 369.000000
95.741287 -20.655615 369.000000
95.741287 -20.054335 369.000000
95.741287 -19.453054 369.000000
95.741287 -18.851772 369.000000
95.741287 -18.250492 369.000000
95.741287 -17.649212 369.000000
95.741287 -17.047930 369.000000
95.741287 -16.446650 369.000000
95.741287 -15.845369 369.000000
95.741287 -15.244088 369.000000
95.741287 -14.642807 369.000000
95.741287 -14.041527 369.000000
95.741287 -13.440246 369.000000
95.741287 -12.838964 369.000000
95.741287 -12.237683 369.000000
95.741287 -11.636402 369.000000
95.741287 -11.035122 369.000000
95.741287 -10.433841 369.000000
95.741287 -9.832560 369.000000
95.741287 -9.231279 369.000000
95.741287 -8.629998 369.000000
95.481834 -8.006960 368.000000
95.481834 -7.407308 368.000000
95.481834 -6.807657 368.000000
95.481834 -6.208005 368.000000
95.481834 -5.608354 368.000000
95.481834 -5.008703 368.000000
95.481834 -4.409051 368.000000
95.481834 -3.809400 368.000000
95.481834 -3.209749 368.000000
95.481834 -2.610097 368.000000
95.481834 -2.010446 368.000000
95.481834 -1.410795 368.000000
95.481834 -0.811143 368.000000
95.481834 -0.211492 368.000000
95.481834 0.388159 368.000000
95.481834 0.987811 368.000000
95.222366 1.583148 367.000000
95.222366 2.181170 367.000000
95.222366 2.779192 367.000000
95.222366 3.377214 367.000000
95.222366 3.975236 367.000000
95.222366 4.573258 367.000000
95.222366 5.171279 367.000000
95.222366 5.769301 367.000000
95.222366 6.367323 367.000000
95.222366 6.965345 367.000000
95.222366 7.563366 367.000000
95.222366 8.161388 367.000000
95.222366 8.759410 367.000000
95.222366 9.357432 367.000000
95.222366 9.955454 367.000000
95.222366 10.553476 367.000000
95.222366 11.151498 367.000000
95.222366 11.749519 367.000000
95.222366 12.347542 367.000000
95.222366 12.945563 367.000000
94.962906 13.506682 366.000000
94.962906 14.103075 366.000000
94.962906 14.699467 366.000000
94.962906 15.295859 366.000000
94.962906 15.892252 366.000000
94.962906 16.488644 366.000000
94.962906 17.085037 366.000000
94.962906 17.681429 366.000000
94.962906 18.277821 366.000000
94.962906 18.874214 366.000000
94.962906 19.470606 366.000000
94.962906 20.066998 366.000000
94.962906 20.663391 366.000000
94.962906 21.259783 366.000000
94.962906 21.856176 366.000000
94.962906 22.452568 366.000000
94.962906 23.048960 366.000000
94.962906 23.645353 366.000000
94.962906 24.241745 366.000000
94.962906 24.838137 366.000000
94.962906 25.434530 366.000000
94.962906 26.030922 366.000000
94.962906 26.627314 366.000000
94.962906 27.223705 366.000000
94.962906 27.820097 366.000000
94.962906 28.416491 366.000000
94.962906 29.012882 366.000000
94.962906 29.609274 366.000000
94.962906 30.205667 366.000000
94.962906 30.802059 366.000000
94.962906 31.398453 366.000000
94.962906 31.994844 366.000000
94.962906 32.591236 366.000000
94.703445 33.096954 365.000000
94.703445 33.691715 365.000000
94.703445 34.286480 365.000000
94.703445 34.881241 365.000000
94.703445 35.476006 365.000000
94.703445 36.070766 365.000000
94.703445 36.665531 365.000000
94.703445 37.260292 365.000000
94.703445 37.855057 365.000000
94.703445 38.449821 365.000000
94.703445 39.044582 365.000000
94.703445 39.639347 365.000000
94.703445 40.234108 365.000000
94.703445 40.828873 365.000000
94.703445 41.423634 365.000000
94.703445 42.018398 365.000000
94.703445 42.613159 365.000000
94.703445 43.207924 365.000000
94.703445 43.802685 365.000000
94.703445 44.397449 365.000000
94.703445 44.992210 365.000000
94.703445 45.586975 365.000000
94.703445 46.181736 365.000000
94.703445 46.776501 365.000000
94.703445 47.371262 365.000000
94.703445 47.966026 365.000000
94.703445 48.560787 365.000000
94.703445 49.155552 365.000000
94.703445 49.750313 365.000000
94.703445 50.345078 365.000000
94.703445 50.939838 365.000000
94.703445 51.534603 365.000000
94.703445 52.129368 365.000000
94.703445 52.724129 365.000000
94.703445 53.318893 365.000000
94.703445 53.913651 365.000000
94.703445 54.508415 365.000000
94.703445 55.103176 365.000000
94.703445 55.697941 365.000000
94.703445 56.292702 365.000000
94.703445 56.887466 365.000000
94.703445 57.482227 365.000000
94.703445 58.076992 365.000000
94.703445 58.671753 365.000000
94.703445 59.266518 365.000000
94.703445 59.861279 365.000000
94.443985 60.290413 364.000000
94.443985 60.883549 364.000000
94.443985 61.476681 364.000000
94.443985 62.069817 364.000000
94.184517 62.490795 363.000000
94.184517 63.082298 363.000000
94.184517 63.673805 363.000000
94.184517 64.265305 363.000000
94.184517 64.856812 363.000000
94.184517 65.448318 363.000000
94.184517 66.039818 363.000000
94.184517 66.631325 363.000000
94.184517 67.222824 363.000000
94.443985 68.001152 364.000000
94.443985 68.594284 364.000000
94.443985 69.187416 364.000000
94.184517 69.588844 363.000000
94.184517 70.180344 363.000000
94.184517 70.771851 363.000000
94.184517 71.363358 363.000000
94.184517 71.954857 363.000000
94.184517 72.546364 363.000000
94.184517 73.137863 363.000000
94.184517 73.729370 363.000000
93.925056 74.116135 362.000000
93.925056 74.706009 362.000000
93.925056 75.295883 362.000000
93.925056 75.885757 362.000000
93.925056 76.475632 362.000000
93.925056 77.065506 362.000000
93.925056 77.655380 362.000000
93.925056 78.245255 362.000000
93.925056 78.835129 362.000000
93.925056 79.425003 362.000000
93.925056 80.014877 362.000000
93.925056 80.604752 362.000000
93.925056 81.194626 362.000000
93.925056 81.784500 362.000000
93.925056 82.374374 362.000000
93.925056 82.964249 362.000000
93.925056 83.554123 362.000000
93.925056 84.143997 362.000000
93.925056 84.733871 362.000000
93.931786 85.329857 362.025909
93.931786 85.919769 362.025909
93.931786 86.509689 362.025909
93.959961 87.125732 362.134521
93.959961 87.715828 362.134521
93.959961 88.305923 362.134521
96.342293 -34.485073 369.000000
96.719513 -34.016460 370.444794
96.719513 -33.412830 370.444794
96.719513 -32.809193 370.444794
96.389450 -32.095654 369.180603
96.389450 -31.494076 369.180603
96.384735 -30.890991 369.162537
96.381195 -30.288332 369.148987
96.381195 -29.686810 369.148987
96.378418 -29.084450 369.138367
96.342293 -28.472265 369.000000
96.342293 -27.870983 369.000000
96.342293 -27.269703 369.000000
96.342293 -26.668425 369.000000
96.342293 -26.067142 369.000000
96.342293 -25.465862 369.000000
96.342293 -24.864582 369.000000
96.342293 -24.263300 369.000000
96.342293 -23.662020 369.000000
96.342293 -23.060740 369.000000
96.342293 -22.459457 369.000000
96.342293 -21.858177 369.000000
96.342293 -21.256897 369.000000
96.342293 -20.655615 369.000000
96.342293 -20.054335 369.000000
96.342293 -19.453054 369.000000
96.342293 -18.851772 369.000000
96.342293 -18.250492 369.000000
96.342293 -17.649212 369.000000
96.342293 -17.047930 369.000000
96.342293 -16.446650 369.000000
96.342293 -15.845369 369.000000
96.342293 -15.244088 369.000000
96.342293 -14.642807 369.000000
96.342293 -14.041527 369.000000
96.342293 -13.440246 369.000000
96.342293 -12.838964 369.000000
96.342293 -12.237683 369.000000
96.342293 -11.636402 369.000000
96.342293 -11.035122 369.000000
96.342293 -10.433841 369.000000
96.342293 -9.832560 369.000000
96.342293 -9.231279 369.000000
96.342293 -8.629998 369.000000
96.081207 -8.006960 368.000000
96.081207 -7.407308 368.000000
96.081207 -6.807657 368.000000
96.081207 -6.208005 368.000000
96.081207 -5.608354 368.000000
96.081207 -5.008703 368.000000
96.081207 -4.409051 368.000000
96.081207 -3.809400 368.000000
96.081207 -3.209749 368.000000
96.081207 -2.610097 368.000000
96.081207 -2.010446 368.000000
96.081207 -1.410795 368.000000
96.081207 -0.811143 368.000000
96.081207 -0.211492 368.000000
96.081207 0.388159 368.000000
95.820114 0.985126 367.000000
95.820114 1.583148 367.000000
95.820114 2.181170 367.000000
95.820114 2.779192 367.000000
95.820114 3.377214 367.000000
95.820114 3.975236 367.000000
95.820114 4.573258 367.000000
95.820114 5.171279 367.000000
95.820114 5.769301 367.000000
95.820114 6.367323 367.000000
95.820114 6.965345 367.000000
95.820114 7.563366 367.000000
95.820114 8.161388 367.000000
95.820114 8.759410 367.000000
95.820114 9.357432 367.000000
95.820114 9.955454 367.000000
95.820114 10.553476 367.000000
95.820114 11.151498 367.000000
95.559021 11.717505 366.000000
95.559021 12.313897 366.000000
95.559021 12.910290 366.000000
95.559021 13.506682 366.000000
95.559021 14.103075 366.000000
95.559021 14.699467 366.000000
95.559021 15.295859 366.000000
95.559021 15.892252 366.000000
95.559021 16.488644 366.000000
95.559021 17.085037 366.000000
95.559021 17.681429 366.000000
95.559021 18.277821 366.000000
95.559021 18.874214 366.000000
95.559021 19.470606 366.000000
95.559021 20.066998 366.000000
95.559021 20.663391 366.000000
95.559021 21.259783 366.000000
95.559021 21.856176 366.000000
95.559021 22.452568 366.000000
95.559021 23.048960 366.000000
95.559021 23.645353 366.000000
95.559021 24.241745 366.000000
95.559021 24.838137 366.000000
95.559021 25.434530 366.000000
95.559021 26.030922 366.000000
95.559021 26.627314 366.000000
95.559021 27.223705 366.000000
95.559021 27.820097 366.000000
95.559021 28.416491 366.000000
95.559021 29.012882 366.000000
95.297935 29.528376 365.000000
95.297935 30.123138 365.000000
95.297935 30.717901 365.000000
95.297935 31.312666 365.000000
95.297935 31.907429 365.000000
95.297935 32.502190 365.000000
95.297935 33.096954 365.000000
95.297935 33.691715 365.000000
95.297935 34.286480 365.000000
95.297935 34.881241 365.000000
95.297935 35.476006 365.000000
95.297935 36.070766 365.000000
95.297935 36.665531 365.000000
95.297935 37.260292 365.000000
95.297935 37.855057 365.000000
95.297935 38.449821 365.000000
95.297935 39.044582 365.000000
95.297935 39.639347 365.000000
95.297935 40.234108 365.000000
95.297935 40.828873 365.000000
95.297935 41.423634 365.000000
95.297935 42.018398 365.000000
95.297935 42.613159 365.000000
95.297935 43.207924 365.000000
95.297935 43.802685 365.000000
95.297935 44.397449 365.000000
95.297935 44.992210 365.000000
95.297935 45.586975 365.000000
95.297935 46.181736 365.000000
95.297935 46.776501 365.000000
95.297935 47.371262 365.000000
95.297935 47.966026 365.000000
95.297935 48.560787 365.000000
95.297935 49.155552 365.000000
95.297935 49.750313 365.000000
95.297935 50.345078 365.000000
95.297935 50.939838 365.000000
95.297935 51.534603 365.000000
95.297935 52.129368 365.000000
95.297935 52.724129 365.000000
95.297935 53.318893 365.000000
95.297935 53.913651 365.000000
95.297935 54.508415 365.000000
95.036850 54.952213 364.000000
95.036850 55.545349 364.000000
95.036850 56.138481 364.000000
95.036850 56.731613 364.000000
95.036850 57.324749 364.000000
95.036850 57.917881 364.000000
95.036850 58.511013 364.000000
95.036850 59.104149 364.000000
95.036850 59.697281 364.000000
95.036850 60.290413 364.000000
95.036850 60.883549 364.000000
95.036850 61.476681 364.000000
95.036850 62.069817 364.000000
94.775749 62.490795 363.000000
94.775749 63.082298 363.000000
94.775749 63.673805 363.000000
94.775749 64.265305 363.000000
94.775749 64.856812 363.000000
94.775749 65.448318 363.000000
94.775749 66.039818 363.000000
94.775749 66.631325 363.000000
94.775749 67.222824 363.000000
95.036850 68.001152 364.000000
95.036850 68.594284 364.000000
95.036850 69.187416 364.000000
94.775749 69.588844 363.000000
94.775749 70.180344 363.000000
94.775749 70.771851 363.000000
94.775749 71.363358 363.000000
94.775749 71.954857 363.000000
94.775749 72.546364 363.000000
94.775749 73.137863 363.000000
94.775749 73.729370 363.000000
94.514664 74.116135 362.000000
94.514664 74.706009 362.000000
94.514664 75.295883 362.000000
94.514664 75.885757 362.000000
94.514664 76.475632 362.000000
94.514664 77.065506 362.000000
94.514664 77.655380 362.000000
94.514664 78.245255 362.000000
94.514664 78.835129 362.000000
94.514664 79.425003 362.000000
94.514664 80.014877 362.000000
94.514664 80.604752 362.000000
94.514664 81.194626 362.000000
94.514664 81.784500 362.000000
94.514664 82.374374 362.000000
94.514664 82.964249 362.000000
94.514664 83.554123 362.000000
94.514664 84.143997 362.000000
94.514664 84.733871 362.000000
94.521423 85.329857 362.025909
94.521423 85.919769 362.025909
94.521423 86.509689 362.025909
94.549789 87.125732 362.134521
94.549789 87.715828 362.134521
94.549789 88.305923 362.134521
96.943306 -34.485073 369.000000
97.331215 -34.019379 370.476532
97.331215 -33.415691 370.476532
97.331215 -32.812004 370.476532
97.044785 -32.113533 369.386292
97.044785 -31.511625 369.386292
97.206017 -30.961067 370.000000
97.206017 -30.358158 370.000000
97.206017 -29.755247 370.000000
97.206017 -29.152338 370.000000
96.943306 -28.472265 369.000000
96.943306 -27.870983 369.000000
96.943306 -27.269703 369.000000
96.943306 -26.668425 369.000000
96.943306 -26.067142 369.000000
96.943306 -25.465862 369.000000
96.943306 -24.864582 369.000000
96.943306 -24.263300 369.000000
96.943306 -23.662020 369.000000
96.943306 -23.060740 369.000000
96.943306 -22.459457 369.000000
96.943306 -21.858177 369.000000
96.943306 -21.256897 369.000000
96.943306 -20.655615 369.000000
96.943306 -20.054335 369.000000
96.943306 -19.453054 369.000000
96.943306 -18.851772 369.000000
96.943306 -18.250492 369.000000
96.943306 -17.649212 369.000000
96.943306 -17.047930 369.000000
96.943306 -16.446650 369.000000
96.943306 -15.845369 369.000000
96.943306 -15.244088 369.000000
96.943306 -14.642807 369.000000
96.943306 -14.041527 369.000000
96.943306 -13.440246 369.000000
96.943306 -12.838964 369.000000
96.943306 -12.237683 369.000000
96.943306 -11.636402 369.000000
96.943306 -11.035122 369.000000
96.943306 -10.433841 369.000000
96.943306 -9.832560 369.000000
96.943306 -9.231279 369.000000
96.943306 -8.629998 369.000000
96.680588 -8.006960 368.000000
96.680588 -7.407308 368.000000
96.680588 -6.807657 368.000000
96.680588 -6.208005 368.000000
96.680588 -5.608354 368.000000
96.680588 -5.008703 368.000000
96.680588 -4.409051 368.000000
96.680588 -3.809400 368.000000
96.680588 -3.209749 368.000000
96.680588 -2.610097 368.000000
96.417862 -2.004983 367.000000
96.417862 -1.406961 367.000000
96.417862 -0.808939 367.000000
96.417862 -0.210917 367.000000
96.417862 0.387105 367.000000
96.417862 0.985126 367.000000
96.417862 1.583148 367.000000
96.417862 2.181170 367.000000
96.417862 2.779192 367.000000
96.417862 3.377214 367.000000
96.417862 3.975236 367.000000
96.417862 4.573258 367.000000
96.417862 5.171279 367.000000
96.417862 5.769301 367.000000
96.417862 6.367323 367.000000
96.417862 6.965345 367.000000
96.417862 7.563366 367.000000
96.417862 8.161388 367.000000
96.417862 8.759410 367.000000
96.417862 9.357432 367.000000
96.417862 9.955454 367.000000
96.417862 10.553476 367.000000
96.417862 11.151498 367.000000
96.155144 11.717505 366.000000
96.155144 12.313897 366.000000
96.155144 12.910290 366.000000
96.155144 13.506682 366.000000
96.155144 14.103075 366.000000
96.155144 14.699467 366.000000
96.155144 15.295859 366.000000
96.155144 15.892252 366.000000
96.155144 16.488644 366.000000
96.155144 17.085037 366.000000
96.155144 17.681429 366.000000
96.155144 18.277821 366.000000
96.155144 18.874214 366.000000
96.155144 19.470606 366.000000
96.155144 20.066998 366.000000
96.155144 20.663391 366.000000
96.155144 21.259783 366.000000
96.155144 21.856176 366.000000
96.155144 22.452568 366.000000
96.155144 23.048960 366.000000
96.155144 23.645353 366.000000
96.155144 24.241745 366.000000
96.155144 24.838137 366.000000
96.155144 25.434530 366.000000
96.155144 26.030922 366.000000
96.155144 26.627314 366.000000
96.155144 27.223705 366.000000
96.155144 27.820097 366.000000
96.155144 28.416491 366.000000
95.892426 28.933613 365.000000
95.892426 29.528376 365.000000
95.892426 30.123138 365.000000
95.892426 30.717901 365.000000
95.892426 31.312666 365.000000
95.892426 31.907429 365.000000
95.892426 32.502190 365.000000
95.892426 33.096954 365.000000
95.892426 33.691715 365.000000
95.892426 34.286480 365.000000
95.892426 34.881241 365.000000
95.892426 35.476006 365.000000
95.892426 36.070766 365.000000
95.892426 36.665531 365.000000
95.892426 37.260292 365.000000
95.892426 37.855057 365.000000
95.892426 38.449821 365.000000
95.892426 39.044582 365.000000
95.892426 39.639347 365.000000
95.892426 40.234108 365.000000
95.892426 40.828873 365.000000
95.892426 41.423634 365.000000
95.892426 42.018398 365.000000
95.892426 42.613159 365.000000
95.892426 43.207924 365.000000
95.892426 43.802685 365.000000
95.892426 44.397449 365.000000
95.892426 44.992210 365.000000
95.629707 45.462078 364.000000
95.629707 46.055214 364.000000
95.629707 46.648346 364.000000
95.629707 47.241482 364.000000
95.629707 47.834614 364.000000
95.629707 48.427746 364.000000
95.629707 49.020882 364.000000
95.629707 49.614014 364.000000
95.629707 50.207146 364.000000
95.629707 50.800282 364.000000
95.629707 51.393414 364.000000
95.629707 51.986546 364.000000
95.629707 52.579681 364.000000
95.629707 53.172813 364.000000
95.629707 53.765949 364.000000
95.629707 54.359081 364.000000
95.629707 54.952213 364.000000
95.629707 55.545349 364.000000
95.629707 56.138481 364.000000
95.629707 56.731613 364.000000
95.629707 57.324749 364.000000
95.629707 57.917881 364.000000
95.629707 58.511013 364.000000
95.629707 59.104149 364.000000
95.629707 59.697281 364.000000
95.366989 60.124779 363.000000
95.366989 60.716286 363.000000
95.366989 61.307789 363.000000
95.366989 61.899292 363.000000
95.366989 62.490795 363.000000
95.366989 63.082298 363.000000
95.366989 63.673805 363.000000
95.366989 64.265305 363.000000
95.366989 64.856812 363.000000
95.366989 65.448318 363.000000
95.366989 66.039818 363.000000
95.366989 66.631325 363.000000
95.366989 67.222824 363.000000
95.366989 67.814331 363.000000
95.366989 68.405838 363.000000
95.366989 68.997337 363.000000
95.104271 69.397133 362.000000
95.104271 69.987007 362.000000
95.104271 70.576881 362.000000
95.104271 71.166756 362.000000
95.104271 71.756630 362.000000
95.104271 72.346504 362.000000
95.104271 72.936386 362.000000
95.104271 73.526260 362.000000
95.104271 74.116135 362.000000
95.104271 74.706009 362.000000
95.104271 75.295883 362.000000
95.104271 75.885757 362.000000
95.104271 76.475632 362.000000
95.104271 77.065506 362.000000
95.104271 77.655380 362.000000
95.104271 78.245255 362.000000
95.104271 78.835129 362.000000
95.104271 79.425003 362.000000
95.104271 80.014877 362.000000
95.104271 80.604752 362.000000
95.104271 81.194626 362.000000
95.104271 81.784500 362.000000
95.104271 82.374374 362.000000
95.104271 82.964249 362.000000
95.104271 83.554123 362.000000
95.104271 84.143997 362.000000
95.104271 84.733871 362.000000
95.104271 85.323746 362.000000
95.104271 85.913620 362.000000
95.104271 86.503494 362.000000
95.137947 87.124207 362.128174
95.137947 87.714294 362.128174
95.137947 88.304375 362.128174
97.544312 -34.485073 369.000000
97.934624 -34.019379 370.476532
97.934624 -33.415691 370.476532
97.934624 -32.812004 370.476532
97.646423 -32.113533 369.386292
97.646423 -31.511625 369.386292
97.808655 -30.961067 370.000000
97.808655 -30.358158 370.000000
97.808655 -29.755247 370.000000
97.808655 -29.152338 370.000000
97.544312 -28.472265 369.000000
97.544312 -27.870983 369.000000
97.544312 -27.269703 369.000000
97.544312 -26.668425 369.000000
97.544312 -26.067142 369.000000
97.544312 -25.465862 369.000000
97.544312 -24.864582 369.000000
97.544312 -24.263300 369.000000
97.544312 -23.662020 369.000000
97.544312 -23.060740 369.000000
97.544312 -22.459457 369.000000
97.544312 -21.858177 369.000000
97.544312 -21.256897 369.000000
97.544312 -20.655615 369.000000
97.544312 -20.054335 369.000000
97.544312 -19.453054 369.000000
97.544312 -18.851772 369.000000
97.544312 -18.250492 369.000000
97.544312 -17.649212 369.000000
97.544312 -17.047930 369.000000
97.544312 -16.446650 369.000000
97.544312 -15.845369 369.000000
97.544312 -15.244088 369.000000
97.544312 -14.642807 369.000000
97.544312 -14.041527 369.000000
97.544312 -13.440246 369.000000
97.544312 -12.838964 369.000000
97.544312 -12.237683 369.000000
97.544312 -11.636402 369.000000
97.544312 -11.035122 369.000000
97.544312 -10.433841 369.000000
97.544312 -9.832560 369.000000
97.544312 -9.231279 369.000000
97.544312 -8.629998 369.000000
97.279961 -8.006960 368.000000
97.279961 -7.407308 368.000000
97.279961 -6.807657 368.000000
97.279961 -6.208005 368.000000
97.279961 -5.608354 368.000000
97.279961 -5.008703 368.000000
97.279961 -4.409051 368.000000
97.279961 -3.809400 368.000000
97.279961 -3.209749 368.000000
97.279961 -2.610097 368.000000
97.015610 -2.004983 367.000000
97.015610 -1.406961 367.000000
97.015610 -0.808939 367.000000
97.015610 -0.210917 367.000000
97.015610 0.387105 367.000000
97.015610 0.985126 367.000000
97.015610 1.583148 367.000000
97.015610 2.181170 367.000000
97.015610 2.779192 367.000000
97.015610 3.377214 367.000000
97.015610 3.975236 367.000000
97.015610 4.573258 367.000000
97.015610 5.171279 367.000000
97.015610 5.769301 367.000000
97.015610 6.367323 367.000000
97.015610 6.965345 367.000000
97.015610 7.563366 367.000000
97.015610 8.161388 367.000000
97.015610 8.759410 367.000000
97.015610 9.357432 367.000000
97.015610 9.955454 367.000000
97.015610 10.553476 367.000000
97.015610 11.151498 367.000000
96.751266 11.717505 366.000000
96.751266 12.313897 366.000000
96.751266 12.910290 366.000000
96.751266 13.506682 366.000000
96.751266 14.103075 366.000000
96.751266 14.699467 366.000000
96.751266 15.295859 366.000000
96.751266 15.892252 366.000000
96.751266 16.488644 366.000000
96.751266 17.085037 366.000000
96.751266 17.681429 366.000000
96.751266 18.277821 366.000000
96.751266 18.874214 366.000000
96.751266 19.470606 366.000000
96.751266 20.066998 366.000000
96.751266 20.663391 366.000000
96.751266 21.259783 366.000000
96.751266 21.856176 366.000000
96.751266 22.452568 366.000000
96.751266 23.048960 366.000000
96.751266 23.645353 366.000000
96.751266 24.241745 366.000000
96.751266 24.838137 366.000000
96.751266 25.434530 366.000000
96.751266 26.030922 366.000000
96.751266 26.627314 366.000000
96.751266 27.223705 366.000000
96.751266 27.820097 366.000000
96.751266 28.416491 366.000000
96.486916 28.933613 365.000000
96.486916 29.528376 365.000000
96.486916 30.123138 365.000000
96.486916 30.717901 365.000000
96.486916 31.312666 365.000000
96.486916 31.907429 365.000000
96.486916 32.502190 365.000000
96.486916 33.096954 365.000000
96.486916 33.691715 365.000000
96.486916 34.286480 365.000000
96.486916 34.881241 365.000000
96.486916 35.476006 365.000000
96.486916 36.070766 365.000000
96.486916 36.665531 365.000000
96.486916 37.260292 365.000000
96.486916 37.855057 365.000000
96.486916 38.449821 365.000000
96.486916 39.044582 365.000000
96.486916 39.639347 365.000000
96.486916 40.234108 365.000000
96.486916 40.828873 365.000000
96.486916 41.423634 365.000000
96.486916 42.018398 365.000000
96.486916 42.613159 365.000000
96.486916 43.207924 365.000000
96.486916 43.802685 365.000000
96.486916 44.397449 365.000000
96.486916 44.992210 365.000000
96.222572 45.462078 364.000000
96.222572 46.055214 364.000000
96.222572 46.648346 364.000000
96.222572 47.241482 364.000000
96.222572 47.834614 364.000000
96.222572 48.427746 364.000000
96.222572 49.020882 364.000000
96.222572 49.614014 364.000000
96.222572 50.207146 364.000000
96.222572 50.800282 364.000000
96.222572 51.393414 364.000000
96.222572 51.986546 364.000000
96.222572 52.579681 364.000000
96.222572 53.172813 364.000000
96.222572 53.765949 364.000000
96.222572 54.359081 364.000000
96.222572 54.952213 364.000000
96.222572 55.545349 364.000000
96.222572 56.138481 364.000000
96.222572 56.731613 364.000000
96.222572 57.324749 364.000000
96.222572 57.917881 364.000000
95.958221 58.350269 363.000000
95.958221 58.941772 363.000000
95.958221 59.533276 363.000000
95.958221 60.124779 363.000000
95.958221 60.716286 363.000000
95.958221 61.307789 363.000000
95.958221 61.899292 363.000000
95.958221 62.490795 363.000000
95.958221 63.082298 363.000000
95.958221 63.673805 363.000000
95.958221 64.265305 363.000000
95.958221 64.856812 363.000000
95.958221 65.448318 363.000000
95.693871 65.857887 362.000000
95.693871 66.447762 362.000000
95.693871 67.037636 362.000000
95.693871 67.627510 362.000000
95.693871 68.217384 362.000000
95.693871 68.807259 362.000000
95.693871 69.397133 362.000000
95.693871 69.987007 362.000000
95.693871 70.576881 362.000000
95.693871 71.166756 362.000000
95.693871 71.756630 362.000000
95.693871 72.346504 362.000000
95.693871 72.936386 362.000000
95.693871 73.526260 362.000000
95.693871 74.116135 362.000000
95.693871 74.706009 362.000000
95.693871 75.295883 362.000000
95.693871 75.885757 362.000000
95.693871 76.475632 362.000000
95.693871 77.065506 362.000000
95.693871 77.655380 362.000000
95.693871 78.245255 362.000000
95.693871 78.835129 362.000000
95.693871 79.425003 362.000000
95.693871 80.014877 362.000000
95.693871 80.604752 362.000000
95.693871 81.194626 362.000000
95.693871 81.784500 362.000000
95.693871 82.374374 362.000000
95.693871 82.964249 362.000000
95.693871 83.554123 362.000000
95.693871 84.143997 362.000000
95.693871 84.733871 362.000000
95.693871 85.323746 362.000000
95.693871 85.913620 362.000000
95.693871 86.503494 362.000000
95.707054 87.105370 362.049866
95.707054 87.695328 362.049866
95.707054 88.285278 362.049866
98.263535 -34.526611 369.444458
98.538040 -34.019379 370.476532
98.538040 -33.415691 370.476532
98.538040 -32.812004 370.476532
98.413094 -32.167477 370.006775
98.413094 -31.564558 370.006775
98.411285 -30.961067 370.000000
98.411285 -30.358158 370.000000
98.411285 -29.755247 370.000000
98.411285 -29.152338 370.000000
98.411285 -28.549427 370.000000
98.411285 -27.946516 370.000000
98.145317 -27.269703 369.000000
98.145317 -26.668425 369.000000
98.145317 -26.067142 369.000000
98.145317 -25.465862 369.000000
98.145317 -24.864582 369.000000
98.145317 -24.263300 369.000000
98.145317 -23.662020 369.000000
98.145317 -23.060740 369.000000
98.145317 -22.459457 369.000000
98.145317 -21.858177 369.000000
98.145317 -21.256897 369.000000
98.145317 -20.655615 369.000000
98.145317 -20.054335 369.000000
98.145317 -19.453054 369.000000
98.145317 -18.851772 369.000000
98.145317 -18.250492 369.000000
98.145317 -17.649212 369.000000
98.145317 -17.047930 369.000000
98.145317 -16.446650 369.000000
98.145317 -15.845369 369.000000
98.145317 -15.244088 369.000000
98.145317 -14.642807 369.000000
98.145317 -14.041527 369.000000
98.145317 -13.440246 369.000000
98.145317 -12.838964 369.000000
98.145317 -12.237683 369.000000
98.145317 -11.636402 369.000000
98.145317 -11.035122 369.000000
98.145317 -10.433841 369.000000
98.145317 -9.832560 369.000000
98.145317 -9.231279 369.000000
98.145317 -8.629998 369.000000
97.879341 -8.006960 368.000000
97.879341 -7.407308 368.000000
97.879341 -6.807657 368.000000
97.879341 -6.208005 368.000000
97.879341 -5.608354 368.000000
97.879341 -5.008703 368.000000
97.879341 -4.409051 368.000000
97.879341 -3.809400 368.000000
97.879341 -3.209749 368.000000
97.879341 -2.610097 368.000000
97.613358 -2.004983 367.000000
97.613358 -1.406961 367.000000
97.613358 -0.808939 367.000000
97.613358 -0.210917 367.000000
97.613358 0.387105 367.000000
97.613358 0.985126 367.000000
97.613358 1.583148 367.000000
97.613358 2.181170 367.000000
97.613358 2.779192 367.000000
97.613358 3.377214 367.000000
97.613358 3.975236 367.000000
97.613358 4.573258 367.000000
97.613358 5.171279 367.000000
97.613358 5.769301 367.000000
97.613358 6.367323 367.000000
97.613358 6.965345 367.000000
97.613358 7.563366 367.000000
97.613358 8.161388 367.000000
97.613358 8.759410 367.000000
97.613358 9.357432 367.000000
97.613358 9.955454 367.000000
97.347382 10.524720 366.000000
97.347382 11.121113 366.000000
97.347382 11.717505 366.000000
97.347382 12.313897 366.000000
97.347382 12.910290 366.000000
97.347382 13.506682 366.000000
97.347382 14.103075 366.000000
97.347382 14.699467 366.000000
97.347382 15.295859 366.000000
97.347382 15.892252 366.000000
97.347382 16.488644 366.000000
97.347382 17.085037 366.000000
97.347382 17.681429 366.000000
97.347382 18.277821 366.000000
97.347382 18.874214 366.000000
97.347382 19.470606 366.000000
97.347382 20.066998 366.000000
97.347382 20.663391 366.000000
97.347382 21.259783 366.000000
97.347382 21.856176 366.000000
97.347382 22.452568 366.000000
97.347382 23.048960 366.000000
97.347382 23.645353 366.000000
97.347382 24.241745 366.000000
97.347382 24.838137 366.000000
97.347382 25.434530 366.000000
97.347382 26.030922 366.000000
97.347382 26.627314 366.000000
97.347382 27.223705 366.000000
97.347382 27.820097 366.000000
97.347382 28.416491 366.000000
97.081406 28.933613 365.000000
97.081406 29.528376 365.000000
97.081406 30.123138 365.000000
97.081406 30.717901 365.000000
97.081406 31.312666 365.000000
97.081406 31.907429 365.000000
97.081406 32.502190 365.000000
97.081406 33.096954 365.000000
97.081406 33.691715 365.000000
97.081406 34.286480 365.000000
97.081406 34.881241 365.000000
97.081406 35.476006 365.000000
97.081406 36.070766 365.000000
97.081406 36.665531 365.000000
97.081406 37.260292 365.000000
97.081406 37.855057 365.000000
97.081406 38.449821 365.000000
97.081406 39.044582 365.000000
97.081406 39.639347 365.000000
97.081406 40.234108 365.000000
97.081406 40.828873 365.000000
97.081406 41.423634 365.000000
97.081406 42.018398 365.000000
97.081406 42.613159 365.000000
97.081406 43.207924 365.000000
97.081406 43.802685 365.000000
97.081406 44.397449 365.000000
96.815430 44.868946 364.000000
96.815430 45.462078 364.000000
96.815430 46.055214 364.000000
96.815430 46.648346 364.000000
96.815430 47.241482 364.000000
96.815430 47.834614 364.000000
96.815430 48.427746 364.000000
96.815430 49.020882 364.000000
96.815430 49.614014 364.000000
96.815430 50.207146 364.000000
96.815430 50.800282 364.000000
96.815430 51.393414 364.000000
96.815430 51.986546 364.000000
96.815430 52.579681 364.000000
96.815430 53.172813 364.000000
96.815430 53.765949 364.000000
96.815430 54.359081 364.000000
96.815430 54.952213 364.000000
96.815430 55.545349 364.000000
96.815430 56.138481 364.000000
96.815430 56.731613 364.000000
96.815430 57.324749 364.000000
96.815430 57.917881 364.000000
96.549454 58.350269 363.000000
96.549454 58.941772 363.000000
96.549454 59.533276 363.000000
96.549454 60.124779 363.000000
96.549454 60.716286 363.000000
96.549454 61.307789 363.000000
96.549454 61.899292 363.000000
96.549454 62.490795 363.000000
96.549454 63.082298 363.000000
96.549454 63.673805 363.000000
96.549454 64.265305 363.000000
96.549454 64.856812 363.000000
96.549454 65.448318 363.000000
96.283478 65.857887 362.000000
96.283478 66.447762 362.000000
96.283478 67.037636 362.000000
96.283478 67.627510 362.000000
96.283478 68.217384 362.000000
96.283478 68.807259 362.000000
96.283478 69.397133 362.000000
96.283478 69.987007 362.000000
96.283478 70.576881 362.000000
96.283478 71.166756 362.000000
96.283478 71.756630 362.000000
96.283478 72.346504 362.000000
96.283478 72.936386 362.000000
96.283478 73.526260 362.000000
96.283478 74.116135 362.000000
96.283478 74.706009 362.000000
96.283478 75.295883 362.000000
96.283478 75.885757 362.000000
96.283478 76.475632 362.000000
96.283478 77.065506 362.000000
96.283478 77.655380 362.000000
96.283478 78.245255 362.000000
96.283478 78.835129 362.000000
96.283478 79.425003 362.000000
96.283478 80.014877 362.000000
96.283478 80.604752 362.000000
96.283478 81.194626 362.000000
96.283478 81.784500 362.000000
96.283478 82.374374 362.000000
96.283478 82.964249 362.000000
96.283478 83.554123 362.000000
96.283478 84.143997 362.000000
96.283478 84.733871 362.000000
96.283478 85.323746 362.000000
96.283478 85.913620 362.000000
96.283478 86.503494 362.000000
96.296745 87.105370 362.049866
96.296745 87.695328 362.049866
96.296745 88.285278 362.049866
98.878777 -34.531334 369.494965
99.133438 -34.016628 370.446594
99.133438 -33.412991 370.446594
99.133438 -32.809353 370.446594
99.015739 -32.167477 370.006775
99.015739 -31.564558 370.006775
99.013924 -30.961067 370.000000
99.013924 -30.358158 370.000000
99.013924 -29.755247 370.000000
99.013924 -29.152338 370.000000
99.013924 -28.549427 370.000000
99.013924 -27.946516 370.000000
98.746323 -27.269703 369.000000
98.746323 -26.668425 369.000000
98.746323 -26.067142 369.000000
98.746323 -25.465862 369.000000
98.746323 -24.864582 369.000000
98.746323 -24.263300 369.000000
98.746323 -23.662020 369.000000
98.746323 -23.060740 369.000000
98.746323 -22.459457 369.000000
98.746323 -21.858177 369.000000
98.746323 -21.256897 369.000000
98.746323 -20.655615 369.000000
98.746323 -20.054335 369.000000
98.746323 -19.453054 369.000000
98.746323 -18.851772 369.000000
98.746323 -18.250492 369.000000
98.746323 -17.649212 369.000000
98.746323 -17.047930 369.000000
98.746323 -16.446650 369.000000
98.746323 -15.845369 369.000000
98.746323 -15.244088 369.000000
98.746323 -14.642807 369.000000
98.746323 -14.041527 369.000000
98.746323 -13.440246 369.000000
98.746323 -12.838964 369.000000
98.746323 -12.237683 369.000000
98.746323 -11.636402 369.000000
98.746323 -11.035122 369.000000
98.746323 -10.433841 369.000000
98.746323 -9.832560 369.000000
98.746323 -9.231279 369.000000
98.746323 -8.629998 369.000000
98.478714 -8.006960 368.000000
98.478714 -7.407308 368.000000
98.478714 -6.807657 368.000000
98.478714 -6.208005 368.000000
98.478714 -5.608354 368.000000
98.478714 -5.008703 368.000000
98.478714 -4.409051 368.000000
98.478714 -3.809400 368.000000
98.478714 -3.209749 368.000000
98.211105 -2.603005 367.000000
98.211105 -2.004983 367.000000
98.211105 -1.406961 367.000000
98.211105 -0.808939 367.000000
98.211105 -0.210917 367.000000
98.211105 0.387105 367.000000
98.211105 0.985126 367.000000
98.211105 1.583148 367.000000
98.211105 2.181170 367.000000
98.211105 2.779192 367.000000
97.943504 3.368011 366.000000
97.943504 3.964404 366.000000
97.943504 4.560796 366.000000
97.943504 5.157188 366.000000
97.943504 5.753581 366.000000
97.943504 6.349973 366.000000
97.943504 6.946366 366.000000
97.943504 7.542758 366.000000
98.211105 8.161388 367.000000
98.211105 8.759410 367.000000
98.211105 9.357432 367.000000
97.943504 9.928328 366.000000
97.943504 10.524720 366.000000
97.943504 11.121113 366.000000
97.943504 11.717505 366.000000
97.943504 12.313897 366.000000
97.943504 12.910290 366.000000
97.943504 13.506682 366.000000
97.943504 14.103075 366.000000
97.943504 14.699467 366.000000
97.943504 15.295859 366.000000
97.943504 15.892252 366.000000
97.943504 16.488644 366.000000
97.943504 17.085037 366.000000
97.943504 17.681429 366.000000
97.943504 18.277821 366.000000
97.943504 18.874214 366.000000
97.943504 19.470606 366.000000
97.943504 20.066998 366.000000
97.943504 20.663391 366.000000
97.943504 21.259783 366.000000
97.943504 21.856176 366.000000
97.943504 22.452568 366.000000
97.943504 23.048960 366.000000
97.943504 23.645353 366.000000
97.943504 24.241745 366.000000
97.943504 24.838137 366.000000
97.943504 25.434530 366.000000
97.943504 26.030922 366.000000
97.943504 26.627314 366.000000
97.943504 27.223705 366.000000
97.943504 27.820097 366.000000
97.675896 28.338850 365.000000
97.675896 28.933613 365.000000
97.675896 29.528376 365.000000
97.675896 30.123138 365.000000
97.675896 30.717901 365.000000
97.675896 31.312666 365.000000
97.675896 31.907429 365.000000
97.675896 32.502190 365.000000
97.675896 33.096954 365.000000
97.675896 33.691715 365.000000
97.675896 34.286480 365.000000
97.675896 34.881241 365.000000
97.675896 35.476006 365.000000
97.675896 36.070766 365.000000
97.675896 36.665531 365.000000
97.675896 37.260292 365.000000
97.675896 37.855057 365.000000
97.675896 38.449821 365.000000
97.675896 39.044582 365.000000
97.675896 39.639347 365.000000
97.675896 40.234108 365.000000
97.675896 40.828873 365.000000
97.675896 41.423634 365.000000
97.675896 42.018398 365.000000
97.675896 42.613159 365.000000
97.675896 43.207924 365.000000
97.675896 43.802685 365.000000
97.675896 44.397449 365.000000
97.408295 44.868946 364.000000
97.408295 45.462078 364.000000
97.408295 46.055214 364.000000
97.408295 46.648346 364.000000
97.408295 47.241482 364.000000
97.408295 47.834614 364.000000
97.408295 48.427746 364.000000
97.408295 49.020882 364.000000
97.408295 49.614014 364.000000
97.408295 50.207146 364.000000
97.408295 50.800282 364.000000
97.408295 51.393414 364.000000
97.408295 51.986546 364.000000
97.408295 52.579681 364.000000
97.408295 53.172813 364.000000
97.408295 53.765949 364.000000
97.408295 54.359081 364.000000
97.408295 54.952213 364.000000
97.408295 55.545349 364.000000
97.408295 56.138481 364.000000
97.408295 56.731613 364.000000
97.408295 57.324749 364.000000
97.140686 57.758762 363.000000
97.140686 58.350269 363.000000
97.140686 58.941772 363.000000
97.140686 59.533276 363.000000
97.140686 60.124779 363.000000
97.140686 60.716286 363.000000
97.140686 61.307789 363.000000
97.140686 61.899292 363.000000
97.140686 62.490795 363.000000
97.140686 63.082298 363.000000
97.140686 63.673805 363.000000
97.140686 64.265305 363.000000
97.140686 64.856812 363.000000
96.873085 65.268013 362.000000
96.873085 65.857887 362.000000
96.873085 66.447762 362.000000
96.873085 67.037636 362.000000
96.873085 67.627510 362.000000
96.873085 68.217384 362.000000
96.873085 68.807259 362.000000
96.873085 69.397133 362.000000
96.873085 69.987007 362.000000
96.873085 70.576881 362.000000
96.873085 71.166756 362.000000
96.873085 71.756630 362.000000
96.873085 72.346504 362.000000
96.873085 72.936386 362.000000
96.873085 73.526260 362.000000
96.873085 74.116135 362.000000
96.873085 74.706009 362.000000
96.873085 75.295883 362.000000
96.873085 75.885757 362.000000
96.873085 76.475632 362.000000
96.873085 77.065506 362.000000
96.873085 77.655380 362.000000
96.873085 78.245255 362.000000
96.873085 78.835129 362.000000
96.873085 79.425003 362.000000
96.873085 80.014877 362.000000
96.873085 80.604752 362.000000
96.873085 81.194626 362.000000
96.873085 81.784500 362.000000
96.873085 82.374374 362.000000
96.873085 82.964249 362.000000
96.873085 83.554123 362.000000
96.873085 84.143997 362.000000
96.873085 84.733871 362.000000
96.873085 85.323746 362.000000
96.873085 85.913620 362.000000
96.873085 86.503494 362.000000
96.873085 87.093369 362.000000
96.872513 87.682724 361.997864
96.872513 88.272598 361.997864
99.480591 -34.531334 369.494965
99.736801 -34.016628 370.446594
99.736801 -33.412991 370.446594
99.736801 -32.809353 370.446594
99.618385 -32.167477 370.006775
99.618385 -31.564558 370.006775
99.616554 -30.961067 370.000000
99.616554 -30.358158 370.000000
99.616554 -29.755247 370.000000
99.616554 -29.152338 370.000000
99.616554 -28.549427 370.000000
99.616554 -27.946516 370.000000
99.347328 -27.269703 369.000000
99.347328 -26.668425 369.000000
99.347328 -26.067142 369.000000
99.347328 -25.465862 369.000000
99.347328 -24.864582 369.000000
99.347328 -24.263300 369.000000
99.347328 -23.662020 369.000000
99.347328 -23.060740 369.000000
99.347328 -22.459457 369.000000
99.347328 -21.858177 369.000000
99.347328 -21.256897 369.000000
99.347328 -20.655615 369.000000
99.347328 -20.054335 369.000000
99.347328 -19.453054 369.000000
99.347328 -18.851772 369.000000
99.347328 -18.250492 369.000000
99.347328 -17.649212 369.000000
99.347328 -17.047930 369.000000
99.347328 -16.446650 369.000000
99.347328 -15.845369 369.000000
99.347328 -15.244088 369.000000
99.347328 -14.642807 369.000000
99.347328 -14.041527 369.000000
99.347328 -13.440246 369.000000
99.347328 -12.838964 369.000000
99.347328 -12.237683 369.000000
99.347328 -11.636402 369.000000
99.347328 -11.035122 369.000000
99.347328 -10.433841 369.000000
99.347328 -9.832560 369.000000
99.347328 -9.231279 369.000000
99.347328 -8.629998 369.000000
99.078094 -8.006960 368.000000
99.078094 -7.407308 368.000000
99.078094 -6.807657 368.000000
99.078094 -6.208005 368.000000
99.078094 -5.608354 368.000000
99.078094 -5.008703 368.000000
99.078094 -4.409051 368.000000
99.078094 -3.809400 368.000000
99.078094 -3.209749 368.000000
98.808853 -2.603005 367.000000
98.808853 -2.004983 367.000000
98.808853 -1.406961 367.000000
98.808853 -0.808939 367.000000
98.808853 -0.210917 367.000000
98.808853 0.387105 367.000000
98.808853 0.985126 367.000000
98.808853 1.583148 367.000000
98.808853 2.181170 367.000000
98.808853 2.779192 367.000000
98.539619 3.368011 366.000000
98.539619 3.964404 366.000000
98.539619 4.560796 366.000000
98.539619 5.157188 366.000000
98.539619 5.753581 366.000000
98.539619 6.349973 366.000000
98.539619 6.946366 366.000000
98.539619 7.542758 366.000000
98.808853 8.161388 367.000000
98.808853 8.759410 367.000000
98.808853 9.357432 367.000000
98.539619 9.928328 366.000000
98.539619 10.524720 366.000000
98.539619 11.121113 366.000000
98.539619 11.717505 366.000000
98.539619 12.313897 366.000000
98.539619 12.910290 366.000000
98.539619 13.506682 366.000000
98.539619 14.103075 366.000000
98.539619 14.699467 366.000000
98.539619 15.295859 366.000000
98.539619 15.892252 366.000000
98.539619 16.488644 366.000000
98.539619 17.085037 366.000000
98.539619 17.681429 366.000000
98.539619 18.277821 366.000000
98.539619 18.874214 366.000000
98.539619 19.470606 366.000000
98.539619 20.066998 366.000000
98.539619 20.663391 366.000000
98.539619 21.259783 366.000000
98.539619 21.856176 366.000000
98.539619 22.452568 366.000000
98.539619 23.048960 366.000000
98.539619 23.645353 366.000000
98.539619 24.241745 366.000000
98.539619 24.838137 366.000000
98.539619 25.434530 366.000000
98.539619 26.030922 366.000000
98.539619 26.627314 366.000000
98.539619 27.223705 366.000000
98.539619 27.820097 366.000000
98.270386 28.338850 365.000000
98.270386 28.933613 365.000000
98.270386 29.528376 365.000000
98.270386 30.123138 365.000000
98.270386 30.717901 365.000000
98.270386 31.312666 365.000000
98.270386 31.907429 365.000000
98.270386 32.502190 365.000000
98.270386 33.096954 365.000000
98.270386 33.691715 365.000000
98.270386 34.286480 365.000000
98.270386 34.881241 365.000000
98.270386 35.476006 365.000000
98.270386 36.070766 365.000000
98.270386 36.665531 365.000000
98.270386 37.260292 365.000000
98.270386 37.855057 365.000000
98.270386 38.449821 365.000000
98.270386 39.044582 365.000000
98.270386 39.639347 365.000000
98.270386 40.234108 365.000000
98.270386 40.828873 365.000000
98.270386 41.423634 365.000000
98.270386 42.018398 365.000000
98.270386 42.613159 365.000000
98.270386 43.207924 365.000000
98.270386 43.802685 365.000000
98.270386 44.397449 365.000000
98.001160 44.868946 364.000000
98.001160 45.462078 364.000000
98.001160 46.055214 364.000000
98.001160 46.648346 364.000000
98.001160 47.241482 364.000000
98.001160 47.834614 364.000000
98.001160 48.427746 364.000000
98.001160 49.020882 364.000000
98.001160 49.614014 364.000000
98.001160 50.207146 364.000000
98.001160 50.800282 364.000000
98.001160 51.393414 364.000000
98.001160 51.986546 364.000000
98.001160 52.579681 364.000000
98.001160 53.172813 364.000000
98.001160 53.765949 364.000000
98.001160 54.359081 364.000000
98.001160 54.952213 364.000000
98.001160 55.545349 364.000000
98.001160 56.138481 364.000000
97.731918 56.575756 363.000000
97.731918 57.167259 363.000000
97.731918 57.758762 363.000000
97.731918 58.350269 363.000000
97.731918 58.941772 363.000000
97.731918 59.533276 363.000000
97.731918 60.124779 363.000000
97.731918 60.716286 363.000000
97.731918 61.307789 363.000000
97.731918 61.899292 363.000000
97.731918 62.490795 363.000000
97.731918 63.082298 363.000000
97.731918 63.673805 363.000000
97.462685 64.088264 362.000000
97.462685 64.678139 362.000000
97.462685 65.268013 362.000000
97.462685 65.857887 362.000000
97.462685 66.447762 362.000000
97.462685 67.037636 362.000000
97.462685 67.627510 362.000000
97.462685 68.217384 362.000000
97.462685 68.807259 362.000000
97.462685 69.397133 362.000000
97.462685 69.987007 362.000000
97.462685 70.576881 362.000000
97.462685 71.166756 362.000000
97.462685 71.756630 362.000000
97.462685 72.346504 362.000000
97.462685 72.936386 362.000000
97.462685 73.526260 362.000000
97.462685 74.116135 362.000000
97.462685 74.706009 362.000000
97.462685 75.295883 362.000000
97.462685 75.885757 362.000000
97.462685 76.475632 362.000000
97.462685 77.065506 362.000000
97.462685 77.655380 362.000000
97.462685 78.245255 362.000000
97.462685 78.835129 362.000000
97.462685 79.425003 362.000000
97.462685 80.014877 362.000000
97.462685 80.604752 362.000000
97.462685 81.194626 362.000000
97.462685 81.784500 362.000000
97.462685 82.374374 362.000000
97.462685 82.964249 362.000000
97.462685 83.554123 362.000000
97.462685 84.143997 362.000000
97.462685 84.733871 362.000000
97.193451 85.088051 361.000000
97.193451 85.676292 361.000000
97.193451 86.264542 361.000000
97.405457 87.042229 361.787445
97.405457 87.631760 361.787445
97.405457 88.221283 361.787445
100.082397 -34.531334 369.494965
100.328751 -34.012760 370.404480
100.328751 -33.409191 370.404480
100.328751 -32.805622 370.404480
100.219193 -32.166889 370.000000
100.219193 -31.563978 370.000000
100.219193 -30.961067 370.000000
100.219193 -30.358158 370.000000
100.219193 -29.755247 370.000000
100.219193 -29.152338 370.000000
100.219193 -28.549427 370.000000
100.219193 -27.946516 370.000000
99.948334 -27.269703 369.000000
99.948334 -26.668425 369.000000
99.948334 -26.067142 369.000000
99.948334 -25.465862 369.000000
99.948334 -24.864582 369.000000
99.948334 -24.263300 369.000000
99.948334 -23.662020 369.000000
99.948334 -23.060740 369.000000
99.948334 -22.459457 369.000000
99.948334 -21.858177 369.000000
99.948334 -21.256897 369.000000
99.948334 -20.655615 369.000000
99.948334 -20.054335 369.000000
99.948334 -19.453054 369.000000
99.948334 -18.851772 369.000000
99.948334 -18.250492 369.000000
99.948334 -17.649212 369.000000
99.948334 -17.047930 369.000000
99.948334 -16.446650 369.000000
99.948334 -15.845369 369.000000
99.948334 -15.244088 369.000000
99.948334 -14.642807 369.000000
99.948334 -14.041527 369.000000
99.948334 -13.440246 369.000000
99.948334 -12.838964 369.000000
99.948334 -12.237683 369.000000
99.948334 -11.636402 369.000000
99.948334 -11.035122 369.000000
99.948334 -10.433841 369.000000
99.948334 -9.832560 369.000000
99.948334 -9.231279 369.000000
99.948334 -8.629998 369.000000
99.677467 -8.006960 368.000000
99.677467 -7.407308 368.000000
99.677467 -6.807657 368.000000
99.677467 -6.208005 368.000000
