-2.647635 84.371544 346.000000
-2.632330 84.444397 344.000000
-2.624678 84.757828 343.000000
-2.624678 85.316742 343.000000
-2.624678 85.875656 343.000000
-2.617026 86.182571 342.000000
-2.617026 86.739861 342.000000
-2.601722 86.786636 340.000000
-2.601722 87.340660 340.000000
-2.601722 87.894691 340.000000
-2.594069 88.188568 339.000000
-2.594069 88.740967 339.000000
-2.594069 89.293358 339.000000
-2.586417 89.580727 338.000000
-2.578766 89.864830 337.000000
-2.578766 90.413971 337.000000
-2.571113 90.693184 336.000000
-2.571113 91.240692 336.000000
-2.563461 91.515022 335.000000
-2.563461 92.060898 335.000000
-2.548157 92.053902 333.000000
-2.548157 92.596519 333.000000
-2.548157 93.139145 333.000000
-2.540505 93.400436 332.000000
-2.532853 93.658463 331.000000
-2.532853 94.197823 331.000000
-2.525201 94.450974 330.000000
-2.517549 94.700859 329.000000
-2.517549 95.236961 329.000000
-2.517549 95.773064 329.000000
-2.502244 95.723694 327.000000
-2.502244 96.256538 327.000000
-2.502244 96.789375 327.000000
-2.494592 97.024605 326.000000
-2.494592 97.555817 326.000000
-2.486940 97.786148 325.000000
-2.479288 98.013222 324.000000
-2.479288 98.541176 324.000000
-2.479288 99.069130 324.000000
-2.471636 99.289688 323.000000
-2.471636 99.816010 323.000000
-2.463984 100.031677 322.000000
-2.456331 100.244080 321.000000
-2.456331 100.767151 321.000000
-2.448679 100.974670 320.000000
-2.448679 101.496109 320.000000
-2.448679 102.017548 320.000000
-2.441027 102.218544 319.000000
-2.433375 102.416283 318.000000
-2.433375 102.934464 318.000000
-2.425723 103.127312 317.000000
-2.418071 103.316917 316.000000
-2.418071 103.831833 316.000000
-2.418071 104.346748 316.000000
-2.402767 104.197983 314.000000
-2.395115 104.376175 313.000000
-2.395115 104.886208 313.000000
-2.387462 105.059502 312.000000
-2.387462 105.567902 312.000000
-2.387462 106.076302 312.000000
-2.379810 106.243088 311.000000
-2.372158 106.406609 310.000000
-2.372158 106.911751 310.000000
-2.364506 107.070381 309.000000
-2.364506 107.573891 309.000000
-2.364506 108.077400 309.000000
-2.356854 108.229523 308.000000
-2.356854 108.731400 308.000000
-2.356854 109.233284 308.000000
-2.341550 109.022606 306.000000
-2.333898 109.163315 305.000000
-2.333898 109.660309 305.000000
-2.333898 110.157303 305.000000
-2.333898 110.654297 305.000000
-2.333898 111.151291 305.000000
-2.318593 110.916161 303.000000
-2.318593 111.409897 303.000000
-2.318593 111.903633 303.000000
-2.310941 112.026413 302.000000
-2.310941 112.518524 302.000000
-2.310941 113.010628 302.000000
-2.303289 113.126892 301.000000
-2.295637 113.239914 300.000000
-2.295637 113.728760 300.000000
-2.295637 114.217606 300.000000
-2.280333 113.941734 298.000000
-2.280333 114.427322 298.000000
-2.280333 114.912910 298.000000
-2.272681 115.011253 297.000000
-2.272681 115.495209 297.000000
-2.272681 115.979172 297.000000
-2.265028 116.070992 296.000000
-2.257376 116.159561 295.000000
-2.257376 116.640259 295.000000
-2.257376 117.120956 295.000000
-2.257376 117.601654 295.000000
-2.257376 118.082352 295.000000
-2.249724 118.161156 294.000000
-2.249724 118.640228 294.000000
-2.249724 119.119293 294.000000
-2.242072 119.191566 293.000000
-2.234420 119.260574 292.000000
-2.234420 119.736389 292.000000
-2.234420 120.212196 292.000000
-2.226768 120.274689 291.000000
-2.226768 120.748871 291.000000
-2.219116 120.806473 290.000000
-2.219116 121.279030 290.000000
-2.219116 121.751579 290.000000
-2.229159 122.777306 291.312500
-2.232342 123.427963 291.728424
-2.232342 123.903328 291.728424
-2.232342 124.378693 291.728424
-2.230625 124.758057 291.504089
-2.230625 125.233055 291.504089
-2.228715 125.600441 291.254517
-2.227125 125.985077 291.046692
-2.227125 126.459335 291.046692
-2.226341 126.888916 290.944275
-2.225315 127.304314 290.810181
-2.225315 127.778175 290.810181
-2.226341 133.052078 290.944275
-2.226341 133.526184 290.944275
-2.226341 134.000275 290.944275
-2.226711 134.496674 290.992554
-2.226711 134.970840 290.992554
-2.226711 135.445007 290.992554
-2.226711 135.919174 290.992554
-2.226526 136.382034 290.968414
-2.226526 136.856155 290.968414
-2.226394 137.322113 290.951111
-2.361166 36.822739 392.000000
-2.361166 37.461498 392.000000
-2.361166 38.100258 392.000000
-2.361166 38.739014 392.000000
-2.361166 39.377773 392.000000
-2.361166 40.016533 392.000000
-2.355142 40.551582 391.000000
-2.349119 41.083370 390.000000
-2.349119 41.718872 390.000000
-2.349119 42.354370 390.000000
-2.343096 42.879639 389.000000
-2.343096 43.513508 389.000000
-2.337072 44.033890 388.000000
-2.337072 44.666134 388.000000
-2.331048 45.181622 387.000000
-2.331048 45.812237 387.000000
-2.331048 46.442848 387.000000
-2.325025 46.951824 386.000000
-2.325025 47.580807 386.000000
-2.325025 48.209785 386.000000
-2.319002 48.712242 385.000000
-2.319002 49.339596 385.000000
-2.312979 49.837166 384.000000
-2.306955 50.331474 383.000000
-2.306955 50.955570 383.000000
-2.306955 51.579662 383.000000
-2.300932 52.067451 382.000000
-2.300932 52.689915 382.000000
-2.300932 53.312382 382.000000
-2.294908 53.793655 381.000000
-2.294908 54.414490 381.000000
-2.288885 54.890873 380.000000
-2.282861 55.363998 379.000000
-2.282861 55.981571 379.000000
-2.282861 56.599148 379.000000
-2.276838 57.065762 378.000000
-2.276838 57.681705 378.000000
-2.270815 58.143425 377.000000
-2.270815 58.757740 377.000000
-2.270815 59.372059 377.000000
-2.264791 59.827259 376.000000
-2.258768 60.279205 375.000000
-2.258768 60.890263 375.000000
-2.258768 61.501320 375.000000
-2.252745 61.946743 374.000000
-2.252745 62.556171 374.000000
-2.252745 63.165600 374.000000
-2.252745 63.775028 374.000000
-2.246721 64.212303 373.000000
-2.246721 64.820107 373.000000
-2.240698 65.252487 372.000000
-2.228651 65.504585 370.000000
-2.228651 66.107491 370.000000
-2.216604 66.349808 368.000000
-2.210581 66.767532 367.000000
-2.210581 67.365555 367.000000
-2.204558 67.778389 366.000000
-2.198534 68.187958 365.000000
-2.198534 68.782722 365.000000
-2.198534 69.377487 365.000000
-2.198534 69.972252 365.000000
-2.198534 70.567009 365.000000
-2.192511 70.966812 364.000000
-2.192511 71.559952 364.000000
-2.192511 72.153084 364.000000
-2.192511 72.746216 364.000000
-2.186487 73.137863 363.000000
-2.186487 73.729370 363.000000
-2.186487 74.320877 363.000000
-2.180464 74.706009 362.000000
-2.180464 75.295883 362.000000
-2.174441 75.676132 361.000000
-2.174441 76.264374 361.000000
-2.174441 76.852623 361.000000
-2.162394 77.011826 359.000000
-2.150347 77.164520 357.000000
-2.144324 77.528465 356.000000
-2.144324 78.108566 356.000000
-2.138300 78.467628 355.000000
-2.132277 78.823433 354.000000
-2.132277 79.400269 354.000000
-2.120230 79.525261 352.000000
-2.108183 79.643738 350.000000
-2.108183 80.214058 350.000000
-2.108183 80.784378 350.000000
-2.102160 81.122253 349.000000
-2.102160 81.690941 349.000000
-2.096137 82.023933 348.000000
-2.090113 82.353668 347.000000
-2.090113 82.919098 347.000000
-2.084090 83.243942 346.000000
-2.078067 83.565521 345.000000
-2.078067 84.127693 345.000000
-2.072043 84.444397 344.000000
-2.066020 84.757828 343.000000
-2.066020 85.316742 343.000000
-2.066020 85.875656 343.000000
-2.059996 86.182571 342.000000
-2.059996 86.739861 342.000000
-2.047950 86.786636 340.000000
-2.047950 87.340660 340.000000
-2.047950 87.894691 340.000000
-2.041926 88.188568 339.000000
-2.041926 88.740967 339.000000
-2.041926 89.293358 339.000000
-2.035903 89.580727 338.000000
-2.029880 89.864830 337.000000
-2.029880 90.413971 337.000000
-2.023856 90.693184 336.000000
-2.023856 91.240692 336.000000
-2.017833 91.515022 335.000000
-2.017833 92.060898 335.000000
-2.005786 92.053902 333.000000
-2.005786 92.596519 333.000000
-2.005786 93.139145 333.000000
-1.999763 93.400436 332.000000
-1.993739 93.658463 331.000000
-1.993739 94.197823 331.000000
-1.987716 94.450974 330.000000
-1.981693 94.700859 329.000000
-1.981693 95.236961 329.000000
-1.981693 95.773064 329.000000
-1.969646 95.723694 327.000000
-1.969646 96.256538 327.000000
-1.963622 96.493393 326.000000
-1.963622 97.024605 326.000000
-1.963622 97.555817 326.000000
-1.951576 97.485268 324.000000
-1.951576 98.013222 324.000000
-1.951576 98.541176 324.000000
-1.945552 98.763359 323.000000
-1.945552 99.289688 323.000000
-1.945552 99.816010 323.000000
-1.933506 99.721016 321.000000
-1.927482 99.931801 320.000000
-1.927482 100.453239 320.000000
-1.927482 100.974670 320.000000
-1.921459 101.178932 319.000000
-1.921459 101.698738 319.000000
-1.915435 101.898109 318.000000
-1.915435 102.416283 318.000000
-1.915435 102.934464 318.000000
-1.909412 103.127312 317.000000
-1.903389 103.316917 316.000000
-1.897365 103.503250 315.000000
-1.897365 104.016541 315.000000
-1.891342 104.197983 314.000000
-1.885319 104.376175 313.000000
-1.885319 104.886208 313.000000
-1.879295 105.059502 312.000000
-1.879295 105.567902 312.000000
-1.879295 106.076302 312.000000
-1.873271 106.243088 311.000000
-1.867248 106.406609 310.000000
-1.867248 106.911751 310.000000
-1.861225 107.070381 309.000000
-1.861225 107.573891 309.000000
-1.861225 108.077400 309.000000
-1.855201 108.229523 308.000000
-1.855201 108.731400 308.000000
-1.855201 109.233284 308.000000
-1.843155 109.022606 306.000000
-1.837131 109.163315 305.000000
-1.837131 109.660309 305.000000
-1.837131 110.157303 305.000000
-1.831108 110.291496 304.000000
-1.831108 110.786858 304.000000
-1.825084 110.916161 303.000000
-1.825084 111.409897 303.000000
-1.825084 111.903633 303.000000
-1.819061 112.026413 302.000000
-1.819061 112.518524 302.000000
-1.819061 113.010628 302.000000
-1.813038 113.126892 301.000000
-1.807014 113.239914 300.000000
-1.807014 113.728760 300.000000
-1.807014 114.217606 300.000000
-1.800991 114.324097 299.000000
-1.800991 114.811310 299.000000
-1.794968 114.912910 298.000000
-1.788944 115.011253 297.000000
-1.788944 115.495209 297.000000
-1.788944 115.979172 297.000000
-1.782921 116.070992 296.000000
-1.776897 116.159561 295.000000
-1.776897 116.640259 295.000000
-1.776897 117.120956 295.000000
-1.776897 117.601654 295.000000
-1.776897 118.082352 295.000000
-1.770874 118.161156 294.000000
-1.770874 118.640228 294.000000
-1.770874 119.119293 294.000000
-1.764851 119.191566 293.000000
-1.758827 119.260574 292.000000
-1.758827 119.736389 292.000000
-1.758827 120.212196 292.000000
-1.752804 120.274689 291.000000
-1.752804 120.748871 291.000000
-1.752804 121.223053 291.000000
-1.752388 121.668388 290.931030
-1.752388 122.142448 290.931030
-1.754686 122.777306 291.312500
-1.757191 123.427963 291.728424
-1.757191 123.903328 291.728424
-1.757191 124.378693 291.728424
-1.755840 124.758057 291.504089
-1.755840 125.233055 291.504089
-1.754170 125.588501 291.226837
-1.751661 126.830437 290.810181
-1.751661 127.304314 290.810181
-1.751661 127.778175 290.810181
-1.750428 128.161774 290.605499
-1.750819 128.664047 290.670410
-1.750819 129.137695 290.670410
-1.750819 129.611328 290.670410
-1.752064 133.495407 290.877228
-1.752064 133.969391 290.877228
-1.752721 134.493774 290.986298
-1.752721 134.967941 290.986298
-1.752721 135.442093 290.986298
-1.752721 135.916260 290.986298
-1.752530 136.375534 290.954559
-1.752530 136.849640 290.954559
-1.752509 137.322113 290.951111
-1.752509 137.796219 290.951111
-1.752509 138.270325 290.951111
-1.752509 138.744431 290.951111
-1.752509 139.218521 290.951111
-1.752509 139.692627 290.951111
-1.752509 140.166733 290.951111
-1.722699 36.822739 392.000000
-1.722699 37.461498 392.000000
-1.722699 38.100258 392.000000
-1.722699 38.739014 392.000000
-1.718304 39.277321 391.000000
-1.718304 39.914452 391.000000
-1.718304 40.551582 391.000000
-1.713910 41.083370 390.000000
-1.713910 41.718872 390.000000
-1.713910 42.354370 390.000000
-1.709515 42.879639 389.000000
-1.709515 43.513508 389.000000
-1.705120 44.033890 388.000000
-1.700726 44.551010 387.000000
-1.700726 45.181622 387.000000
-1.700726 45.812237 387.000000
-1.700726 46.442848 387.000000
-1.696331 46.951824 386.000000
-1.696331 47.580807 386.000000
-1.691936 48.084888 385.000000
-1.687542 48.585716 384.000000
-1.687542 49.211441 384.000000
-1.687542 49.837166 384.000000
-1.683147 50.331474 383.000000
-1.683147 50.955570 383.000000
-1.678752 51.444988 382.000000
-1.678752 52.067451 382.000000
-1.678752 52.689915 382.000000
-1.678752 53.312382 382.000000
-1.674358 53.793655 381.000000
-1.674358 54.414490 381.000000
-1.669963 54.890873 380.000000
-1.665568 55.363998 379.000000
-1.665568 55.981571 379.000000
-1.665568 56.599148 379.000000
-1.661174 57.065762 378.000000
-1.661174 57.681705 378.000000
-1.656779 58.143425 377.000000
-1.656779 58.757740 377.000000
-1.656779 59.372059 377.000000
-1.652385 59.827259 376.000000
-1.647990 60.279205 375.000000
-1.647990 60.890263 375.000000
-1.647990 61.501320 375.000000
-1.643595 61.946743 374.000000
-1.643595 62.556171 374.000000
-1.643595 63.165600 374.000000
-1.643595 63.775028 374.000000
-1.639201 64.212303 373.000000
-1.639201 64.820107 373.000000
-1.634806 65.252487 372.000000
-1.626017 65.504585 370.000000
-1.626017 66.107491 370.000000
-1.617227 66.349808 368.000000
-1.612833 66.767532 367.000000
-1.612833 67.365555 367.000000
-1.608438 67.778389 366.000000
-1.604043 68.187958 365.000000
-1.604043 68.782722 365.000000
-1.604043 69.377487 365.000000
-1.604043 69.972252 365.000000
-1.604043 70.567009 365.000000
-1.599649 70.966812 364.000000
-1.599649 71.559952 364.000000
-1.599649 72.153084 364.000000
-1.599649 72.746216 364.000000
-1.595254 73.137863 363.000000
-1.595254 73.729370 363.000000
-1.590860 74.116135 362.000000
-1.590860 74.706009 362.000000
-1.590860 75.295883 362.000000
-1.586465 75.676132 361.000000
-1.586465 76.264374 361.000000
-1.586465 76.852623 361.000000
-1.577676 77.011826 359.000000
-1.568886 77.164520 357.000000
-1.564492 77.528465 356.000000
-1.564492 78.108566 356.000000
-1.555702 78.246597 354.000000
-1.555702 78.823433 354.000000
-1.555702 79.400269 354.000000
-1.546913 79.525261 352.000000
-1.542519 79.871292 351.000000
-1.542519 80.443237 351.000000
-1.538124 80.784378 350.000000
-1.533729 81.122253 349.000000
-1.533729 81.690941 349.000000
-1.529335 82.023933 348.000000
-1.524940 82.353668 347.000000
-1.524940 82.919098 347.000000
-1.520545 83.243942 346.000000
-1.516151 83.565521 345.000000
-1.516151 84.127693 345.000000
-1.511756 84.444397 344.000000
-1.507361 84.757828 343.000000
-1.507361 85.316742 343.000000
-1.507361 85.875656 343.000000
-1.502967 86.182571 342.000000
-1.502967 86.739861 342.000000
-1.498572 87.041885 341.000000
-1.494178 87.340660 340.000000
-1.494178 87.894691 340.000000
-1.489783 88.188568 339.000000
-1.489783 88.740967 339.000000
-1.489783 89.293358 339.000000
-1.485388 89.580727 338.000000
-1.480994 89.864830 337.000000
-1.480994 90.413971 337.000000
-1.476599 90.693184 336.000000
-1.476599 91.240692 336.000000
-1.472204 91.515022 335.000000
-1.472204 92.060898 335.000000
-1.463415 92.053902 333.000000
-1.459020 92.318451 332.000000
-1.459020 92.859444 332.000000
-1.459020 93.400436 332.000000
-1.450231 93.375511 330.000000
-1.450231 93.913246 330.000000
-1.450231 94.450974 330.000000
-1.445837 94.700859 329.000000
-1.445837 95.236961 329.000000
-1.445837 95.773064 329.000000
-1.437047 95.723694 327.000000
-1.437047 96.256538 327.000000
-1.432653 96.493393 326.000000
-1.432653 97.024605 326.000000
-1.432653 97.555817 326.000000
-1.423863 97.485268 324.000000
-1.423863 98.013222 324.000000
-1.423863 98.541176 324.000000
-1.419469 98.763359 323.000000
-1.419469 99.289688 323.000000
-1.419469 99.816010 323.000000
-1.410679 99.721016 321.000000
-1.406285 99.931801 320.000000
-1.406285 100.453239 320.000000
-1.406285 100.974670 320.000000
-1.397496 100.861755 318.000000
-1.397496 101.379929 318.000000
-1.397496 101.898109 318.000000
-1.393101 102.094215 317.000000
-1.393101 102.610764 317.000000
-1.388706 102.801994 316.000000
-1.388706 103.316917 316.000000
-1.379917 103.174667 314.000000
-1.379917 103.686325 314.000000
-1.379917 104.197983 314.000000
-1.375522 104.376175 313.000000
-1.375522 104.886208 313.000000
-1.371128 105.059502 312.000000
-1.371128 105.567902 312.000000
-1.371128 106.076302 312.000000
-1.362338 105.901466 310.000000
-1.362338 106.406609 310.000000
-1.362338 106.911751 310.000000
-1.357944 107.070381 309.000000
-1.353549 107.225754 308.000000
-1.353549 107.727638 308.000000
-1.353549 108.229523 308.000000
-1.353549 108.731400 308.000000
-1.353549 109.233284 308.000000
-1.344760 109.022606 306.000000
-1.340365 109.163315 305.000000
-1.340365 109.660309 305.000000
-1.340365 110.157303 305.000000
-1.335971 110.291496 304.000000
-1.335971 110.786858 304.000000
-1.331576 110.916161 303.000000
-1.331576 111.409897 303.000000
-1.331576 111.903633 303.000000
-1.327181 112.026413 302.000000
-1.327181 112.518524 302.000000
-1.327181 113.010628 302.000000
-1.318392 112.751068 300.000000
-1.318392 113.239914 300.000000
-1.318392 113.728760 300.000000
-1.318392 114.217606 300.000000
-1.313997 114.324097 299.000000
-1.313997 114.811310 299.000000
-1.305208 114.527298 297.000000
-1.305208 115.011253 297.000000
-1.305208 115.495209 297.000000
-1.305208 115.979172 297.000000
-1.300813 116.070992 296.000000
-1.296419 116.159561 295.000000
-1.296419 116.640259 295.000000
-1.296419 117.120956 295.000000
-1.296419 117.601654 295.000000
-1.296419 118.082352 295.000000
-1.292024 118.161156 294.000000
-1.292024 118.640228 294.000000
-1.292024 119.119293 294.000000
-1.287629 119.191566 293.000000
-1.283235 119.260574 292.000000
-1.283235 119.736389 292.000000
-1.283235 120.212196 292.000000
-1.278840 120.274689 291.000000
-1.278840 120.748871 291.000000
-1.278840 121.223053 291.000000
-1.278537 121.668388 290.931030
-1.278537 122.142448 290.931030
-1.280213 122.777306 291.312500
-1.282041 123.427963 291.728424
-1.282041 123.903328 291.728424
-1.282041 124.378693 291.728424
-1.280959 124.748634 291.482086
-1.280959 125.223610 291.482086
-1.279837 125.588501 291.226837
-1.278006 126.830437 290.810181
-1.278006 127.304314 290.810181
-1.278006 127.778175 290.810181
-1.277106 128.161774 290.605499
-1.277392 128.664047 290.670410
-1.277392 129.137695 290.670410
-1.277392 129.611328 290.670410
-1.278301 133.495407 290.877228
-1.278301 133.969391 290.877228
-1.278780 134.493774 290.986298
-1.278780 134.967941 290.986298
-1.278780 135.442093 290.986298
-1.278780 135.916260 290.986298
-1.278641 136.375534 290.954559
-1.278641 136.849640 290.954559
-1.278625 137.322113 290.951111
-1.278625 137.796219 290.951111
-1.278625 138.270325 290.951111
-1.278625 138.744431 290.951111
-1.278625 139.218521 290.951111
-1.278625 139.692627 290.951111
-1.278625 140.166733 290.951111
-1.084232 36.822739 392.000000
-1.084232 37.461498 392.000000
-1.084232 38.100258 392.000000
-1.084232 38.739014 392.000000
-1.081466 39.277321 391.000000
-1.081466 39.914452 391.000000
-1.081466 40.551582 391.000000
-1.078700 41.083370 390.000000
-1.078700 41.718872 390.000000
-1.078700 42.354370 390.000000
-1.075934 42.879639 389.000000
-1.075934 43.513508 389.000000
-1.073169 44.033890 388.000000
-1.070403 44.551010 387.000000
-1.070403 45.181622 387.000000
-1.070403 45.812237 387.000000
-1.070403 46.442848 387.000000
-1.067637 46.951824 386.000000
-1.067637 47.580807 386.000000
-1.064871 48.084888 385.000000
-1.062105 48.585716 384.000000
-1.062105 49.211441 384.000000
-1.062105 49.837166 384.000000
-1.059339 50.331474 383.000000
-1.059339 50.955570 383.000000
-1.056573 51.444988 382.000000
-1.056573 52.067451 382.000000
-1.056573 52.689915 382.000000
-1.053807 53.172821 381.000000
-1.053807 53.793655 381.000000
-1.053807 54.414490 381.000000
-1.051041 54.890873 380.000000
-1.048275 55.363998 379.000000
-1.048275 55.981571 379.000000
-1.045510 56.449814 378.000000
-1.045510 57.065762 378.000000
-1.045510 57.681705 378.000000
-1.042744 58.143425 377.000000
-1.042744 58.757740 377.000000
-1.042744 59.372059 377.000000
-1.039978 59.827259 376.000000
-1.037212 60.279205 375.000000
-1.037212 60.890263 375.000000
-1.034446 61.337315 374.000000
-1.034446 61.946743 374.000000
-1.034446 62.556171 374.000000
-1.034446 63.165600 374.000000
-1.031680 63.604507 373.000000
-1.031680 64.212303 373.000000
-1.031680 64.820107 373.000000
-1.026148 65.077087 371.000000
-1.023382 65.504585 370.000000
-1.023382 66.107491 370.000000
-1.017851 66.349808 368.000000
-1.012319 66.585602 366.000000
-1.012319 67.181992 366.000000
-1.012319 67.778389 366.000000
-1.009553 68.187958 365.000000
-1.009553 68.782722 365.000000
-1.009553 69.377487 365.000000
-1.009553 69.972252 365.000000
-1.009553 70.567009 365.000000
-1.006787 70.966812 364.000000
-1.006787 71.559952 364.000000
-1.006787 72.153084 364.000000
-1.006787 72.746216 364.000000
-1.004021 73.137863 363.000000
-1.004021 73.729370 363.000000
-1.001255 74.116135 362.000000
-1.001255 74.706009 362.000000
-1.001255 75.295883 362.000000
-0.998489 75.676132 361.000000
-0.998489 76.264374 361.000000
-0.998489 76.852623 361.000000
-0.992957 77.011826 359.000000
-0.987426 77.164520 357.000000
-0.984660 77.528465 356.000000
-0.984660 78.108566 356.000000
-0.979128 78.246597 354.000000
-0.979128 78.823433 354.000000
-0.979128 79.400269 354.000000
-0.973596 79.525261 352.000000
-0.970830 79.871292 351.000000
-0.970830 80.443237 351.000000
-0.968064 80.784378 350.000000
-0.965298 81.122253 349.000000
-0.965298 81.690941 349.000000
-0.962533 82.023933 348.000000
-0.959767 82.353668 347.000000
-0.959767 82.919098 347.000000
-0.957001 83.243942 346.000000
-0.954235 83.565521 345.000000
-0.954235 84.127693 345.000000
-0.951469 84.444397 344.000000
-0.948703 84.757828 343.000000
-0.948703 85.316742 343.000000
-0.945937 85.625290 342.000000
-0.945937 86.182571 342.000000
-0.945937 86.739861 342.000000
-0.943171 87.041885 341.000000
-0.940405 87.340660 340.000000
-0.940405 87.894691 340.000000
-0.937639 88.188568 339.000000
-0.937639 88.740967 339.000000
-0.937639 89.293358 339.000000
-0.934874 89.580727 338.000000
-0.932108 89.864830 337.000000
-0.932108 90.413971 337.000000
-0.929342 90.693184 336.000000
-0.929342 91.240692 336.000000
-0.926576 91.515022 335.000000
-0.926576 92.060898 335.000000
-0.921044 92.053902 333.000000
-0.918278 92.318451 332.000000
-0.918278 92.859444 332.000000
-0.918278 93.400436 332.000000
-0.912746 93.375511 330.000000
-0.912746 93.913246 330.000000
-0.909981 94.164757 329.000000
-0.909981 94.700859 329.000000
-0.909981 95.236961 329.000000
-0.907215 95.481956 328.000000
-0.904449 95.723694 327.000000
-0.904449 96.256538 327.000000
-0.901683 96.493393 326.000000
-0.901683 97.024605 326.000000
-0.901683 97.555817 326.000000
-0.896151 97.485268 324.000000
-0.893385 97.710716 323.000000
-0.893385 98.237038 323.000000
-0.893385 98.763359 323.000000
-0.890619 98.982285 322.000000
-0.890619 99.506981 322.000000
-0.887853 99.721016 321.000000
-0.885087 99.931801 320.000000
-0.885087 100.453239 320.000000
-0.885087 100.974670 320.000000
-0.879556 100.861755 318.000000
-0.879556 101.379929 318.000000
-0.879556 101.898109 318.000000
-0.876790 102.094215 317.000000
-0.876790 102.610764 317.000000
-0.874024 102.801994 316.000000
-0.874024 103.316917 316.000000
-0.868492 103.174667 314.000000
-0.868492 103.686325 314.000000
-0.868492 104.197983 314.000000
-0.865726 104.376175 313.000000
-0.865726 104.886208 313.000000
-0.862960 105.059502 312.000000
-0.860194 105.229546 311.000000
-0.860194 105.736313 311.000000
-0.857428 105.901466 310.000000
-0.854663 106.063362 309.000000
-0.854663 106.566872 309.000000
-0.854663 107.070381 309.000000
-0.851897 107.225754 308.000000
-0.851897 107.727638 308.000000
-0.851897 108.229523 308.000000
-0.849131 108.378387 307.000000
-0.849131 108.878639 307.000000
-0.846365 109.022606 306.000000
-0.843599 109.163315 305.000000
-0.843599 109.660309 305.000000
-0.843599 110.157303 305.000000
-0.840833 110.291496 304.000000
-0.840833 110.786858 304.000000
-0.838067 110.916161 303.000000
-0.835301 111.042206 302.000000
-0.835301 111.534309 302.000000
-0.835301 112.026413 302.000000
-0.835301 112.518524 302.000000
-0.835301 113.010628 302.000000
-0.829769 112.751068 300.000000
-0.829769 113.239914 300.000000
-0.829769 113.728760 300.000000
-0.829769 114.217606 300.000000
-0.827004 114.324097 299.000000
-0.827004 114.811310 299.000000
-0.821472 114.527298 297.000000
-0.821472 115.011253 297.000000
-0.821472 115.495209 297.000000
-0.821472 115.979172 297.000000
-0.815940 115.678864 295.000000
-0.815940 116.159561 295.000000
-0.815940 116.640259 295.000000
-0.815940 117.120956 295.000000
-0.815940 117.601654 295.000000
-0.815940 118.082352 295.000000
-0.813174 118.161156 294.000000
-0.813174 118.640228 294.000000
-0.813174 119.119293 294.000000
-0.810408 119.191566 293.000000
-0.807642 119.260574 292.000000
-0.807642 119.736389 292.000000
-0.807642 120.212196 292.000000
-0.804876 120.274689 291.000000
-0.804876 120.748871 291.000000
-0.804876 121.223053 291.000000
-0.804686 121.668388 290.931030
-0.804686 122.142448 290.931030
-0.804686 122.616531 290.931030
-0.803785 127.214699 290.605499
-0.803785 127.688248 290.605499
-0.803785 128.161774 290.605499
-0.803965 128.664047 290.670410
-0.803965 129.137695 290.670410
-0.803965 129.611328 290.670410
-0.804741 136.373917 290.951111
-0.804741 136.848022 290.951111
-0.804741 137.322113 290.951111
-0.804741 137.796219 290.951111
-0.804741 138.270325 290.951111
-0.804741 138.744431 290.951111
-0.804741 139.218521 290.951111
-0.804741 139.692627 290.951111
-0.804741 140.166733 290.951111
-0.804741 140.640839 290.951111
-0.804741 141.114929 290.951111
-0.445765 36.822739 392.000000
-0.445765 37.461498 392.000000
-0.445765 38.100258 392.000000
-0.444628 38.640194 391.000000
-0.444628 39.277321 391.000000
-0.444628 39.914452 391.000000
-0.444628 40.551582 391.000000
-0.443491 41.083370 390.000000
-0.443491 41.718872 390.000000
-0.443491 42.354370 390.000000
-0.442354 42.879639 389.000000
-0.442354 43.513508 389.000000
-0.441217 44.033890 388.000000
-0.440080 44.551010 387.000000
-0.440080 45.181622 387.000000
-0.440080 45.812237 387.000000
-0.438942 46.322842 386.000000
-0.438942 46.951824 386.000000
-0.438942 47.580807 386.000000
-0.437805 48.084888 385.000000
-0.436668 48.585716 384.000000
-0.436668 49.211441 384.000000
-0.435531 49.707382 383.000000
-0.435531 50.331474 383.000000
-0.435531 50.955570 383.000000
-0.434394 51.444988 382.000000
-0.434394 52.067451 382.000000
-0.434394 52.689915 382.000000
-0.433257 53.172821 381.000000
-0.433257 53.793655 381.000000
-0.433257 54.414490 381.000000
-0.432120 54.890873 380.000000
-0.430982 55.363998 379.000000
-0.430982 55.981571 379.000000
-0.429845 56.449814 378.000000
-0.429845 57.065762 378.000000
-0.429845 57.681705 378.000000
-0.428708 58.143425 377.000000
-0.428708 58.757740 377.000000
-0.428708 59.372059 377.000000
-0.427571 59.827259 376.000000
-0.426434 60.279205 375.000000
-0.426434 60.890263 375.000000
-0.425297 61.337315 374.000000
-0.425297 61.946743 374.000000
-0.425297 62.556171 374.000000
-0.425297 63.165600 374.000000
-0.424159 63.604507 373.000000
-0.423022 64.040154 372.000000
-0.423022 64.646324 372.000000
-0.421885 65.077087 371.000000
-0.419611 65.327545 369.000000
-0.419611 65.928825 369.000000
-0.418474 66.349808 368.000000
-0.416199 66.585602 366.000000
-0.416199 67.181992 366.000000
-0.416199 67.778389 366.000000
-0.415062 68.187958 365.000000
-0.415062 68.782722 365.000000
-0.415062 69.377487 365.000000
-0.415062 69.972252 365.000000
-0.415062 70.567009 365.000000
-0.413925 70.966812 364.000000
-0.413925 71.559952 364.000000
-0.413925 72.153084 364.000000
-0.412788 72.546364 363.000000
-0.411651 72.936386 362.000000
-0.411651 73.526260 362.000000
-0.411651 74.116135 362.000000
-0.411651 74.706009 362.000000
-0.411651 75.295883 362.000000
-0.410514 75.676132 361.000000
-0.409376 76.053116 360.000000
-0.409376 76.639732 360.000000
-0.407102 76.797310 358.000000
-0.405965 77.164520 357.000000
-0.404828 77.528465 356.000000
-0.404828 78.108566 356.000000
-0.402553 78.246597 354.000000
-0.402553 78.823433 354.000000
-0.402553 79.400269 354.000000
-0.400279 79.525261 352.000000
-0.399142 79.871292 351.000000
-0.399142 80.443237 351.000000
-0.398005 80.784378 350.000000
-0.396868 81.122253 349.000000
-0.396868 81.690941 349.000000
-0.394593 81.788239 347.000000
-0.393456 82.116333 346.000000
-0.393456 82.680138 346.000000
-0.393456 83.243942 346.000000
-0.392319 83.565521 345.000000
-0.392319 84.127693 345.000000
-0.390045 84.198914 343.000000
-0.390045 84.757828 343.000000
-0.390045 85.316742 343.000000
-0.388908 85.625290 342.000000
-0.388908 86.182571 342.000000
-0.388908 86.739861 342.000000
-0.387770 87.041885 341.000000
-0.386633 87.340660 340.000000
-0.386633 87.894691 340.000000
-0.385496 88.188568 339.000000
-0.384359 88.479187 338.000000
-0.384359 89.029961 338.000000
-0.384359 89.580727 338.000000
-0.382085 89.598167 336.000000
-0.382085 90.145676 336.000000
-0.382085 90.693184 336.000000
-0.382085 91.240692 336.000000
-0.380947 91.515022 335.000000
-0.380947 92.060898 335.000000
-0.378673 92.053902 333.000000
-0.377536 92.318451 332.000000
-0.377536 92.859444 332.000000
-0.377536 93.400436 332.000000
-0.375262 93.375511 330.000000
-0.375262 93.913246 330.000000
-0.374125 94.164757 329.000000
-0.374125 94.700859 329.000000
-0.374125 95.236961 329.000000
-0.371850 95.190849 327.000000
-0.370713 95.430962 326.000000
-0.370713 95.962181 326.000000
-0.370713 96.493393 326.000000
-0.369576 96.726982 325.000000
-0.369576 97.256561 325.000000
-0.368439 97.485268 324.000000
-0.367302 97.710716 323.000000
-0.367302 98.237038 323.000000
-0.367302 98.763359 323.000000
-0.365027 98.674889 321.000000
-0.365027 99.197952 321.000000
-0.363890 99.410362 320.000000
-0.363890 99.931801 320.000000
-0.363890 100.453239 320.000000
-0.362753 100.659126 319.000000
-0.361616 100.861755 318.000000
-0.361616 101.379929 318.000000
-0.360479 101.577675 317.000000
-0.360479 102.094215 317.000000
-0.360479 102.610764 317.000000
-0.359342 102.801994 316.000000
-0.358204 102.989960 315.000000
-0.357067 103.174667 314.000000
-0.357067 103.686325 314.000000
-0.357067 104.197983 314.000000
-0.355930 104.376175 313.000000
-0.355930 104.886208 313.000000
-0.354793 105.059502 312.000000
-0.353656 105.229546 311.000000
-0.353656 105.736313 311.000000
-0.352519 105.901466 310.000000
-0.351381 106.063362 309.000000
-0.351381 106.566872 309.000000
-0.351381 107.070381 309.000000
-0.350244 107.225754 308.000000
-0.350244 107.727638 308.000000
-0.350244 108.229523 308.000000
-0.349107 108.378387 307.000000
-0.349107 108.878639 307.000000
-0.347970 109.022606 306.000000
-0.346833 109.163315 305.000000
-0.346833 109.660309 305.000000
-0.345696 109.796127 304.000000
-0.344558 109.928696 303.000000
-0.344558 110.422424 303.000000
-0.344558 110.916161 303.000000
-0.343421 111.042206 302.000000
-0.343421 111.534309 302.000000
-0.343421 112.026413 302.000000
-0.342284 112.145943 301.000000
-0.342284 112.636414 301.000000
-0.341147 112.751068 300.000000
-0.341147 113.239914 300.000000
-0.341147 113.728760 300.000000
-0.340010 113.836876 299.000000
-0.338873 113.941734 298.000000
-0.338873 114.427322 298.000000
-0.337736 114.527298 297.000000
-0.337736 115.011253 297.000000
-0.337736 115.495209 297.000000
-0.337736 115.979172 297.000000
-0.335461 115.678864 295.000000
-0.335461 116.159561 295.000000
-0.335461 116.640259 295.000000
-0.335461 117.120956 295.000000
-0.335461 117.601654 295.000000
-0.335461 118.082352 295.000000
-0.334324 118.161156 294.000000
-0.334324 118.640228 294.000000
-0.334324 119.119293 294.000000
-0.333187 119.191566 293.000000
-0.332050 119.260574 292.000000
-0.332050 119.736389 292.000000
-0.332050 120.212196 292.000000
-0.330913 120.274689 291.000000
-0.330913 120.748871 291.000000
-0.330913 121.223053 291.000000
-0.329775 121.279030 290.000000
-0.329775 121.751579 290.000000
-0.329775 122.224129 290.000000
-0.330857 139.218521 290.951111
-0.330857 139.692627 290.951111
-0.330857 140.166733 290.951111
-0.330857 140.640839 290.951111
-0.330857 141.114929 290.951111
0.192701 36.822739 392.000000
0.192701 37.461498 392.000000
0.192701 38.100258 392.000000
0.192210 38.640194 391.000000
0.192210 39.277321 391.000000
0.192210 39.914452 391.000000
0.191718 40.447872 390.000000
0.191718 41.083370 390.000000
0.191718 41.718872 390.000000
0.191227 42.245770 389.000000
0.190735 42.769409 388.000000
0.190735 43.401649 388.000000
0.190735 44.033890 388.000000
0.190243 44.551010 387.000000
0.190243 45.181622 387.000000
0.190243 45.812237 387.000000
0.189752 46.322842 386.000000
0.189260 46.830185 385.000000
0.189260 47.457535 385.000000
0.189260 48.084888 385.000000
0.188769 48.585716 384.000000
0.188769 49.211441 384.000000
0.188277 49.707382 383.000000
0.188277 50.331474 383.000000
0.188277 50.955570 383.000000
0.187785 51.444988 382.000000
0.187294 51.931152 381.000000
0.187294 52.551987 381.000000
0.187294 53.172821 381.000000
0.187294 53.793655 381.000000
0.187294 54.414490 381.000000
0.186802 54.890873 380.000000
0.186311 55.363998 379.000000
0.186311 55.981571 379.000000
0.185819 56.449814 378.000000
0.185819 57.065762 378.000000
0.185819 57.681705 378.000000
0.185328 58.143425 377.000000
0.185328 58.757740 377.000000
0.185328 59.372059 377.000000
0.184836 59.827259 376.000000
0.184344 60.279205 375.000000
0.184344 60.890263 375.000000
0.183853 61.337315 374.000000
0.183853 61.946743 374.000000
0.183853 62.556171 374.000000
0.183853 63.165600 374.000000
0.183361 63.604507 373.000000
0.182870 64.040154 372.000000
0.182870 64.646324 372.000000
0.182378 65.077087 371.000000
0.181395 65.327545 369.000000
0.181395 65.928825 369.000000
0.180903 66.349808 368.000000
0.180412 66.767532 367.000000
0.180412 67.365555 367.000000
0.179920 67.778389 366.000000
0.179920 68.374779 366.000000
0.179920 68.971169 366.000000
0.179428 69.377487 365.000000
0.179428 69.972252 365.000000
0.179428 70.567009 365.000000
0.178937 70.966812 364.000000
0.178937 71.559952 364.000000
0.178937 72.153084 364.000000
0.178445 72.546364 363.000000
0.177954 72.936386 362.000000
0.177954 73.526260 362.000000
0.177954 74.116135 362.000000
0.177462 74.499641 361.000000
0.177462 75.087883 361.000000
0.177462 75.676132 361.000000
0.176479 75.841850 359.000000
0.176479 76.426842 359.000000
0.175987 76.797310 358.000000
0.175496 77.164520 357.000000
0.174513 77.310692 355.000000
0.174513 77.889160 355.000000
0.174021 78.246597 354.000000
0.174021 78.823433 354.000000
0.174021 79.400269 354.000000
0.172546 79.299339 351.000000
0.172055 79.643738 350.000000
0.172055 80.214058 350.000000
0.172055 80.784378 350.000000
0.171563 81.122253 349.000000
0.171563 81.690941 349.000000
0.170580 81.788239 347.000000
0.170088 82.116333 346.000000
0.170088 82.680138 346.000000
0.170088 83.243942 346.000000
0.169597 83.565521 345.000000
0.169597 84.127693 345.000000
0.168614 84.198914 343.000000
0.168614 84.757828 343.000000
0.168614 85.316742 343.000000
0.168122 85.625290 342.000000
0.167630 85.930580 341.000000
0.167630 86.486229 341.000000
0.167630 87.041885 341.000000
0.167139 87.340660 340.000000
0.167139 87.894691 340.000000
0.166647 88.188568 339.000000
0.166156 88.479187 338.000000
0.166156 89.029961 338.000000
0.165664 89.315697 337.000000
0.165173 89.598167 336.000000
0.165173 90.145676 336.000000
0.165173 90.693184 336.000000
0.164681 90.969139 335.000000
0.164681 91.515022 335.000000
0.164681 92.060898 335.000000
0.163698 92.053902 333.000000
0.163206 92.318451 332.000000
0.163206 92.859444 332.000000
0.162715 93.119102 331.000000
0.162223 93.375511 330.000000
0.162223 93.913246 330.000000
0.161731 94.164757 329.000000
0.161240 94.413010 328.000000
0.161240 94.947487 328.000000
0.160748 95.190849 327.000000
0.160257 95.430962 326.000000
0.160257 95.962181 326.000000
0.160257 96.493393 326.000000
0.159765 96.726982 325.000000
0.159765 97.256561 325.000000
0.159274 97.485268 324.000000
0.158782 97.710716 323.000000
0.158782 98.237038 323.000000
0.158782 98.763359 323.000000
0.157799 98.674889 321.000000
0.157799 99.197952 321.000000
0.157307 99.410362 320.000000
0.157307 99.931801 320.000000
0.157307 100.453239 320.000000
0.156816 100.659126 319.000000
0.156324 100.861755 318.000000
0.156324 101.379929 318.000000
0.155832 101.577675 317.000000
0.155832 102.094215 317.000000
0.155832 102.610764 317.000000
0.155341 102.801994 316.000000
0.154849 102.989960 315.000000
0.154358 103.174667 314.000000
0.154358 103.686325 314.000000
0.153866 103.866150 313.000000
0.153374 104.042702 312.000000
0.153374 104.551102 312.000000
0.152883 104.722771 311.000000
0.152883 105.229546 311.000000
0.152883 105.736313 311.000000
0.152391 105.901466 310.000000
0.151900 106.063362 309.000000
0.151900 106.566872 309.000000
0.151900 107.070381 309.000000
0.151408 107.225754 308.000000
0.151408 107.727638 308.000000
0.151408 108.229523 308.000000
0.150917 108.378387 307.000000
0.150917 108.878639 307.000000
0.150425 109.022606 306.000000
0.149933 109.163315 305.000000
0.149933 109.660309 305.000000
0.149442 109.796127 304.000000
0.148950 109.928696 303.000000
0.148950 110.422424 303.000000
0.148950 110.916161 303.000000
0.148459 111.042206 302.000000
0.148459 111.534309 302.000000
0.148459 112.026413 302.000000
0.147967 112.145943 301.000000
0.147967 112.636414 301.000000
0.147475 112.751068 300.000000
0.147475 113.239914 300.000000
0.147475 113.728760 300.000000
0.146984 113.836876 299.000000
0.146492 113.941734 298.000000
0.146492 114.427322 298.000000
0.146001 114.527298 297.000000
0.146001 115.011253 297.000000
0.146001 115.495209 297.000000
0.146001 115.979172 297.000000
0.145509 116.070992 296.000000
0.145018 116.159561 295.000000
0.145018 116.640259 295.000000
0.145018 117.120956 295.000000
0.145018 117.601654 295.000000
0.145018 118.082352 295.000000
0.144526 118.161156 294.000000
0.144526 118.640228 294.000000
0.144526 119.119293 294.000000
0.144034 119.191566 293.000000
0.143543 119.260574 292.000000
0.143543 119.736389 292.000000
0.143543 120.212196 292.000000
0.143051 120.274689 291.000000
0.143051 120.748871 291.000000
0.143051 121.223053 291.000000
0.142560 121.279030 290.000000
0.142560 121.751579 290.000000
0.142560 122.224129 290.000000
0.143027 139.218521 290.951111
0.143027 139.692627 290.951111
0.143027 140.166733 290.951111
0.143027 140.640839 290.951111
0.143027 141.114929 290.951111
0.831168 36.822739 392.000000
0.831168 37.461498 392.000000
0.831168 38.100258 392.000000
0.829048 38.640194 391.000000
0.829048 39.277321 391.000000
0.829048 39.914452 391.000000
0.826927 40.447872 390.000000
0.826927 41.083370 390.000000
0.826927 41.718872 390.000000
0.824807 42.245770 389.000000
0.822687 42.769409 388.000000
0.822687 43.401649 388.000000
0.822687 44.033890 388.000000
0.820566 44.551010 387.000000
0.820566 45.181622 387.000000
0.820566 45.812237 387.000000
0.818446 46.322842 386.000000
0.816326 46.830185 385.000000
0.816326 47.457535 385.000000
0.816326 48.084888 385.000000
0.812085 48.459194 383.000000
0.812085 49.083286 383.000000
0.812085 49.707382 383.000000
0.809965 50.200058 382.000000
0.809965 50.822525 382.000000
0.809965 51.444988 382.000000
0.807844 51.931152 381.000000
0.807844 52.551987 381.000000
0.807844 53.172821 381.000000
0.807844 53.793655 381.000000
0.807844 54.414490 381.000000
0.805724 54.890873 380.000000
0.803604 55.363998 379.000000
0.803604 55.981571 379.000000
0.801483 56.449814 378.000000
0.801483 57.065762 378.000000
0.801483 57.681705 378.000000
0.799363 58.143425 377.000000
0.799363 58.757740 377.000000
0.799363 59.372059 377.000000
0.797243 59.827259 376.000000
0.795122 60.279205 375.000000
0.795122 60.890263 375.000000
0.793002 61.337315 374.000000
0.793002 61.946743 374.000000
0.793002 62.556171 374.000000
0.793002 63.165600 374.000000
0.790882 63.604507 373.000000
0.788761 64.040154 372.000000
0.788761 64.646324 372.000000
0.786641 65.077087 371.000000
0.782400 65.327545 369.000000
0.782400 65.928825 369.000000
0.780280 66.349808 368.000000
0.778160 66.767532 367.000000
0.778160 67.365555 367.000000
0.776039 67.778389 366.000000
0.776039 68.374779 366.000000
0.776039 68.971169 366.000000
0.773919 69.377487 365.000000
0.773919 69.972252 365.000000
0.773919 70.567009 365.000000
0.771799 70.966812 364.000000
0.771799 71.559952 364.000000
0.771799 72.153084 364.000000
0.769679 72.546364 363.000000
0.767558 72.936386 362.000000
0.767558 73.526260 362.000000
0.767558 74.116135 362.000000
0.765438 74.499641 361.000000
0.765438 75.087883 361.000000
0.765438 75.676132 361.000000
0.761197 75.841850 359.000000
0.761197 76.426842 359.000000
0.759077 76.797310 358.000000
0.756957 77.164520 357.000000
0.752716 77.310692 355.000000
0.752716 77.889160 355.000000
0.750596 78.246597 354.000000
0.748475 78.600769 353.000000
0.748475 79.175980 353.000000
0.744235 79.299339 351.000000
0.742114 79.643738 350.000000
0.742114 80.214058 350.000000
0.739994 80.553558 349.000000
0.737874 80.889809 348.000000
0.737874 81.456871 348.000000
0.735753 81.788239 347.000000
0.733633 82.116333 346.000000
0.733633 82.680138 346.000000
0.731513 83.003349 345.000000
0.729392 83.323311 344.000000
0.729392 83.883850 344.000000
0.727272 84.198914 343.000000
0.727272 84.757828 343.000000
0.727272 85.316742 343.000000
0.725152 85.625290 342.000000
0.723031 85.930580 341.000000
0.723031 86.486229 341.000000
0.723031 87.041885 341.000000
0.720911 87.340660 340.000000
0.720911 87.894691 340.000000
0.718791 88.188568 339.000000
0.716670 88.479187 338.000000
0.716670 89.029961 338.000000
0.714550 89.315697 337.000000
0.712430 89.598167 336.000000
0.712430 90.145676 336.000000
0.712430 90.693184 336.000000
0.710309 90.969139 335.000000
0.708189 91.241837 334.000000
0.708189 91.786087 334.000000
0.706069 92.053902 333.000000
0.703948 92.318451 332.000000
0.703948 92.859444 332.000000
0.699708 92.837784 330.000000
0.697587 93.092552 329.000000
0.697587 93.628654 329.000000
0.697587 94.164757 329.000000
0.695467 94.413010 328.000000
0.695467 94.947487 328.000000
0.693347 95.190849 327.000000
0.691226 95.430962 326.000000
0.691226 95.962181 326.000000
0.691226 96.493393 326.000000
0.689106 96.726982 325.000000
0.689106 97.256561 325.000000
0.684865 97.184387 323.000000
0.684865 97.710716 323.000000
0.684865 98.237038 323.000000
0.682745 98.457588 322.000000
0.680625 98.674889 321.000000
0.680625 99.197952 321.000000
0.678504 99.410362 320.000000
0.678504 99.931801 320.000000
0.678504 100.453239 320.000000
0.676384 100.659126 319.000000
0.674264 100.861755 318.000000
0.674264 101.379929 318.000000
0.672143 101.577675 317.000000
0.672143 102.094215 317.000000
0.672143 102.610764 317.000000
0.670023 102.801994 316.000000
0.665783 102.663002 314.000000
0.665783 103.174667 314.000000
0.665783 103.686325 314.000000
0.663662 103.866150 313.000000
0.659422 103.709229 311.000000
0.659422 104.216003 311.000000
0.659422 104.722771 311.000000
0.657301 104.891182 310.000000
0.657301 105.396324 310.000000
0.655181 105.559853 309.000000
0.655181 106.063362 309.000000
0.655181 106.566872 309.000000
0.653061 106.723877 308.000000
0.653061 107.225754 308.000000
0.653061 107.727638 308.000000
0.650940 107.878136 307.000000
0.650940 108.378387 307.000000
0.650940 108.878639 307.000000
0.648820 109.022606 306.000000
0.644579 108.805405 304.000000
0.644579 109.300766 304.000000
0.644579 109.796127 304.000000
0.642459 109.928696 303.000000
0.642459 110.422424 303.000000
0.642459 110.916161 303.000000
0.640339 111.042206 302.000000
0.640339 111.534309 302.000000
0.640339 112.026413 302.000000
0.638218 112.145943 301.000000
0.638218 112.636414 301.000000
0.636098 112.751068 300.000000
0.636098 113.239914 300.000000
0.636098 113.728760 300.000000
0.633978 113.836876 299.000000
0.631857 113.941734 298.000000
0.631857 114.427322 298.000000
0.629737 114.527298 297.000000
0.629737 115.011253 297.000000
0.629737 115.495209 297.000000
0.629737 115.979172 297.000000
0.627617 116.070992 296.000000
0.625496 116.159561 295.000000
0.625496 116.640259 295.000000
0.625496 117.120956 295.000000
0.625496 117.601654 295.000000
0.625496 118.082352 295.000000
0.623376 118.161156 294.000000
0.623376 118.640228 294.000000
0.623376 119.119293 294.000000
0.621256 119.191566 293.000000
0.619135 119.260574 292.000000
0.619135 119.736389 292.000000
0.619135 120.212196 292.000000
0.617015 120.274689 291.000000
0.617015 120.748871 291.000000
0.617015 121.223053 291.000000
0.614895 121.279030 290.000000
0.614895 121.751579 290.000000
0.614895 122.224129 290.000000
1.465886 36.728806 391.000000
1.465886 37.365932 391.000000
1.465886 38.003063 391.000000
1.465886 38.640194 391.000000
1.465886 39.277321 391.000000
1.465886 39.914452 391.000000
1.462137 40.447872 390.000000
1.462137 41.083370 390.000000
1.462137 41.718872 390.000000
1.458387 42.245770 389.000000
1.454638 42.769409 388.000000
1.454638 43.401649 388.000000
1.450889 43.920399 387.000000
1.450889 44.551010 387.000000
1.447140 45.064877 386.000000
1.447140 45.693859 386.000000
1.447140 46.322842 386.000000
1.443391 46.830185 385.000000
1.443391 47.457535 385.000000
1.439642 47.959995 384.000000
1.435893 48.459194 383.000000
1.435893 49.083286 383.000000
1.435893 49.707382 383.000000
1.432144 50.200058 382.000000
1.432144 50.822525 382.000000
1.432144 51.444988 382.000000
1.428395 51.931152 381.000000
1.428395 52.551987 381.000000
1.428395 53.172821 381.000000
1.428395 53.793655 381.000000
1.428395 54.414490 381.000000
1.424646 54.890873 380.000000
1.420897 55.363998 379.000000
1.420897 55.981571 379.000000
1.417148 56.449814 378.000000
1.417148 57.065762 378.000000
1.417148 57.681705 378.000000
1.413399 58.143425 377.000000
1.413399 58.757740 377.000000
1.413399 59.372059 377.000000
1.409650 59.827259 376.000000
1.405900 60.279205 375.000000
1.405900 60.890263 375.000000
1.402151 61.337315 374.000000
1.402151 61.946743 374.000000
1.402151 62.556171 374.000000
1.402151 63.165600 374.000000
1.398402 63.604507 373.000000
1.394653 64.040154 372.000000
1.394653 64.646324 372.000000
1.390904 65.077087 371.000000
1.383406 65.327545 369.000000
1.383406 65.928825 369.000000
1.379657 66.349808 368.000000
1.379657 66.949463 368.000000
1.379657 67.549110 368.000000
1.372159 67.778389 366.000000
1.372159 68.374779 366.000000
1.372159 68.971169 366.000000
1.368410 69.377487 365.000000
1.368410 69.972252 365.000000
1.368410 70.567009 365.000000
1.368410 71.161774 365.000000
1.364661 71.559952 364.000000
1.364661 72.153084 364.000000
1.360912 72.546364 363.000000
1.357163 72.936386 362.000000
1.357163 73.526260 362.000000
1.357163 74.116135 362.000000
1.353414 74.499641 361.000000
1.353414 75.087883 361.000000
1.349664 75.466499 360.000000
1.345915 75.841850 359.000000
1.345915 76.426842 359.000000
1.342166 76.797310 358.000000
1.338417 77.164520 357.000000
1.330919 77.310692 355.000000
1.330919 77.889160 355.000000
1.327170 78.246597 354.000000
1.323421 78.600769 353.000000
1.323421 79.175980 353.000000
1.315923 79.299339 351.000000
1.312174 79.643738 350.000000
1.312174 80.214058 350.000000
1.308425 80.553558 349.000000
1.300927 80.657372 347.000000
1.300927 81.222801 347.000000
1.297178 81.552536 346.000000
1.297178 82.116333 346.000000
1.297178 82.680138 346.000000
1.293428 83.003349 345.000000
1.285930 83.081085 343.000000
1.285930 83.639999 343.000000
1.285930 84.198914 343.000000
1.282181 84.510719 342.000000
1.282181 85.068008 342.000000
1.282181 85.625290 342.000000
1.278432 85.930580 341.000000
1.278432 86.486229 341.000000
1.274683 86.786636 340.000000
1.270934 87.083778 339.000000
1.270934 87.636169 339.000000
1.270934 88.188568 339.000000
1.267185 88.479187 338.000000
1.267185 89.029961 338.000000
1.263436 89.315697 337.000000
1.259687 89.598167 336.000000
1.259687 90.145676 336.000000
1.259687 90.693184 336.000000
1.255938 90.969139 335.000000
1.252189 91.241837 334.000000
1.252189 91.786087 334.000000
1.248440 92.053902 333.000000
1.244691 92.318451 332.000000
1.244691 92.859444 332.000000
1.237192 92.837784 330.000000
1.233443 93.092552 329.000000
1.233443 93.628654 329.000000
1.233443 94.164757 329.000000
1.225945 94.125168 327.000000
