-36.183365 70.760345 366.000000
-36.084503 71.161774 365.000000
-36.084503 71.756538 365.000000
-36.084503 72.351303 365.000000
-35.886780 72.546364 363.000000
-35.689056 72.734901 361.000000
-35.689056 73.323151 361.000000
-35.392471 73.297173 358.000000
-35.194748 73.467789 356.000000
-35.194748 74.047882 356.000000
-35.095886 74.418350 355.000000
-34.997025 74.785561 354.000000
-34.997025 75.362404 354.000000
-34.898163 75.724724 353.000000
-34.799301 76.083778 352.000000
-34.601578 76.221809 350.000000
-34.601578 76.792130 350.000000
-34.601578 77.362450 350.000000
-34.502716 77.710106 349.000000
-34.502716 78.278793 349.000000
-34.403854 78.621559 348.000000
-34.304993 78.961075 347.000000
-34.304993 79.526505 347.000000
-34.304993 80.091942 347.000000
-34.206131 80.424927 346.000000
-34.206131 80.988731 346.000000
-34.206131 81.552536 346.000000
-34.107269 81.879005 345.000000
-34.107269 82.441177 345.000000
-34.008408 82.762764 344.000000
-33.909546 83.081085 343.000000
-33.909546 83.639999 343.000000
-33.909546 84.198914 343.000000
-33.810684 84.510719 342.000000
-33.810684 85.068008 342.000000
-33.810684 85.625290 342.000000
-33.711823 85.930580 341.000000
-33.711823 86.486229 341.000000
-33.612961 86.786636 340.000000
-33.612961 87.340660 340.000000
-33.612961 87.894691 340.000000
-33.514099 88.188568 339.000000
-33.514099 88.740967 339.000000
-33.514099 89.293358 339.000000
-33.415237 89.580727 338.000000
-33.316376 89.864830 337.000000
-33.316376 90.413971 337.000000
-33.316376 90.963112 337.000000
-33.316376 91.512245 337.000000
-33.217518 91.788200 336.000000
-33.217518 92.335709 336.000000
-33.118652 92.606773 335.000000
-33.118652 93.152657 335.000000
-33.118652 93.698532 335.000000
-33.019794 93.963081 334.000000
-33.019794 94.507332 334.000000
-33.019794 95.051582 334.000000
-32.920929 95.309616 333.000000
-32.822067 95.564392 332.000000
-32.822067 96.105385 332.000000
-32.723206 96.355263 331.000000
-32.624344 96.601898 330.000000
-32.624344 97.139626 330.000000
-32.624344 97.677361 330.000000
-32.525482 97.917465 329.000000
-32.525482 98.453568 329.000000
-32.525482 98.989670 329.000000
-32.426620 99.223259 328.000000
-32.426620 99.757729 328.000000
-32.327759 99.986435 327.000000
-32.228897 100.211884 326.000000
-32.228897 100.743095 326.000000
-32.228897 101.274307 326.000000
-32.228897 101.805519 326.000000
-32.228897 102.336731 326.000000
-32.031174 102.236847 324.000000
-31.932312 102.447632 323.000000
-31.932312 102.973961 323.000000
-31.932312 103.500282 323.000000
-31.833452 103.704544 322.000000
-31.833452 104.229233 322.000000
-31.734589 104.428604 321.000000
-31.734589 104.951668 321.000000
-31.734589 105.474739 321.000000
-31.635729 105.667595 320.000000
-31.635729 106.189034 320.000000
-31.536867 106.376999 319.000000
-31.536867 106.896805 319.000000
-31.438005 107.079880 318.000000
-31.438005 107.598053 318.000000
-31.438005 108.116234 318.000000
-31.339144 108.292786 317.000000
-31.339144 108.809334 317.000000
-31.339144 109.325882 317.000000
-31.240282 109.495926 316.000000
-31.141420 109.662704 315.000000
-31.141420 110.175995 315.000000
-31.141420 110.689278 315.000000
-31.042557 110.849556 314.000000
-31.042557 111.361214 314.000000
-31.042557 111.872871 314.000000
-30.844833 111.668701 312.000000
-30.844833 112.177101 312.000000
-30.745974 112.324333 311.000000
-30.745974 112.831100 311.000000
-30.745974 113.337875 311.000000
-30.647110 113.478584 310.000000
-30.548250 113.616028 309.000000
-30.548250 114.119545 309.000000
-30.548250 114.623055 309.000000
-30.449387 114.753990 308.000000
-30.449387 115.255867 308.000000
-30.350527 115.381927 307.000000
-30.350527 115.882179 307.000000
-30.350527 116.382431 307.000000
-30.251663 116.501953 306.000000
-30.152803 116.618225 305.000000
-30.152803 117.115219 305.000000
-30.152803 117.612206 305.000000
-30.152803 118.109200 305.000000
-30.053940 118.217323 304.000000
-30.053940 118.712685 304.000000
-29.955080 118.815918 303.000000
-29.955080 119.309654 303.000000
-29.955080 119.803383 303.000000
-29.856220 119.900101 302.000000
-29.856220 120.392204 302.000000
-29.856220 120.884308 302.000000
-29.658497 120.572609 300.000000
-29.658497 121.061455 300.000000
-29.658497 121.550301 300.000000
-29.658497 122.039146 300.000000
-29.559633 122.119560 299.000000
-29.559633 122.606781 299.000000
-29.559633 123.093994 299.000000
-29.559633 123.581215 299.000000
-29.559633 124.068428 299.000000
-29.460773 124.139069 298.000000
-29.460773 124.624657 298.000000
-29.460773 125.110245 298.000000
-29.361910 125.174370 297.000000
-29.361910 125.658325 297.000000
-29.361910 126.142281 297.000000
-29.361910 126.626244 297.000000
-29.263050 126.682213 296.000000
-29.263050 127.164543 296.000000
-29.263050 127.646873 296.000000
-29.164186 127.696327 295.000000
-29.164186 128.177032 295.000000
-29.164186 128.657730 295.000000
-29.164186 129.138428 295.000000
-29.164186 129.619125 295.000000
-29.164186 130.099823 295.000000
-29.065327 130.137894 294.000000
-29.065327 130.616959 294.000000
-29.065327 131.096024 294.000000
-29.065327 131.575089 294.000000
-28.966463 131.604996 293.000000
-28.966463 132.082443 293.000000
-28.966463 132.559875 293.000000
-28.867601 132.583267 292.000000
-28.867601 133.059082 292.000000
-28.867601 133.534882 292.000000
-28.867601 134.010696 292.000000
-28.867601 134.486511 292.000000
-28.867601 134.962311 292.000000
-28.867601 135.438126 292.000000
-28.867601 135.913940 292.000000
-28.867601 136.389740 292.000000
-28.867601 136.865555 292.000000
-28.867601 137.341370 292.000000
-28.867601 137.817184 292.000000
-28.867601 138.292984 292.000000
-28.867601 138.768799 292.000000
-28.867601 139.244614 292.000000
-28.867601 139.720413 292.000000
-28.867601 140.196228 292.000000
-28.867601 140.672043 292.000000
-28.867601 141.147842 292.000000
-28.867601 141.623657 292.000000
-28.867601 142.099472 292.000000
-28.867601 142.575287 292.000000
-28.867601 143.051086 292.000000
-28.867601 143.526901 292.000000
-28.867601 144.002716 292.000000
-28.867601 144.478516 292.000000
-28.867601 144.954330 292.000000
-28.867601 145.430145 292.000000
-28.867601 145.905960 292.000000
-28.867601 146.381760 292.000000
-28.867601 146.857574 292.000000
-28.867601 147.333389 292.000000
-28.867601 147.809189 292.000000
-28.867601 148.285004 292.000000
-28.966463 149.270279 293.000000
-28.966463 149.747711 293.000000
-28.966463 150.225143 293.000000
-28.966463 150.702591 293.000000
-28.966463 151.180023 293.000000
-28.966463 151.657471 293.000000
-28.966463 152.134903 293.000000
-28.966463 152.612350 293.000000
-28.966463 153.089783 293.000000
-28.867601 153.043106 292.000000
-28.867601 153.518921 292.000000
-28.867601 153.994720 292.000000
-28.867601 154.470535 292.000000
-28.867601 154.946350 292.000000
-28.867601 155.422165 292.000000
-28.867601 155.897964 292.000000
-28.867601 156.373779 292.000000
-28.867601 156.849594 292.000000
-28.867601 157.325394 292.000000
-28.867601 157.801208 292.000000
-28.867601 158.277023 292.000000
-28.867601 158.752838 292.000000
-28.867601 159.228638 292.000000
-28.867601 159.704453 292.000000
-28.867601 160.180267 292.000000
-28.867601 160.656067 292.000000
-28.867601 161.131882 292.000000
-28.867601 161.607697 292.000000
-28.867601 162.083496 292.000000
-28.867601 162.559311 292.000000
-28.867601 163.035126 292.000000
-28.867601 163.510941 292.000000
-28.867601 163.986740 292.000000
-28.867601 164.462555 292.000000
-28.966463 165.503220 293.000000
-28.966463 165.980667 293.000000
-28.966463 166.458099 293.000000
-28.966463 166.935547 293.000000
-28.966463 167.412979 293.000000
-29.065327 168.463425 294.000000
-29.065327 168.942505 294.000000
-29.065327 169.421570 294.000000
-29.065327 169.900635 294.000000
-29.065327 170.379700 294.000000
-29.065327 170.858780 294.000000
-29.065327 171.337845 294.000000
-29.065327 171.816910 294.000000
-29.065327 172.295990 294.000000
-29.164186 173.362717 295.000000
-29.164186 173.843414 295.000000
-29.164186 174.324112 295.000000
-29.164186 175.285507 295.000000
-29.164186 175.766205 295.000000
-38.309769 31.874466 394.000000
-38.309769 32.516483 394.000000
-38.309769 33.158501 394.000000
-38.232788 33.732605 393.208344
-38.232788 34.373333 393.208344
-37.454117 46.854515 385.200012
-37.454117 47.482193 385.200012
-37.454117 48.109871 385.200012
-37.045738 55.656158 381.000000
-37.045738 56.276993 381.000000
-37.045738 56.897827 381.000000
-37.045738 57.518661 381.000000
-37.045738 58.139500 381.000000
-37.045738 58.760334 381.000000
-36.948505 59.225307 380.000000
-36.948505 59.844513 380.000000
-36.851273 60.304604 379.000000
-36.754040 60.761440 378.000000
-36.656807 61.215008 377.000000
-36.656807 61.829327 377.000000
-36.462341 62.112377 375.000000
-36.365108 62.556171 374.000000
-36.365108 63.165600 374.000000
-36.267876 63.604507 373.000000
-36.170639 64.040154 372.000000
-36.170639 64.646324 372.000000
-35.976173 64.901672 370.000000
-35.878944 65.327545 369.000000
-35.878944 65.928825 369.000000
-35.878944 66.530106 369.000000
-35.781708 66.949463 368.000000
-35.781708 67.549110 368.000000
-35.684479 67.963577 367.000000
-35.587246 68.374779 366.000000
-35.587246 68.971169 366.000000
-35.587246 69.567566 366.000000
-35.587246 70.163956 366.000000
-35.587246 70.760345 366.000000
-35.490013 71.161774 365.000000
-35.490013 71.756538 365.000000
-35.490013 72.351303 365.000000
-35.295544 72.546364 363.000000
-35.003849 72.533424 360.000000
-35.003849 73.120033 360.000000
-34.809383 73.297173 358.000000
-34.614918 73.467789 356.000000
-34.614918 74.047882 356.000000
-34.517681 74.418350 355.000000
-34.420448 74.785561 354.000000
-34.420448 75.362404 354.000000
-34.323215 75.724724 353.000000
-34.225983 76.083778 352.000000
-34.031517 76.221809 350.000000
-34.031517 76.792130 350.000000
-34.031517 77.362450 350.000000
-33.934288 77.710106 349.000000
-33.934288 78.278793 349.000000
-33.837051 78.621559 348.000000
-33.739819 78.961075 347.000000
-33.739819 79.526505 347.000000
-33.739819 80.091942 347.000000
-33.642586 80.424927 346.000000
-33.642586 80.988731 346.000000
-33.545353 81.316826 345.000000
-33.448120 81.641678 344.000000
-33.448120 82.202217 344.000000
-33.448120 82.762764 344.000000
-33.350887 83.081085 343.000000
-33.350887 83.639999 343.000000
-33.253654 83.953438 342.000000
-33.253654 84.510719 342.000000
-33.253654 85.068008 342.000000
-33.253654 85.625290 342.000000
-33.059189 85.678589 340.000000
-33.059189 86.232613 340.000000
-33.059189 86.786636 340.000000
-33.059189 87.340660 340.000000
-33.059189 87.894691 340.000000
-32.961956 88.188568 339.000000
-32.864723 88.479187 338.000000
-32.864723 89.029961 338.000000
-32.864723 89.580727 338.000000
-32.767490 89.864830 337.000000
-32.767490 90.413971 337.000000
-32.767490 90.963112 337.000000
-32.767490 91.512245 337.000000
-32.670258 91.788200 336.000000
-32.670258 92.335709 336.000000
-32.573025 92.606773 335.000000
-32.573025 93.152657 335.000000
-32.573025 93.698532 335.000000
-32.475792 93.963081 334.000000
-32.475792 94.507332 334.000000
-32.475792 95.051582 334.000000
-32.378559 95.309616 333.000000
-32.281326 95.564392 332.000000
-32.281326 96.105385 332.000000
-32.184093 96.355263 331.000000
-32.086861 96.601898 330.000000
-32.086861 97.139626 330.000000
-32.086861 97.677361 330.000000
-31.989626 97.917465 329.000000
-31.989626 98.453568 329.000000
-31.989626 98.989670 329.000000
-31.892395 99.223259 328.000000
-31.892395 99.757729 328.000000
-31.795160 99.986435 327.000000
-31.697929 100.211884 326.000000
-31.697929 100.743095 326.000000
-31.697929 101.274307 326.000000
-31.697929 101.805519 326.000000
-31.697929 102.336731 326.000000
-31.503464 102.236847 324.000000
-31.406229 102.447632 323.000000
-31.406229 102.973961 323.000000
-31.406229 103.500282 323.000000
-31.308996 103.704544 322.000000
-31.308996 104.229233 322.000000
-31.308996 104.753929 322.000000
-31.211761 104.951668 321.000000
-31.211761 105.474739 321.000000
-31.211761 105.997803 321.000000
-31.114531 106.189034 320.000000
-31.017300 106.376999 319.000000
-31.017300 106.896805 319.000000
-31.017300 107.416611 319.000000
-30.920065 107.598053 318.000000
-30.920065 108.116234 318.000000
-30.822834 108.292786 317.000000
-30.822834 108.809334 317.000000
-30.822834 109.325882 317.000000
-30.725599 109.495926 316.000000
-30.628366 109.662704 315.000000
-30.628366 110.175995 315.000000
-30.628366 110.689278 315.000000
-30.531134 110.849556 314.000000
-30.531134 111.361214 314.000000
-30.531134 111.872871 314.000000
-30.336666 111.668701 312.000000
-30.336666 112.177101 312.000000
-30.239435 112.324333 311.000000
-30.239435 112.831100 311.000000
-30.239435 113.337875 311.000000
-30.142200 113.478584 310.000000
-30.044970 113.616028 309.000000
-30.044970 114.119545 309.000000
-30.044970 114.623055 309.000000
-29.947735 114.753990 308.000000
-29.947735 115.255867 308.000000
-29.850504 115.381927 307.000000
-29.850504 115.882179 307.000000
-29.850504 116.382431 307.000000
-29.753269 116.501953 306.000000
-29.656036 116.618225 305.000000
-29.656036 117.115219 305.000000
-29.656036 117.612206 305.000000
-29.656036 118.109200 305.000000
-29.558804 118.217323 304.000000
-29.558804 118.712685 304.000000
-29.461571 118.815918 303.000000
-29.461571 119.309654 303.000000
-29.461571 119.803383 303.000000
-29.364340 119.900101 302.000000
-29.364340 120.392204 302.000000
-29.364340 120.884308 302.000000
-29.169874 120.572609 300.000000
-29.169874 121.061455 300.000000
-29.169874 121.550301 300.000000
-29.169874 122.039146 300.000000
-29.072639 122.119560 299.000000
-29.072639 122.606781 299.000000
-29.072639 123.093994 299.000000
-29.072639 123.581215 299.000000
-29.072639 124.068428 299.000000
-28.975409 124.139069 298.000000
-28.975409 124.624657 298.000000
-28.975409 125.110245 298.000000
-28.878174 125.174370 297.000000
-28.878174 125.658325 297.000000
-28.878174 126.142281 297.000000
-28.878174 126.626244 297.000000
-28.780941 126.682213 296.000000
-28.780941 127.164543 296.000000
-28.780941 127.646873 296.000000
-28.683706 127.696327 295.000000
-28.683706 128.177032 295.000000
-28.683706 128.657730 295.000000
-28.683706 129.138428 295.000000
-28.683706 129.619125 295.000000
-28.683706 130.099823 295.000000
-28.586475 130.137894 294.000000
-28.586475 130.616959 294.000000
-28.586475 131.096024 294.000000
-28.586475 131.575089 294.000000
-28.489241 131.604996 293.000000
-28.489241 132.082443 293.000000
-28.489241 132.559875 293.000000
-28.392010 132.583267 292.000000
-28.392010 133.059082 292.000000
-28.392010 133.534882 292.000000
-28.392010 134.010696 292.000000
-28.392010 134.486511 292.000000
-28.392010 134.962311 292.000000
-28.392010 135.438126 292.000000
-28.392010 135.913940 292.000000
-28.392010 136.389740 292.000000
-28.392010 136.865555 292.000000
-28.392010 137.341370 292.000000
-28.392010 137.817184 292.000000
-28.392010 138.292984 292.000000
-28.392010 138.768799 292.000000
-28.392010 139.244614 292.000000
-28.392010 139.720413 292.000000
-28.392010 140.196228 292.000000
-28.392010 140.672043 292.000000
-28.392010 141.147842 292.000000
-28.392010 141.623657 292.000000
-28.392010 142.099472 292.000000
-28.392010 142.575287 292.000000
-28.392010 143.051086 292.000000
-28.392010 143.526901 292.000000
-28.392010 144.002716 292.000000
-28.392010 144.478516 292.000000
-28.392010 144.954330 292.000000
-28.392010 145.430145 292.000000
-28.392010 145.905960 292.000000
-28.392010 146.381760 292.000000
-28.392010 146.857574 292.000000
-28.392010 147.333389 292.000000
-28.392010 147.809189 292.000000
-28.392010 148.285004 292.000000
-28.392010 148.760818 292.000000
-28.392010 149.236618 292.000000
-28.392010 149.712433 292.000000
-28.392010 150.188248 292.000000
-28.392010 150.664063 292.000000
-28.392010 151.139862 292.000000
-28.392010 151.615677 292.000000
-28.392010 152.091492 292.000000
-28.392010 152.567291 292.000000
-28.392010 153.043106 292.000000
-28.392010 153.518921 292.000000
-28.392010 153.994720 292.000000
-28.392010 154.470535 292.000000
-28.392010 154.946350 292.000000
-28.392010 155.422165 292.000000
-28.392010 155.897964 292.000000
-28.392010 156.373779 292.000000
-28.392010 156.849594 292.000000
-28.392010 157.325394 292.000000
-28.392010 157.801208 292.000000
-28.294775 157.734970 291.000000
-28.294775 158.209152 291.000000
-28.294775 158.683334 291.000000
-28.294775 159.157516 291.000000
-28.294775 159.631699 291.000000
-28.392010 160.656067 292.000000
-28.392010 161.131882 292.000000
-28.392010 161.607697 292.000000
-28.392010 162.083496 292.000000
-28.392010 162.559311 292.000000
-28.392010 163.035126 292.000000
-28.392010 163.510941 292.000000
-28.392010 163.986740 292.000000
-28.392010 164.462555 292.000000
-28.392010 164.938370 292.000000
-28.392010 165.414169 292.000000
-28.392010 165.889984 292.000000
-28.392010 166.365799 292.000000
-28.392010 166.841614 292.000000
-28.392010 167.317413 292.000000
-28.489241 168.367859 293.000000
-28.489241 168.845306 293.000000
-28.489241 169.322739 293.000000
-28.392010 169.220657 292.000000
-28.392010 169.696472 292.000000
-28.489241 170.755066 293.000000
-28.489241 171.232498 293.000000
-28.489241 171.709946 293.000000
-28.683706 173.362717 295.000000
-28.683706 173.843414 295.000000
-28.586475 173.733185 294.000000
-28.586475 174.691330 294.000000
-28.586475 175.170395 294.000000
-28.584240 183.779282 293.977020
-28.584240 184.258301 293.977020
-37.648922 31.858286 393.799988
-37.648922 32.499977 393.799988
-37.648922 33.141670 393.799988
-37.575527 33.717503 393.032288
-37.575527 34.357944 393.032288
-37.521961 34.948498 392.472046
-36.742592 46.747471 384.320007
-36.742592 47.373718 384.320007
-36.742592 47.999962 384.320007
-36.421764 53.167824 380.964203
-36.520790 53.934849 382.000000
-36.520790 54.557312 382.000000
-36.520790 55.179775 382.000000
-36.520790 55.802238 382.000000
-36.520790 56.424706 382.000000
-36.425190 56.897827 381.000000
-36.425190 57.518661 381.000000
-36.425190 58.139500 381.000000
-36.329582 58.606106 380.000000
-36.233982 59.069450 379.000000
-36.233982 59.687027 379.000000
-36.138374 60.145493 378.000000
-36.138374 60.761440 378.000000
-35.947166 61.052631 376.000000
-35.947166 61.665321 376.000000
-35.851563 62.112377 375.000000
-35.755959 62.556171 374.000000
-35.755959 63.165600 374.000000
-35.660355 63.604507 373.000000
-35.564751 64.040154 372.000000
-35.564751 64.646324 372.000000
-35.373539 64.901672 370.000000
-35.277939 65.327545 369.000000
-35.277939 65.928825 369.000000
-35.277939 66.530106 369.000000
-35.182331 66.949463 368.000000
-35.182331 67.549110 368.000000
-35.086731 67.963577 367.000000
-34.991127 68.374779 366.000000
-34.991127 68.971169 366.000000
-34.991127 69.567566 366.000000
-34.991127 70.163956 366.000000
-34.991127 70.760345 366.000000
-34.895519 71.161774 365.000000
-34.895519 71.756538 365.000000
-34.895519 72.351303 365.000000
-34.704311 72.546364 363.000000
-34.417500 72.533424 360.000000
-34.417500 73.120033 360.000000
-34.130688 73.092430 357.000000
-34.035084 73.467789 356.000000
-34.035084 74.047882 356.000000
-33.939480 74.418350 355.000000
-33.843876 74.785561 354.000000
-33.843876 75.362404 354.000000
-33.652668 75.510201 352.000000
-33.557064 75.867638 351.000000
-33.461460 76.221809 350.000000
-33.461460 76.792130 350.000000
-33.461460 77.362450 350.000000
-33.365856 77.710106 349.000000
-33.365856 78.278793 349.000000
-33.270248 78.621559 348.000000
-33.174648 78.961075 347.000000
-33.174648 79.526505 347.000000
-33.174648 80.091942 347.000000
-33.079041 80.424927 346.000000
-33.079041 80.988731 346.000000
-32.983440 81.316826 345.000000
-32.887833 81.641678 344.000000
-32.887833 82.202217 344.000000
-32.887833 82.762764 344.000000
-32.792229 83.081085 343.000000
-32.792229 83.639999 343.000000
-32.696625 83.953438 342.000000
-32.696625 84.510719 342.000000
-32.696625 85.068008 342.000000
-32.601021 85.374924 341.000000
-32.505417 85.678589 340.000000
-32.505417 86.232613 340.000000
-32.505417 86.786636 340.000000
-32.409813 87.083778 339.000000
-32.409813 87.636169 339.000000
-32.409813 88.188568 339.000000
-32.314209 88.479187 338.000000
-32.314209 89.029961 338.000000
-32.314209 89.580727 338.000000
-32.218605 89.864830 337.000000
-32.218605 90.413971 337.000000
-32.218605 90.963112 337.000000
-32.218605 91.512245 337.000000
-32.123001 91.788200 336.000000
-32.123001 92.335709 336.000000
-32.027397 92.606773 335.000000
-32.027397 93.152657 335.000000
-32.027397 93.698532 335.000000
-31.931793 93.963081 334.000000
-31.931793 94.507332 334.000000
-31.931793 95.051582 334.000000
-31.836187 95.309616 333.000000
-31.740585 95.564392 332.000000
-31.740585 96.105385 332.000000
-31.644979 96.355263 331.000000
-31.549376 96.601898 330.000000
-31.549376 97.139626 330.000000
-31.549376 97.677361 330.000000
-31.453770 97.917465 329.000000
-31.453770 98.453568 329.000000
-31.453770 98.989670 329.000000
-31.358168 99.223259 328.000000
-31.358168 99.757729 328.000000
-31.262562 99.986435 327.000000
-31.166960 100.211884 326.000000
-31.166960 100.743095 326.000000
-31.166960 101.274307 326.000000
-31.166960 101.805519 326.000000
-31.166960 102.336731 326.000000
-30.975750 102.236847 324.000000
-30.880144 102.447632 323.000000
-30.880144 102.973961 323.000000
-30.880144 103.500282 323.000000
-30.880144 104.026604 323.000000
-30.880144 104.552933 323.000000
-30.784542 104.753929 322.000000
-30.688936 104.951668 321.000000
-30.688936 105.474739 321.000000
-30.688936 105.997803 321.000000
-30.593334 106.189034 320.000000
-30.497730 106.376999 319.000000
-30.497730 106.896805 319.000000
-30.497730 107.416611 319.000000
-30.402124 107.598053 318.000000
-30.402124 108.116234 318.000000
-30.306522 108.292786 317.000000
-30.306522 108.809334 317.000000
-30.306522 109.325882 317.000000
-30.210917 109.495926 316.000000
-30.115314 109.662704 315.000000
-30.115314 110.175995 315.000000
-30.115314 110.689278 315.000000
-30.019709 110.849556 314.000000
-30.019709 111.361214 314.000000
-30.019709 111.872871 314.000000
-29.828499 111.668701 312.000000
-29.828499 112.177101 312.000000
-29.732897 112.324333 311.000000
-29.732897 112.831100 311.000000
-29.732897 113.337875 311.000000
-29.637291 113.478584 310.000000
-29.541689 113.616028 309.000000
-29.541689 114.119545 309.000000
-29.541689 114.623055 309.000000
-29.446083 114.753990 308.000000
-29.446083 115.255867 308.000000
-29.350479 115.381927 307.000000
-29.350479 115.882179 307.000000
-29.350479 116.382431 307.000000
-29.254873 116.501953 306.000000
-29.159271 116.618225 305.000000
-29.159271 117.115219 305.000000
-29.159271 117.612206 305.000000
-29.159271 118.109200 305.000000
-29.063665 118.217323 304.000000
-29.063665 118.712685 304.000000
-28.968063 118.815918 303.000000
-28.968063 119.309654 303.000000
-28.968063 119.803383 303.000000
-28.872459 119.900101 302.000000
-28.872459 120.392204 302.000000
-28.872459 120.884308 302.000000
-28.776854 120.974503 301.000000
-28.681252 121.061455 300.000000
-28.681252 121.550301 300.000000
-28.681252 122.039146 300.000000
-28.585646 122.119560 299.000000
-28.585646 122.606781 299.000000
-28.585646 123.093994 299.000000
-28.585646 123.581215 299.000000
-28.585646 124.068428 299.000000
-28.490044 124.139069 298.000000
-28.490044 124.624657 298.000000
-28.490044 125.110245 298.000000
-28.394438 125.174370 297.000000
-28.394438 125.658325 297.000000
-28.394438 126.142281 297.000000
-28.394438 126.626244 297.000000
-28.298834 126.682213 296.000000
-28.298834 127.164543 296.000000
-28.298834 127.646873 296.000000
-28.203228 127.696327 295.000000
-28.203228 128.177032 295.000000
-28.203228 128.657730 295.000000
-28.203228 129.138428 295.000000
-28.203228 129.619125 295.000000
-28.203228 130.099823 295.000000
-28.107626 130.137894 294.000000
-28.107626 130.616959 294.000000
-28.107626 131.096024 294.000000
-28.012020 131.127563 293.000000
-28.012020 131.604996 293.000000
-28.012020 132.082443 293.000000
-28.012020 132.559875 293.000000
-27.916418 132.583267 292.000000
-27.916418 133.059082 292.000000
-27.916418 133.534882 292.000000
-27.916418 134.010696 292.000000
-27.916418 134.486511 292.000000
-27.916418 134.962311 292.000000
-27.916418 135.438126 292.000000
-27.916418 135.913940 292.000000
-27.916418 136.389740 292.000000
-27.916418 136.865555 292.000000
-27.916418 137.341370 292.000000
-27.916418 137.817184 292.000000
-27.916418 138.292984 292.000000
-27.916418 138.768799 292.000000
-27.916418 139.244614 292.000000
-27.916418 139.720413 292.000000
-27.916418 140.196228 292.000000
-27.916418 140.672043 292.000000
-27.916418 141.147842 292.000000
-27.916418 141.623657 292.000000
-27.916418 142.099472 292.000000
-27.916418 142.575287 292.000000
-27.916418 143.051086 292.000000
-27.916418 143.526901 292.000000
-27.916418 144.002716 292.000000
-27.916418 144.478516 292.000000
-27.916418 144.954330 292.000000
-27.916418 145.430145 292.000000
-27.916418 145.905960 292.000000
-27.916418 146.381760 292.000000
-27.916418 146.857574 292.000000
-27.916418 147.333389 292.000000
-27.916418 147.809189 292.000000
-27.916418 148.285004 292.000000
-27.916418 148.760818 292.000000
-27.916418 149.236618 292.000000
-27.916418 149.712433 292.000000
-27.916418 150.188248 292.000000
-27.916418 150.664063 292.000000
-27.916418 151.139862 292.000000
-27.916418 151.615677 292.000000
-27.916418 152.091492 292.000000
-27.916418 152.567291 292.000000
-27.916418 153.043106 292.000000
-27.916418 153.518921 292.000000
-27.916418 153.994720 292.000000
-27.916418 154.470535 292.000000
-27.916418 154.946350 292.000000
-27.916418 155.422165 292.000000
-27.916418 155.897964 292.000000
-27.916418 156.373779 292.000000
-27.916418 156.849594 292.000000
-27.916418 157.325394 292.000000
-27.916418 157.801208 292.000000
-27.820812 157.734970 291.000000
-27.820812 158.209152 291.000000
-27.820812 158.683334 291.000000
-27.820812 159.157516 291.000000
-27.820812 159.631699 291.000000
-27.916418 160.656067 292.000000
-27.916418 161.131882 292.000000
-27.916418 161.607697 292.000000
-27.916418 162.083496 292.000000
-27.916418 162.559311 292.000000
-27.916418 163.035126 292.000000
-27.916418 163.510941 292.000000
-27.916418 163.986740 292.000000
-27.916418 164.462555 292.000000
-27.916418 164.938370 292.000000
-27.916418 165.414169 292.000000
-27.916418 165.889984 292.000000
-27.916418 166.365799 292.000000
-27.916418 166.841614 292.000000
-27.916418 167.317413 292.000000
-28.012020 168.367859 293.000000
-28.012020 168.845306 293.000000
-28.012020 169.322739 293.000000
-27.916418 169.220657 292.000000
-27.916418 169.696472 292.000000
-28.012020 170.755066 293.000000
-28.012020 171.232498 293.000000
-28.012020 171.709946 293.000000
-28.012020 172.187378 293.000000
-28.107626 173.254120 294.000000
-28.012020 173.142258 293.000000
-28.012020 174.097137 293.000000
-28.107626 175.170395 294.000000
-28.105427 184.258301 293.977020
-28.105427 185.216370 293.977020
-28.105427 185.695404 293.977020
-28.105427 186.653458 293.977020
-37.007523 31.858286 393.799988
-37.007523 32.499977 393.799988
-37.007523 33.141670 393.799988
-36.935375 33.717503 393.032288
-36.935375 34.357944 393.032288
-36.882729 34.948498 392.472046
-36.116634 46.747471 384.320007
-36.116634 47.373718 384.320007
-36.275948 48.211693 386.015259
-36.275948 48.840698 386.015259
-36.275948 49.469704 386.015259
-36.231770 50.037701 385.545135
-36.171406 50.581532 384.902832
-36.171406 51.208725 384.902832
-36.113983 51.753624 384.291748
-36.086563 52.340057 384.000000
-36.086563 52.965778 384.000000
-36.086563 53.591503 384.000000
-36.086563 54.217228 384.000000
-36.086563 54.842949 384.000000
-35.992588 55.324223 383.000000
-35.898613 55.802238 382.000000
-35.898613 56.424706 382.000000
-35.804638 56.897827 381.000000
-35.804638 57.518661 381.000000
-35.804638 58.139500 381.000000
-35.710663 58.606106 380.000000
-35.616688 59.069450 379.000000
-35.616688 59.687027 379.000000
-35.522709 60.145493 378.000000
-35.428738 60.600693 377.000000
-35.240784 60.890263 375.000000
-35.240784 61.501320 375.000000
-35.146809 61.946743 374.000000
-35.146809 62.556171 374.000000
-35.146809 63.165600 374.000000
-35.052834 63.604507 373.000000
-34.864883 63.868004 371.000000
-34.864883 64.472542 371.000000
-34.770905 64.901672 370.000000
-34.676933 65.327545 369.000000
-34.676933 65.928825 369.000000
-34.676933 66.530106 369.000000
-34.582954 66.949463 368.000000
-34.582954 67.549110 368.000000
-34.488979 67.963577 367.000000
-34.395008 68.374779 366.000000
-34.395008 68.971169 366.000000
-34.395008 69.567566 366.000000
-34.395008 70.163956 366.000000
-34.395008 70.760345 366.000000
-34.301029 71.161774 365.000000
-34.301029 71.756538 365.000000
-34.301029 72.351303 365.000000
-34.113079 72.546364 363.000000
-33.831154 72.533424 360.000000
-33.831154 73.120033 360.000000
-33.549225 73.092430 357.000000
-33.361275 73.261414 355.000000
-33.361275 73.839882 355.000000
-33.361275 74.418350 355.000000
-33.173325 74.574303 353.000000
-33.173325 75.149513 353.000000
-33.079350 75.510201 352.000000
-32.985374 75.867638 351.000000
-32.891399 76.221809 350.000000
-32.891399 76.792130 350.000000
-32.797424 77.141411 349.000000
-32.703449 77.487442 348.000000
-32.703449 78.054497 348.000000
-32.703449 78.621559 348.000000
-32.609474 78.961075 347.000000
-32.609474 79.526505 347.000000
-32.515495 79.861122 346.000000
-32.515495 80.424927 346.000000
-32.515495 80.988731 346.000000
-32.421524 81.316826 345.000000
-32.327545 81.641678 344.000000
-32.327545 82.202217 344.000000
-32.233570 82.522171 343.000000
-32.233570 83.081085 343.000000
-32.233570 83.639999 343.000000
-32.139595 83.953438 342.000000
-32.139595 84.510719 342.000000
-32.139595 85.068008 342.000000
-32.045620 85.374924 341.000000
-31.951643 85.678589 340.000000
-31.951643 86.232613 340.000000
-31.951643 86.786636 340.000000
-31.857670 87.083778 339.000000
-31.857670 87.636169 339.000000
-31.857670 88.188568 339.000000
-31.763693 88.479187 338.000000
-31.763693 89.029961 338.000000
-31.763693 89.580727 338.000000
-31.669718 89.864830 337.000000
-31.669718 90.413971 337.000000
-31.669718 90.963112 337.000000
-31.669718 91.512245 337.000000
-31.575745 91.788200 336.000000
-31.575745 92.335709 336.000000
-31.481768 92.606773 335.000000
-31.481768 93.152657 335.000000
-31.481768 93.698532 335.000000
-31.387794 93.963081 334.000000
-31.387794 94.507332 334.000000
-31.387794 95.051582 334.000000
-31.293816 95.309616 333.000000
-31.199842 95.564392 332.000000
-31.199842 96.105385 332.000000
-31.105865 96.355263 331.000000
-31.105865 96.894630 331.000000
-31.105865 97.433990 331.000000
-31.011892 97.677361 330.000000
-30.917913 97.917465 329.000000
-30.917913 98.453568 329.000000
-30.917913 98.989670 329.000000
-30.823940 99.223259 328.000000
-30.823940 99.757729 328.000000
-30.729963 99.986435 327.000000
-30.635990 100.211884 326.000000
-30.635990 100.743095 326.000000
-30.635990 101.274307 326.000000
-30.635990 101.805519 326.000000
-30.635990 102.336731 326.000000
-30.448038 102.236847 324.000000
-30.354061 102.447632 323.000000
-30.354061 102.973961 323.000000
-30.354061 103.500282 323.000000
-30.354061 104.026604 323.000000
-30.354061 104.552933 323.000000
-30.260088 104.753929 322.000000
-30.166111 104.951668 321.000000
-30.166111 105.474739 321.000000
-30.166111 105.997803 321.000000
-30.072136 106.189034 320.000000
-29.978163 106.376999 319.000000
-29.978163 106.896805 319.000000
-29.978163 107.416611 319.000000
-29.884186 107.598053 318.000000
-29.884186 108.116234 318.000000
-29.790211 108.292786 317.000000
-29.790211 108.809334 317.000000
-29.790211 109.325882 317.000000
-29.696234 109.495926 316.000000
-29.602261 109.662704 315.000000
-29.602261 110.175995 315.000000
-29.602261 110.689278 315.000000
-29.508284 110.849556 314.000000
-29.508284 111.361214 314.000000
-29.508284 111.872871 314.000000
-29.320332 111.668701 312.000000
-29.320332 112.177101 312.000000
-29.226358 112.324333 311.000000
-29.226358 112.831100 311.000000
-29.226358 113.337875 311.000000
-29.132381 113.478584 310.000000
-29.038406 113.616028 309.000000
-29.038406 114.119545 309.000000
-29.038406 114.623055 309.000000
-28.944429 114.753990 308.000000
-28.944429 115.255867 308.000000
-28.944429 115.757751 308.000000
-28.850456 115.882179 307.000000
-28.850456 116.382431 307.000000
-28.756479 116.501953 306.000000
-28.662504 116.618225 305.000000
-28.662504 117.115219 305.000000
-28.662504 117.612206 305.000000
-28.662504 118.109200 305.000000
-28.568527 118.217323 304.000000
-28.568527 118.712685 304.000000
-28.474554 118.815918 303.000000
-28.474554 119.309654 303.000000
-28.474554 119.803383 303.000000
-28.380581 119.900101 302.000000
-28.380581 120.392204 302.000000
-28.380581 120.884308 302.000000
-28.286602 120.974503 301.000000
-28.192629 121.061455 300.000000
-28.192629 121.550301 300.000000
-28.192629 122.039146 300.000000
-28.098652 122.119560 299.000000
-28.098652 122.606781 299.000000
-28.098652 123.093994 299.000000
-28.098652 123.581215 299.000000
-28.098652 124.068428 299.000000
-28.098652 124.555649 299.000000
-28.004679 124.624657 298.000000
-28.004679 125.110245 298.000000
-28.004679 125.595833 298.000000
-27.910700 125.658325 297.000000
-27.910700 126.142281 297.000000
-27.910700 126.626244 297.000000
-27.816727 126.682213 296.000000
-27.816727 127.164543 296.000000
-27.816727 127.646873 296.000000
-27.722750 127.696327 295.000000
-27.722750 128.177032 295.000000
-27.722750 128.657730 295.000000
-27.722750 129.138428 295.000000
-27.722750 129.619125 295.000000
-27.628777 129.658813 294.000000
-27.628777 130.137894 294.000000
-27.628777 130.616959 294.000000
-27.628777 131.096024 294.000000
-27.534800 131.127563 293.000000
-27.534800 131.604996 293.000000
-27.534800 132.082443 293.000000
-27.534800 132.559875 293.000000
-27.440825 132.583267 292.000000
-27.440825 133.059082 292.000000
-27.440825 133.534882 292.000000
-27.440825 134.010696 292.000000
-27.440825 134.486511 292.000000
-27.440825 134.962311 292.000000
-27.440825 135.438126 292.000000
-27.440825 135.913940 292.000000
-27.440825 136.389740 292.000000
-27.440825 136.865555 292.000000
-27.440825 137.341370 292.000000
-27.440825 137.817184 292.000000
-27.440825 138.292984 292.000000
-27.440825 138.768799 292.000000
-27.440825 139.244614 292.000000
-27.440825 139.720413 292.000000
-27.440825 140.196228 292.000000
-27.440825 140.672043 292.000000
-27.440825 141.147842 292.000000
-27.440825 141.623657 292.000000
-27.440825 142.099472 292.000000
-27.440825 142.575287 292.000000
-27.440825 143.051086 292.000000
-27.440825 143.526901 292.000000
-27.440825 144.002716 292.000000
-27.440825 144.478516 292.000000
-27.440825 144.954330 292.000000
-27.440825 145.430145 292.000000
-27.440825 145.905960 292.000000
-27.440825 146.381760 292.000000
-27.440825 146.857574 292.000000
-27.440825 147.333389 292.000000
-27.440825 147.809189 292.000000
-27.440825 148.285004 292.000000
-27.440825 148.760818 292.000000
-27.440825 149.236618 292.000000
-27.440825 149.712433 292.000000
-27.440825 150.188248 292.000000
-27.440825 150.664063 292.000000
-27.440825 151.139862 292.000000
-27.440825 151.615677 292.000000
-27.440825 152.091492 292.000000
-27.440825 152.567291 292.000000
-27.440825 153.043106 292.000000
-27.440825 153.518921 292.000000
-27.440825 153.994720 292.000000
-27.440825 154.470535 292.000000
-27.440825 154.946350 292.000000
-27.440825 155.422165 292.000000
-27.440825 155.897964 292.000000
-27.440825 156.373779 292.000000
-27.346848 156.312439 291.000000
-27.346848 156.786606 291.000000
-27.346848 157.260788 291.000000
-27.346848 157.734970 291.000000
-27.346848 158.209152 291.000000
-27.346848 158.683334 291.000000
-27.346848 159.157516 291.000000
-27.346848 159.631699 291.000000
-27.346848 160.105881 291.000000
-27.346848 160.580063 291.000000
-27.346848 161.054245 291.000000
-27.346848 161.528427 291.000000
-27.346848 162.002609 291.000000
-27.346848 162.476776 291.000000
-27.346848 162.950958 291.000000
-27.346848 163.425140 291.000000
-27.346848 163.899323 291.000000
-27.346848 164.373505 291.000000
-27.346848 164.847687 291.000000
-27.346848 165.321869 291.000000
-27.346848 165.796051 291.000000
-27.346848 166.270233 291.000000
-27.346848 166.744415 291.000000
-27.440825 167.793228 292.000000
-27.440825 168.269043 292.000000
-27.440825 168.744843 292.000000
-27.440825 169.220657 292.000000
-27.440825 169.696472 292.000000
-27.440825 170.172272 292.000000
-27.440825 170.648087 292.000000
-27.440825 171.123901 292.000000
-27.440825 171.599716 292.000000
-27.534800 172.664825 293.000000
-36.276760 33.060230 392.832306
-36.276760 33.700348 392.832306
-36.276760 34.340462 392.832306
-36.243492 34.948498 392.472046
-36.169346 35.515217 391.669128
-36.169346 36.153439 391.669128
-36.159088 36.781223 391.558044
-36.140617 37.400150 391.358032
-36.140617 38.037861 391.358032
-36.123829 38.657604 391.176208
-36.100739 39.269909 390.926208
-36.100739 39.906918 390.926208
-36.084778 40.526005 390.753387
-36.079811 41.157063 390.699585
-36.079811 41.793705 390.699585
-36.061340 42.408623 390.499573
-36.044025 43.024269 390.312073
-36.011646 43.621056 389.961426
-36.011646 44.256493 389.961426
-35.968590 44.838261 389.495209
-35.902157 45.388943 388.775787
-35.902157 46.022449 388.775787
-35.834934 46.568600 388.047882
-35.763000 47.106171 387.268921
-35.763000 47.737221 387.268921
-35.696838 48.278790 386.552490
-35.647228 48.840698 386.015259
-35.647228 49.469704 386.015259
-35.603813 50.037701 385.545135
-35.544502 50.581532 384.902832
-35.544502 51.208725 384.902832
-35.488068 51.753624 384.291748
-35.461128 52.340057 384.000000
-35.461128 52.965778 384.000000
-35.461128 53.591503 384.000000
-35.461128 54.217228 384.000000
-35.461128 54.842949 384.000000
-35.368782 55.324223 383.000000
-35.276432 55.802238 382.000000
-35.276432 56.424706 382.000000
-35.184090 56.897827 381.000000
-35.184090 57.518661 381.000000
-35.184090 58.139500 381.000000
-35.091740 58.606106 380.000000
-34.999393 59.069450 379.000000
-34.999393 59.687027 379.000000
-34.907047 60.145493 378.000000
-34.814701 60.600693 377.000000
-34.630009 60.890263 375.000000
-34.630009 61.501320 375.000000
-34.537659 61.946743 374.000000
-34.537659 62.556171 374.000000
-34.537659 63.165600 374.000000
-34.352966 63.433983 372.000000
-34.260620 63.868004 371.000000
-34.260620 64.472542 371.000000
-34.168270 64.901672 370.000000
-34.075928 65.327545 369.000000
-34.075928 65.928825 369.000000
-34.075928 66.530106 369.000000
-33.983578 66.949463 368.000000
-33.983578 67.549110 368.000000
-33.891232 67.963577 367.000000
-33.798889 68.374779 366.000000
-33.798889 68.971169 366.000000
-33.798889 69.567566 366.000000
-33.798889 70.163956 366.000000
-33.798889 70.760345 366.000000
-33.706539 71.161774 365.000000
-33.706539 71.756538 365.000000
-33.706539 72.351303 365.000000
-33.521847 72.546364 363.000000
-33.244808 72.533424 360.000000
-33.244808 73.120033 360.000000
-32.967766 73.092430 357.000000
-32.783073 73.261414 355.000000
-32.783073 73.839882 355.000000
-32.783073 74.418350 355.000000
-32.598377 74.574303 353.000000
-32.598377 75.149513 353.000000
-32.506031 75.510201 352.000000
-32.321339 75.651489 350.000000
-32.321339 76.221809 350.000000
-32.321339 76.792130 350.000000
-32.228992 77.141411 349.000000
-32.136646 77.487442 348.000000
-32.136646 78.054497 348.000000
-32.044300 78.395645 347.000000
-32.044300 78.961075 347.000000
-32.044300 79.526505 347.000000
-31.951952 79.861122 346.000000
-31.951952 80.424927 346.000000
-31.951952 80.988731 346.000000
-31.859608 81.316826 345.000000
-31.767258 81.641678 344.000000
-31.767258 82.202217 344.000000
-31.674913 82.522171 343.000000
-31.582565 82.838867 342.000000
-31.582565 83.396149 342.000000
-31.582565 83.953438 342.000000
-31.490219 84.263611 341.000000
-31.490219 84.819267 341.000000
-31.397871 85.124557 340.000000
-31.397871 85.678589 340.000000
-31.397871 86.232613 340.000000
-31.397871 86.786636 340.000000
-31.305527 87.083778 339.000000
-31.305527 87.636169 339.000000
-31.305527 88.188568 339.000000
-31.213179 88.479187 338.000000
-31.213179 89.029961 338.000000
-31.213179 89.580727 338.000000
-31.120832 89.864830 337.000000
-31.120832 90.413971 337.000000
-31.120832 90.963112 337.000000
-31.028488 91.240692 336.000000
-31.028488 91.788200 336.000000
-31.028488 92.335709 336.000000
-30.936138 92.606773 335.000000
-30.936138 93.152657 335.000000
-30.936138 93.698532 335.000000
-30.843794 93.963081 334.000000
-30.843794 94.507332 334.000000
-30.843794 95.051582 334.000000
-30.751446 95.309616 333.000000
-30.659100 95.564392 332.000000
-30.659100 96.105385 332.000000
-30.566751 96.355263 331.000000
-30.566751 96.894630 331.000000
-30.566751 97.433990 331.000000
-30.474407 97.677361 330.000000
-30.382059 97.917465 329.000000
-30.382059 98.453568 329.000000
-30.382059 98.989670 329.000000
-30.289713 99.223259 328.000000
-30.289713 99.757729 328.000000
-30.197365 99.986435 327.000000
-30.105021 100.211884 326.000000
-30.105021 100.743095 326.000000
-30.105021 101.274307 326.000000
-30.105021 101.805519 326.000000
-30.105021 102.336731 326.000000
-29.920326 102.236847 324.000000
-29.827978 102.447632 323.000000
-29.827978 102.973961 323.000000
-29.827978 103.500282 323.000000
-29.827978 104.026604 323.000000
-29.827978 104.552933 323.000000
-29.735632 104.753929 322.000000
-29.643284 104.951668 321.000000
-29.643284 105.474739 321.000000
-29.643284 105.997803 321.000000
-29.550940 106.189034 320.000000
-29.458593 106.376999 319.000000
-29.458593 106.896805 319.000000
-29.458593 107.416611 319.000000
-29.366245 107.598053 318.000000
-29.366245 108.116234 318.000000
-29.273901 108.292786 317.000000
-29.273901 108.809334 317.000000
-29.273901 109.325882 317.000000
-29.181551 109.495926 316.000000
-29.089207 109.662704 315.000000
-29.089207 110.175995 315.000000
-29.089207 110.689278 315.000000
-28.996859 110.849556 314.000000
-28.996859 111.361214 314.000000
-28.996859 111.872871 314.000000
-28.812164 111.668701 312.000000
-28.812164 112.177101 312.000000
-28.719820 112.324333 311.000000
-28.719820 112.831100 311.000000
-28.719820 113.337875 311.000000
-28.627472 113.478584 310.000000
-28.627472 113.983719 310.000000
-28.627472 114.488861 310.000000
-28.535126 114.623055 309.000000
-28.535126 115.126564 309.000000
-28.535126 115.630081 309.000000
-28.442778 115.757751 308.000000
-28.350431 115.882179 307.000000
-28.350431 116.382431 307.000000
-28.258083 116.501953 306.000000
-28.165739 116.618225 305.000000
-28.165739 117.115219 305.000000
-28.165739 117.612206 305.000000
-28.165739 118.109200 305.000000
-28.165739 118.606194 305.000000
-28.165739 119.103188 305.000000
-28.073391 119.208054 304.000000
-27.981045 119.309654 303.000000
-27.981045 119.803383 303.000000
-27.888700 119.900101 302.000000
-27.888700 120.392204 302.000000
-27.888700 120.884308 302.000000
-27.796352 120.974503 301.000000
-27.704006 121.061455 300.000000
-27.704006 121.550301 300.000000
-27.704006 122.039146 300.000000
-27.611658 122.119560 299.000000
-27.611658 122.606781 299.000000
-27.611658 123.093994 299.000000
-27.611658 123.581215 299.000000
-27.611658 124.068428 299.000000
-27.611658 124.555649 299.000000
-27.519314 124.624657 298.000000
-27.519314 125.110245 298.000000
-27.519314 125.595833 298.000000
-27.426964 125.658325 297.000000
-27.426964 126.142281 297.000000
-27.426964 126.626244 297.000000
-27.334620 126.682213 296.000000
-27.334620 127.164543 296.000000
-27.334620 127.646873 296.000000
-27.242271 127.696327 295.000000
-27.242271 128.177032 295.000000
-27.242271 128.657730 295.000000
-27.242271 129.138428 295.000000
-27.242271 129.619125 295.000000
-27.149925 129.658813 294.000000
-27.149925 130.137894 294.000000
-27.149925 130.616959 294.000000
-27.149925 131.096024 294.000000
-27.057577 131.127563 293.000000
-27.057577 131.604996 293.000000
-27.057577 132.082443 293.000000
-27.057577 132.559875 293.000000
-26.965233 132.583267 292.000000
-26.965233 133.059082 292.000000
-26.965233 133.534882 292.000000
-26.965233 134.010696 292.000000
-26.965233 134.486511 292.000000
-26.965233 134.962311 292.000000
-26.965233 135.438126 292.000000
-26.965233 135.913940 292.000000
-26.872885 135.922653 291.000000
-26.872885 136.396835 291.000000
-26.872885 136.871017 291.000000
-26.872885 137.345200 291.000000
-26.872885 137.819382 291.000000
-26.872885 138.293564 291.000000
-26.872885 138.767746 291.000000
-26.965233 139.720413 292.000000
-26.965233 140.196228 292.000000
-26.965233 140.672043 292.000000
-26.965233 141.147842 292.000000
-26.965233 141.623657 292.000000
-26.965233 142.099472 292.000000
-26.965233 142.575287 292.000000
-26.965233 143.051086 292.000000
-26.965233 143.526901 292.000000
-26.965233 144.002716 292.000000
-26.965233 144.478516 292.000000
-26.965233 144.954330 292.000000
-26.965233 145.430145 292.000000
-26.965233 145.905960 292.000000
-26.965233 146.381760 292.000000
-26.965233 146.857574 292.000000
-26.965233 147.333389 292.000000
-26.965233 147.809189 292.000000
-26.965233 148.285004 292.000000
-26.965233 148.760818 292.000000
-26.965233 149.236618 292.000000
-26.965233 149.712433 292.000000
-26.965233 150.188248 292.000000
-26.965233 150.664063 292.000000
-26.965233 151.139862 292.000000
-26.965233 151.615677 292.000000
-26.965233 152.091492 292.000000
-26.965233 152.567291 292.000000
-26.965233 153.043106 292.000000
-26.965233 153.518921 292.000000
-26.965233 153.994720 292.000000
-26.872885 153.941528 291.000000
-26.872885 154.415710 291.000000
-26.872885 154.889893 291.000000
-26.872885 155.364075 291.000000
-26.872885 155.838257 291.000000
-26.872885 156.312439 291.000000
-26.872885 156.786606 291.000000
-26.872885 157.260788 291.000000
-26.872885 157.734970 291.000000
-26.872885 158.209152 291.000000
-26.872885 158.683334 291.000000
-26.872885 159.157516 291.000000
-26.872885 159.631699 291.000000
-26.872885 160.105881 291.000000
-26.872885 160.580063 291.000000
-26.872885 161.054245 291.000000
-26.872885 161.528427 291.000000
-26.872885 162.002609 291.000000
-26.872885 162.476776 291.000000
-26.780539 162.390991 290.000000
-26.780539 162.863541 290.000000
-26.780539 163.336090 290.000000
-26.780539 163.808640 290.000000
-26.780539 164.281204 290.000000
-26.780539 164.753754 290.000000
-26.872885 165.796051 291.000000
-26.872885 166.270233 291.000000
-26.872885 166.744415 291.000000
-26.872885 167.218597 291.000000
-26.872885 167.692764 291.000000
-26.872885 168.166946 291.000000
-26.872885 168.641129 291.000000
-26.872885 169.115311 291.000000
-26.872885 169.589493 291.000000
-26.965233 170.648087 292.000000
-26.965233 171.123901 292.000000
-26.965233 171.599716 292.000000
-26.965233 172.075516 292.000000
-26.965233 172.551331 292.000000
-26.965233 173.502945 292.000000
-27.057577 174.574585 293.000000
-27.147804 186.653458 293.977020
-27.147804 187.132492 293.977020
-27.147804 188.090561 293.977020
-27.147804 188.569595 293.977020
-35.593472 33.659241 392.353149
-35.593472 34.298573 392.353149
-35.593472 34.937908 392.353149
-35.531418 35.515217 391.669128
-35.531418 36.153439 391.669128
-35.521339 36.781223 391.558044
-35.503193 37.400150 391.358032
-35.503193 38.037861 391.358032
-35.486698 38.657604 391.176208
-35.464020 39.269909 390.926208
-35.464020 39.906918 390.926208
-35.448345 40.526005 390.753387
-35.443462 41.157063 390.699585
-35.443462 41.793705 390.699585
-35.425316 42.408623 390.499573
-35.408306 43.024269 390.312073
-35.376499 43.621056 389.961426
-35.376499 44.256493 389.961426
-35.334202 44.838261 389.495209
-35.268940 45.388943 388.775787
-35.268940 46.022449 388.775787
-35.202904 46.568600 388.047882
-35.132240 47.106171 387.268921
-35.132240 47.737221 387.268921
-35.067249 48.278790 386.552490
-35.018509 48.840698 386.015259
-35.018509 49.469704 386.015259
-35.017124 50.096733 386.000000
-35.017124 50.725716 386.000000
-35.017124 51.354698 386.000000
-34.926407 51.849007 385.000000
-34.835690 52.340057 384.000000
-34.835690 52.965778 384.000000
-34.835690 53.591503 384.000000
