-28.255463 90.131653 342.182556
-28.225973 90.594589 341.825439
-28.225973 91.151588 341.825439
-28.225973 91.708588 341.825439
-28.252958 94.583923 342.152222
-28.252958 95.141457 342.152222
-28.252958 95.698990 342.152222
-28.040440 100.512543 339.578583
-28.142651 101.434265 340.816345
-28.142651 101.989616 340.816345
-28.142651 102.544975 340.816345
-28.142651 103.100334 340.816345
-28.142651 103.655685 340.816345
-28.105879 104.074890 340.371063
-28.105879 104.629524 340.371063
-28.105879 105.184151 340.371063
-28.105879 105.738785 340.371063
-28.105879 106.293411 340.371063
-28.105879 106.848045 340.371063
-28.105879 107.402672 340.371063
-28.105879 107.957306 340.371063
-28.105879 108.511932 340.371063
-28.105879 109.066566 340.371063
-28.113234 109.649872 340.460114
-28.113234 110.204651 340.460114
-28.113234 110.759422 340.460114
-28.110292 111.302551 340.424500
-28.018507 111.492035 339.312927
-28.018507 112.044937 339.312927
-28.012119 112.572182 339.235596
-27.566910 111.327011 333.843964
-27.566910 111.871002 333.843964
-27.566910 112.415001 333.843964
-26.773626 109.708405 324.237030
-26.773626 110.236740 324.237030
-26.506968 109.661903 321.007721
-26.375860 109.639992 319.419983
-26.375860 110.160484 319.419983
-26.232113 110.077766 317.679138
-24.029102 101.307457 291.000000
-24.029102 101.781639 291.000000
-24.029102 102.255821 291.000000
-24.029102 102.729996 291.000000
-24.029102 103.204178 291.000000
-23.946527 103.322075 290.000000
-23.946527 103.794624 290.000000
-23.946527 104.267181 290.000000
-23.946527 104.739731 290.000000
-23.946527 105.212280 290.000000
-23.946527 105.684830 290.000000
-23.946527 106.157387 290.000000
-24.519039 109.179230 296.933289
-24.519039 109.663086 296.933289
-24.519039 110.146927 296.933289
-23.946527 108.047592 290.000000
-23.946527 108.520142 290.000000
-23.946527 108.992691 290.000000
-23.946527 109.465240 290.000000
-23.946527 109.937798 290.000000
-23.946527 110.410347 290.000000
-23.946527 110.882896 290.000000
-23.946527 111.355446 290.000000
-23.946527 111.828003 290.000000
-23.946527 112.300552 290.000000
-23.946527 112.773102 290.000000
-23.946527 113.245651 290.000000
-23.946527 113.718208 290.000000
-23.946527 114.190758 290.000000
-23.946527 114.663307 290.000000
-24.051203 117.062996 291.267639
-24.051203 117.537605 291.267639
-24.051203 118.012222 291.267639
-23.997538 121.063805 290.617737
-23.997538 121.537361 290.617737
-23.997538 122.010918 290.617737
-23.946527 125.531990 290.000000
-23.946527 126.004539 290.000000
-23.946527 126.477089 290.000000
-23.946527 126.949646 290.000000
-23.946527 127.422195 290.000000
-23.946527 127.894745 290.000000
-23.946527 128.367294 290.000000
-24.035627 129.319229 291.079010
-24.035627 129.793533 291.079010
-24.058821 130.393555 291.359894
-24.058821 130.868317 291.359894
-24.058821 131.343079 291.359894
-24.029102 131.655029 291.000000
-24.029102 132.129211 291.000000
-24.029102 132.603394 291.000000
-24.029102 133.077576 291.000000
-24.029102 133.551758 291.000000
-24.029102 134.025940 291.000000
-24.029102 134.500107 291.000000
-24.029102 134.974289 291.000000
-24.029102 135.448471 291.000000
-24.029102 135.922653 291.000000
-24.029102 136.396835 291.000000
-24.029102 136.871017 291.000000
-24.029102 137.345200 291.000000
-24.111877 138.294144 292.002441
-24.111877 138.769958 292.002441
-24.133585 139.371124 292.265320
-24.133585 139.847366 292.265320
-24.133585 140.323608 292.265320
-24.111677 140.672043 292.000000
-24.111677 141.147842 292.000000
-24.111677 141.623657 292.000000
-24.111677 142.099472 292.000000
-24.111677 142.575287 292.000000
-24.111677 143.051086 292.000000
-24.111677 143.526901 292.000000
-24.194252 144.495880 293.000000
-24.276825 145.468109 294.000000
-24.276825 145.947174 294.000000
-24.276825 146.426239 294.000000
-24.276825 146.905319 294.000000
-24.276825 147.384384 294.000000
-24.276825 147.863449 294.000000
-24.270132 148.301620 293.918945
-24.270132 148.780563 293.918945
-24.421822 150.192368 295.755951
-24.421822 150.674301 295.755951
-24.421822 151.156219 295.755951
-24.401449 151.511673 295.509247
-25.185143 159.359680 305.000000
-25.185143 159.856674 305.000000
-25.185143 160.353668 305.000000
-25.185143 160.850662 305.000000
-25.185143 161.347656 305.000000
-25.185143 161.844650 305.000000
-25.019993 161.277100 303.000000
-24.632946 164.129288 298.312744
-24.632946 164.615387 298.312744
-24.632946 165.101486 298.312744
-24.612394 165.449432 298.063843
-24.612394 165.935120 298.063843
-24.612394 166.420807 298.063843
-24.574554 166.649887 297.605591
-24.574554 167.134842 297.605591
-24.630585 168.001968 298.284149
-24.667105 168.737823 298.726410
-24.667105 169.224594 298.726410
-24.670628 169.735596 298.769073
-24.670628 170.222443 298.769073
-24.670628 170.709290 298.769073
-24.619732 170.842957 298.152710
-28.897539 59.130985 357.000000
-28.897539 59.712711 357.000000
-28.897539 60.294437 357.000000
-28.897539 60.876163 357.000000
-28.897539 61.457893 357.000000
-28.897539 62.039619 357.000000
-28.695179 62.182823 354.500000
-28.580505 62.509666 353.083344
-28.580505 63.085011 353.083344
-28.599636 63.702969 353.319672
-28.599636 64.278702 353.319672
-28.599636 64.854431 353.319672
-28.580082 65.385429 353.078125
-28.513485 65.807060 352.255371
-28.513485 66.381058 352.255371
-28.475353 66.865501 351.784271
-28.439640 67.354156 351.343109
-28.439640 67.926666 351.343109
-28.385746 68.369370 350.677277
-28.110540 68.272392 347.277374
-28.110540 68.838280 347.277374
-28.007139 69.148872 346.000000
-28.007139 69.712677 346.000000
-28.007139 70.276482 346.000000
-27.764305 70.226059 343.000000
-27.764305 70.784973 343.000000
-27.764305 71.343887 343.000000
-27.764305 71.902802 343.000000
-27.683357 72.250458 342.000000
-27.683357 72.807739 342.000000
-27.683357 73.365028 342.000000
-27.602413 73.706161 341.000000
-27.602413 74.261818 341.000000
-27.521467 74.598068 340.000000
-27.440523 74.931061 339.000000
-27.440523 75.483459 339.000000
-27.440523 76.035851 339.000000
-27.529562 76.836761 340.100006
-27.578133 77.527489 340.700012
-27.578133 78.082657 340.700012
-27.818476 79.323158 343.669250
-27.818476 79.883163 343.669250
-27.818476 80.443169 343.669250
-27.661844 80.547081 341.734222
-27.637642 81.032974 341.435211
-27.637642 81.589333 341.435211
-27.406939 81.459991 338.585114
-27.384172 81.943588 338.303864
-27.384172 82.494850 338.303864
-27.386635 83.053574 338.334259
-27.441301 83.771782 339.009644
-27.441301 84.324196 339.009644
-27.467823 84.958633 339.337280
-27.674200 86.154060 341.886841
-27.674200 86.711159 341.886841
-27.674200 87.268257 341.886841
-27.665428 87.797531 341.778503
-27.665428 88.354454 341.778503
-27.665428 88.911377 341.778503
-27.623606 89.333046 341.261810
-27.623606 89.889130 341.261810
-27.586966 90.325249 340.809174
-27.677097 94.520454 341.922638
-27.677097 95.077621 341.922638
-27.677097 95.634781 341.922638
-27.671700 96.173180 341.855957
-27.487354 100.512543 339.578583
-27.598505 101.474548 340.951691
-27.598505 102.030121 340.951691
-27.598505 102.585701 340.951691
-27.593678 103.123245 340.892090
-27.593678 103.678726 340.892090
-27.579399 104.180260 340.715668
-27.568241 104.693085 340.577850
-27.568241 105.248055 340.577850
-27.564240 105.787659 340.528412
-27.554878 106.306435 340.412750
-27.554878 106.861130 340.412750
-27.523413 107.293159 340.024017
-26.635445 104.367836 329.054077
-26.746901 105.342995 330.431000
-26.746901 105.881424 330.431000
-26.746901 106.419861 330.431000
-27.323284 109.263199 337.551666
-27.323284 109.813240 337.551666
-27.323284 110.363281 337.551666
-27.118521 110.082115 335.022003
-27.118521 110.628021 335.022003
-25.409893 104.169327 313.913635
-26.404320 108.777565 326.198761
-26.404320 109.309105 326.198761
-26.404320 109.840637 326.198761
-23.474194 98.124008 290.000000
-23.474194 98.596565 290.000000
-23.555140 99.410736 291.000000
-23.555140 99.884911 291.000000
-23.555140 100.359093 291.000000
-23.555140 100.833275 291.000000
-23.555140 101.307457 291.000000
-23.555140 101.781639 291.000000
-23.555140 102.255821 291.000000
-23.555140 102.729996 291.000000
-23.555140 103.204178 291.000000
-23.474194 103.322075 290.000000
-24.714666 109.279572 305.324799
-24.714666 109.777084 305.324799
-24.714666 110.274612 305.324799
-24.586700 110.198578 303.743896
-24.586700 110.693535 303.743896
-24.273085 109.770210 299.869507
-24.072090 109.345848 297.386414
-24.072090 109.830429 297.386414
-24.035410 110.146927 296.933289
-23.474194 108.047592 290.000000
-23.474194 108.520142 290.000000
-23.474194 108.992691 290.000000
-23.474194 109.465240 290.000000
-23.474194 109.937798 290.000000
-23.474194 110.410347 290.000000
-23.474194 110.882896 290.000000
-23.474194 111.355446 290.000000
-23.474194 111.828003 290.000000
-23.474194 112.300552 290.000000
-23.474194 112.773102 290.000000
-23.474194 113.245651 290.000000
-23.474194 113.718208 290.000000
-23.474194 114.190758 290.000000
-23.474194 114.663307 290.000000
-23.576803 117.062996 291.267639
-23.576803 117.537605 291.267639
-23.576803 118.012222 291.267639
-23.524197 121.063805 290.617737
-23.524197 121.537361 290.617737
-23.524197 122.010918 290.617737
-23.474194 125.531990 290.000000
-23.474194 126.004539 290.000000
-23.474194 126.477089 290.000000
-23.474194 126.949646 290.000000
-23.474194 127.422195 290.000000
-23.474194 127.894745 290.000000
-23.474194 128.367294 290.000000
-23.561535 129.319229 291.079010
-23.561535 129.793533 291.079010
-23.584270 130.393555 291.359894
-23.584270 130.868317 291.359894
-23.584270 131.343079 291.359894
-23.555140 131.655029 291.000000
-23.555140 132.129211 291.000000
-23.555140 132.603394 291.000000
-23.555140 133.077576 291.000000
-23.555140 133.551758 291.000000
-23.555140 134.025940 291.000000
-23.555140 134.500107 291.000000
-23.555140 134.974289 291.000000
-23.555140 135.448471 291.000000
-23.555140 135.922653 291.000000
-23.555140 136.396835 291.000000
-23.555140 136.871017 291.000000
-23.555140 137.345200 291.000000
-23.636282 138.294144 292.002441
-23.636282 138.769958 292.002441
-23.657560 139.371124 292.265320
-23.657560 139.847366 292.265320
-23.657560 140.323608 292.265320
-23.636084 140.672043 292.000000
-23.636084 141.147842 292.000000
-23.636084 141.623657 292.000000
-23.636084 142.099472 292.000000
-23.636084 142.575287 292.000000
-23.636084 143.051086 292.000000
-23.636084 143.526901 292.000000
-23.717030 144.495880 293.000000
-23.797976 145.468109 294.000000
-23.797976 145.947174 294.000000
-23.797976 146.426239 294.000000
-23.797976 146.905319 294.000000
-23.797976 147.384384 294.000000
-23.797976 147.863449 294.000000
-23.791414 148.301620 293.918945
-23.791414 148.780563 293.918945
-23.933933 150.153610 295.679626
-23.933933 150.635406 295.679626
-23.933933 151.117218 295.679626
-23.920143 151.511673 295.509247
-24.445539 156.807983 302.000000
-24.445539 157.300095 302.000000
-24.688375 159.359680 305.000000
-24.688375 159.856674 305.000000
-24.688375 160.353668 305.000000
-24.688375 160.850662 305.000000
-24.688375 161.347656 305.000000
-24.688375 161.844650 305.000000
-24.526484 161.277100 303.000000
-24.105444 165.302109 297.798462
-24.105444 165.787369 297.798462
-24.105444 166.272629 297.798462
-24.054607 166.406219 297.170441
-24.054607 166.890457 297.170441
-24.119179 167.823975 297.968140
-24.153698 168.550385 298.394592
-24.153698 169.036621 298.394592
-24.155201 169.533417 298.413177
-24.155201 170.019684 298.413177
-24.155201 170.505936 298.413177
-24.109947 170.671844 297.854095
-24.035357 170.627670 296.932617
-24.035357 171.111526 296.932617
-24.069269 172.322006 297.351563
-24.069269 172.806534 297.351563
-24.069269 173.291061 297.351563
-23.160492 11.251634 292.000000
-23.160492 11.727444 292.000000
-23.160492 12.203254 292.000000
-23.160492 12.679064 292.000000
-25.698627 35.186707 324.000000
-25.698627 35.714661 324.000000
-25.698627 36.242615 324.000000
-25.777945 36.884056 325.000000
-25.777945 37.413639 325.000000
-25.777945 37.943226 325.000000
-27.899618 61.700336 351.749390
-27.939617 62.362785 352.253662
-27.939617 62.936771 352.253662
-27.939617 63.510765 352.253662
-27.918415 64.036125 351.986359
-27.918415 64.609688 351.986359
-27.907150 65.156944 351.844330
-27.824890 65.536522 350.807220
-27.824890 66.108154 350.807220
-27.769999 66.548248 350.115173
-27.720968 67.000252 349.497009
-27.720968 67.569756 349.497009
-27.674387 68.024757 348.909729
-27.544914 68.272392 347.277374
-27.544914 68.838280 347.277374
-27.413610 69.073318 345.621948
-27.284962 69.309715 344.000000
-27.284962 69.870262 344.000000
-27.205647 70.226059 343.000000
-27.205647 70.784973 343.000000
-27.205647 71.343887 343.000000
-27.205647 71.902802 343.000000
-27.126328 72.250458 342.000000
-27.126328 72.807739 342.000000
-27.126328 73.365028 342.000000
-27.047012 73.706161 341.000000
-27.047012 74.261818 341.000000
-26.967695 74.598068 340.000000
-26.888380 74.931061 339.000000
-26.888380 75.483459 339.000000
-26.888380 76.035851 339.000000
-26.975628 76.836761 340.100006
-27.023218 77.527489 340.700012
-27.023218 78.082657 340.700012
-27.258730 79.323158 343.669250
-27.258730 79.883163 343.669250
-27.258730 80.443169 343.669250
-27.105249 80.547081 341.734222
-27.081532 81.032974 341.435211
-27.081532 81.589333 341.435211
-26.855471 81.459991 338.585114
-26.833164 81.943588 338.303864
-26.833164 82.494850 338.303864
-26.835575 83.053574 338.334259
-26.889143 83.771782 339.009644
-26.889143 84.324196 339.009644
-26.915129 84.958633 339.337280
-27.117353 86.154060 341.886841
-27.117353 86.711159 341.886841
-27.117353 87.268257 341.886841
-27.108763 87.797531 341.778503
-27.108763 88.354454 341.778503
-27.108763 88.911377 341.778503
-27.067780 89.333046 341.261810
-27.067780 89.889130 341.261810
-27.031878 90.325249 340.809174
-27.120192 94.520454 341.922638
-27.120192 95.077621 341.922638
-27.120192 95.634781 341.922638
-27.114904 96.173180 341.855957
-26.934271 100.512543 339.578583
-27.043180 101.474548 340.951691
-27.043180 102.030121 340.951691
-27.043180 102.585701 340.951691
-27.038452 103.123245 340.892090
-27.038452 103.678726 340.892090
-27.024458 104.180260 340.715668
-27.013529 104.693085 340.577850
-27.013529 105.248055 340.577850
-27.009609 105.787659 340.528412
-27.000435 106.306435 340.412750
-27.000435 106.861130 340.412750
-26.969601 107.293159 340.024017
-26.101931 104.377548 329.084717
-26.208714 105.342995 330.431000
-26.208714 105.881424 330.431000
-26.208714 106.419861 330.431000
-26.086123 106.457993 328.885406
-26.086123 106.993912 328.885406
-25.921234 106.850136 326.806549
-25.757837 106.705765 324.746490
-25.757837 107.234932 324.746490
-24.998814 104.588547 315.176971
-25.166761 105.808228 317.294403
-25.166761 106.325256 317.294403
-25.166761 106.842278 317.294403
-25.090887 107.035637 316.337799
-25.090887 107.551102 316.337799
-23.001858 99.069115 290.000000
-23.001858 99.541664 290.000000
-23.001858 100.014214 290.000000
-23.081175 100.833275 291.000000
-23.081175 101.307457 291.000000
-23.081175 101.781639 291.000000
-23.001858 101.904419 290.000000
-23.001858 102.376976 290.000000
-23.001858 102.849525 290.000000
-23.001858 103.322075 290.000000
-24.217371 109.279572 305.324799
-24.217371 109.777084 305.324799
-24.217371 110.274612 305.324799
-24.091980 110.198578 303.743896
-24.091980 110.693535 303.743896
-23.784676 109.770210 299.869507
-23.587725 109.345848 297.386414
-23.587725 109.830429 297.386414
-23.001858 110.410347 290.000000
-23.001858 110.882896 290.000000
-23.001858 111.355446 290.000000
-23.001858 111.828003 290.000000
-23.001858 112.300552 290.000000
-23.001858 112.773102 290.000000
-23.001858 113.245651 290.000000
-23.055056 121.085884 290.670715
-23.147690 122.047928 291.838593
-23.147690 122.523483 291.838593
-23.147690 122.999023 291.838593
-23.001858 125.531990 290.000000
-23.001858 126.004539 290.000000
-23.001858 126.477089 290.000000
-23.001858 126.949646 290.000000
-23.001858 127.422195 290.000000
-23.001858 127.894745 290.000000
-23.001858 128.367294 290.000000
-23.087442 129.319229 291.079010
-23.087442 129.793533 291.079010
-23.109720 130.393555 291.359894
-23.109720 130.868317 291.359894
-23.109720 131.343079 291.359894
-23.072966 131.608200 290.896515
-23.081175 132.129211 291.000000
-23.081175 132.603394 291.000000
-23.081175 133.077576 291.000000
-23.081175 133.551758 291.000000
-23.081175 134.025940 291.000000
-23.081175 134.500107 291.000000
-23.081175 134.974289 291.000000
-23.081175 135.448471 291.000000
-23.081175 135.922653 291.000000
-23.081175 136.396835 291.000000
-23.081175 136.871017 291.000000
-23.160492 137.817184 292.000000
-23.160492 138.292984 292.000000
-23.160492 138.768799 292.000000
-23.160492 139.244614 292.000000
-23.160492 139.720413 292.000000
-23.160492 140.196228 292.000000
-23.160492 140.672043 292.000000
-23.160492 141.147842 292.000000
-23.160492 141.623657 292.000000
-23.160492 142.099472 292.000000
-23.160492 142.575287 292.000000
-23.160492 143.051086 292.000000
-23.160492 143.526901 292.000000
-23.239809 144.495880 293.000000
-23.319126 145.468109 294.000000
-23.319126 145.947174 294.000000
-23.319126 146.426239 294.000000
-23.319126 146.905319 294.000000
-23.319126 147.384384 294.000000
-23.319126 147.863449 294.000000
-23.306622 148.262985 293.842377
-23.306622 148.741791 293.842377
-23.422005 149.959335 295.297089
-23.438833 150.548615 295.509247
-23.438833 151.030136 295.509247
-23.438833 151.511673 295.509247
-23.953659 156.807983 302.000000
-23.953659 157.300095 302.000000
-24.191608 159.359680 305.000000
-24.191608 159.856674 305.000000
-24.191608 160.353668 305.000000
-24.191608 160.850662 305.000000
-24.191608 161.347656 305.000000
-24.191608 161.844650 305.000000
-24.032976 161.277100 303.000000
-23.670382 166.624420 298.428528
-23.679413 167.174469 298.542389
-23.679413 167.660934 298.542389
-23.953659 170.094833 302.000000
-23.953659 170.586929 302.000000
-23.953659 171.079041 302.000000
-23.953659 171.571136 302.000000
-23.903797 171.705093 301.371368
-23.903797 172.196182 301.371368
-23.903797 172.687256 301.371368
-23.824099 172.600922 300.366547
-23.824099 173.090378 300.366547
-23.824099 173.579819 300.366547
-23.805109 173.930511 300.127136
-23.805109 174.419571 300.127136
-23.767775 174.634308 299.656433
-23.723522 174.796539 299.098511
-23.723522 175.283920 299.098511
-22.529524 7.394156 290.000000
-22.529524 7.866707 290.000000
-22.529524 8.339259 290.000000
-22.529524 8.811810 290.000000
-22.529524 9.284362 290.000000
-22.607212 9.790558 291.000000
-22.607212 10.264738 291.000000
-22.607212 10.738919 291.000000
-22.684900 11.251634 292.000000
-22.684900 11.727444 292.000000
-22.684900 12.203254 292.000000
-22.684900 12.679064 292.000000
-22.684900 13.154875 292.000000
-22.684900 13.630684 292.000000
-22.684900 14.106494 292.000000
-25.248604 35.295307 325.000000
-25.248604 35.824890 325.000000
-25.248604 36.354473 325.000000
-25.248604 36.884056 325.000000
-25.248604 37.413639 325.000000
-25.248604 37.943226 325.000000
-27.326712 61.700336 351.749390
-27.365887 62.362785 352.253662
-27.365887 62.936771 352.253662
-27.466003 63.743122 353.542358
-27.466003 64.319206 353.542358
-27.466003 64.895302 353.542358
-27.409090 65.335732 352.809784
-27.307226 65.665680 351.498596
-27.307226 66.238441 351.498596
-27.199753 66.548248 350.115173
-27.185301 67.083107 349.929169
-27.185301 67.653305 349.929169
-27.134733 68.096611 349.278259
-26.962467 68.229828 347.060883
-26.962467 68.795364 347.060883
-26.919048 69.249191 346.501953
-26.845284 69.622513 345.552490
-26.845284 70.185585 345.552490
-26.646988 70.226059 343.000000
-26.569300 70.578606 342.000000
-26.569300 71.135887 342.000000
-26.569300 71.693176 342.000000
-26.491611 72.039200 341.000000
-26.491611 72.594849 341.000000
-26.413923 72.935997 340.000000
-26.413923 73.490021 340.000000
-26.413923 74.044044 340.000000
-26.336235 74.378662 339.000000
-26.258547 74.710022 338.000000
-26.258547 75.260788 338.000000
-26.258547 75.811554 338.000000
-26.421692 76.836761 340.100006
-26.421692 77.390953 340.100006
-26.421692 77.945145 340.100006
-26.399162 78.432396 339.809998
-26.382149 78.935204 339.591003
-26.382149 79.488564 339.591003
-26.363434 79.985146 339.350098
-26.306967 80.365608 338.623260
-26.306967 80.917397 338.623260
-26.234983 81.246254 337.696686
-26.282154 81.943588 338.303864
-26.282154 82.494850 338.303864
-26.284515 83.053574 338.334259
-26.284515 83.604889 338.334259
-26.284515 84.156197 338.334259
-26.243498 84.575317 337.806274
-26.505133 85.974442 341.174042
-26.505133 86.530373 341.174042
-26.505133 87.086319 341.174042
-26.519011 87.688141 341.352692
-26.519011 88.244377 341.352692
-26.519011 88.800606 341.352692
-26.483648 89.237679 340.897491
-26.483648 89.793159 340.897491
-26.461409 90.272781 340.611237
-26.461409 90.827812 340.611237
-26.461409 91.382828 340.611237
-26.560762 94.511467 341.890106
-26.560762 95.068573 341.890106
-26.560762 95.625679 341.890106
-26.571545 96.221825 342.028900
-26.571545 96.779160 342.028900
-26.571545 97.336494 342.028900
-26.487858 101.474548 340.951691
-26.487858 102.030121 340.951691
-26.487858 102.585701 340.951691
-26.485737 103.133011 340.924377
-26.485737 103.688545 340.924377
-26.477571 104.211945 340.819275
-26.469473 104.735252 340.715027
-26.469473 105.290443 340.715027
-26.458067 105.800026 340.568207
-26.453201 106.335426 340.505585
-26.453201 106.890274 340.505585
-26.212584 106.467804 337.408356
-25.565937 104.377548 329.084717
-25.626221 105.161179 329.860687
-25.626221 105.698677 329.860687
-25.626221 106.236183 329.860687
-25.590254 106.623833 329.397736
-25.590254 107.160591 329.397736
-25.590254 107.697327 329.397736
-25.161083 106.418900 323.873444
-25.161083 106.946640 323.873444
-25.161083 107.474388 323.873444
-24.649971 105.808228 317.294403
-24.649971 106.325256 317.294403
-24.649971 106.842278 317.294403
-24.575653 107.035637 316.337799
-24.575653 107.551102 316.337799
-22.529524 100.959320 290.000000
-22.529524 101.431870 290.000000
-22.529524 101.904419 290.000000
-22.529524 102.376976 290.000000
-22.529524 102.849525 290.000000
-23.720076 109.279572 305.324799
-23.720076 109.777084 305.324799
-23.720076 110.274612 305.324799
-24.121496 112.646751 310.491882
-24.121496 113.152695 310.491882
-24.121496 113.658638 310.491882
-23.860567 112.929634 307.133209
-23.860567 113.430107 307.133209
-22.581631 121.085884 290.670715
-22.672359 122.047928 291.838593
-22.672359 122.523483 291.838593
-22.672359 122.999023 291.838593
-22.529524 126.477089 290.000000
-22.529524 126.949646 290.000000
-22.529524 127.422195 290.000000
-22.529524 127.894745 290.000000
-22.529524 128.367294 290.000000
-22.584410 129.153748 290.706512
-22.584410 129.627441 290.706512
-22.602697 130.206482 290.941895
-22.602697 130.680573 290.941895
-22.602697 131.154648 290.941895
-22.594955 131.583664 290.842255
-22.529524 131.675156 290.000000
-22.529524 132.147705 290.000000
-22.529524 132.620255 290.000000
-22.607212 133.551758 291.000000
-22.607212 134.025940 291.000000
-22.607212 134.500107 291.000000
-22.607212 134.974289 291.000000
-22.607212 135.448471 291.000000
-22.607212 135.922653 291.000000
-22.607212 136.396835 291.000000
-22.607212 136.871017 291.000000
-22.684900 137.817184 292.000000
-22.684900 138.292984 292.000000
-22.684900 138.768799 292.000000
-22.684900 139.244614 292.000000
-22.684900 139.720413 292.000000
-22.684900 140.196228 292.000000
-22.684900 140.672043 292.000000
-22.684900 141.147842 292.000000
-22.684900 141.623657 292.000000
-22.684900 142.099472 292.000000
-22.684900 142.575287 292.000000
-22.684900 143.051086 292.000000
-22.684900 143.526901 292.000000
-22.684900 144.002716 292.000000
-22.762587 144.973312 293.000000
-22.762587 145.450760 293.000000
-22.840275 146.426239 294.000000
-22.840275 146.905319 294.000000
-22.840275 147.384384 294.000000
-22.840275 147.863449 294.000000
-22.840275 148.342514 294.000000
-22.840275 148.821594 294.000000
-22.866636 149.472961 294.339325
-22.900839 150.176880 294.779572
-22.900839 150.657227 294.779572
-22.900839 151.137558 294.779572
-22.896059 151.586258 294.718048
-22.896059 152.066498 294.718048
-23.461779 156.807983 302.000000
-23.461779 157.300095 302.000000
-23.539467 158.314697 303.000000
-23.617155 159.332550 304.000000
-23.617155 159.827911 304.000000
-23.617155 160.323273 304.000000
-23.539467 160.289627 303.000000
-23.539467 160.783356 303.000000
-23.539467 166.708176 303.000000
-23.539467 167.201920 303.000000
-23.539467 167.695648 303.000000
-23.539467 168.189377 303.000000
-23.539467 168.683121 303.000000
-23.539467 169.176849 303.000000
-23.193163 167.174469 298.542389
-23.193163 167.660934 298.542389
-23.461779 170.094833 302.000000
-23.461779 170.586929 302.000000
-23.461779 171.079041 302.000000
-23.461779 171.571136 302.000000
-23.412943 171.705093 301.371368
-23.412943 172.196182 301.371368
-23.412943 172.687256 301.371368
-23.334879 172.600922 300.366547
-23.334879 173.090378 300.366547
-23.334879 173.579819 300.366547
-23.316280 173.930511 300.127136
-23.316280 174.419571 300.127136
-23.279711 174.634308 299.656433
-23.236368 174.796539 299.098511
-23.236368 175.283920 299.098511
-22.057188 7.394156 290.000000
-22.057188 7.866707 290.000000
-22.057188 8.339259 290.000000
-22.057188 8.811810 290.000000
-22.057188 9.284362 290.000000
-22.133247 9.790558 291.000000
-22.133247 10.264738 291.000000
-22.133247 10.738919 291.000000
-22.209307 11.251634 292.000000
-22.209307 11.727444 292.000000
-22.209307 12.203254 292.000000
-22.209307 12.679064 292.000000
-22.209307 13.154875 292.000000
-22.209307 13.630684 292.000000
-22.209307 14.106494 292.000000
-24.719263 35.295307 325.000000
-24.719263 35.824890 325.000000
-24.719263 36.354473 325.000000
-24.719263 36.884056 325.000000
-24.719263 37.413639 325.000000
-24.719263 37.943226 325.000000
-23.181173 42.535156 304.777771
-23.181173 43.031784 304.777771
-23.181173 43.528416 304.777771
-27.004059 61.120415 355.039673
-27.004059 61.698956 355.039673
-27.004059 62.277485 355.039673
-27.004059 62.856018 355.039673
-27.004059 63.434547 355.039673
-27.004059 64.013077 355.039673
-26.890173 64.319206 353.542358
-26.890173 64.895302 353.542358
-26.834455 65.335732 352.809784
-26.734728 65.665680 351.498596
-26.734728 66.238441 351.498596
-26.629505 66.548248 350.115173
-26.615356 67.083107 349.929169
-26.615356 67.653305 349.929169
-26.565849 68.096611 349.278259
-26.397198 68.229828 347.060883
-26.397198 68.795364 347.060883
-26.354685 69.249191 346.501953
-26.282471 69.622513 345.552490
-26.282471 70.185585 345.552490
-26.012270 70.021317 342.000000
-26.012270 70.578606 342.000000
-26.012270 71.135887 342.000000
-26.375998 72.695656 346.782166
-26.375998 73.260735 346.782166
-26.375998 73.825806 346.782166
-25.860151 72.935997 340.000000
-25.784092 73.273872 339.000000
-25.784092 73.826263 339.000000
-25.708033 74.159256 338.000000
-25.631973 74.488991 337.000000
-25.885132 75.779251 340.328430
-25.885132 76.333809 340.328430
-25.885132 76.888374 340.328430
-25.844931 77.322655 339.799866
-25.844931 77.876358 339.799866
-25.785059 78.248367 339.012726
-25.762339 78.731354 338.713989
-25.762339 79.283279 338.713989
-25.773254 79.869041 338.857513
-25.773254 80.421204 338.857513
-25.773254 80.973373 338.857513
-26.285065 83.144485 345.586609
-26.285065 83.707611 345.586609
-26.285065 84.270737 345.586609
-26.235983 84.675461 344.941315
-26.183062 85.065605 344.245514
-26.183062 85.626549 344.245514
-25.693298 84.575317 337.806274
-25.797110 85.469711 339.171143
-25.797110 86.022385 339.171143
-25.912733 86.963097 340.691315
-26.023827 87.893463 342.151947
-26.023827 88.450989 342.151947
-26.023827 89.008522 342.151947
-26.000486 89.485725 341.845062
-26.000486 90.042763 341.845062
-26.020658 90.670082 342.110291
-26.020658 91.227547 342.110291
-26.020658 91.785011 342.110291
-25.973442 94.957176 341.489502
-25.973442 95.513626 341.489502
-26.048546 96.347885 342.476959
-26.051645 96.917473 342.517700
-26.051645 97.475594 342.517700
-26.051645 98.033730 342.517700
-25.929436 101.462410 340.910919
-25.929436 102.017921 340.910919
-25.930458 102.577484 340.924377
-25.930458 103.133011 340.924377
-25.930458 103.688545 340.924377
-25.922466 104.211945 340.819275
-25.914536 104.735252 340.715027
-25.914536 105.290443 340.715027
-25.903370 105.800026 340.568207
-25.907059 106.370132 340.616730
-25.907059 106.925163 340.616730
-25.907059 107.480194 340.616730
-25.907059 108.035225 340.616730
-25.425827 106.573143 334.289642
-25.425827 107.117867 334.289642
-25.088963 106.236183 329.860687
-25.053751 106.623833 329.397736
-25.053751 107.160591 329.397736
-25.053751 107.697327 329.397736
-24.633577 106.418900 323.873444
-24.633577 106.946640 323.873444
-24.633577 107.474388 323.873444
-24.133181 105.808228 317.294403
-24.133181 106.325256 317.294403
-24.791449 109.756561 325.949097
-24.791449 110.287704 325.949097
-24.791449 110.818825 325.949097
-24.611441 110.541458 323.582397
-24.547729 110.781204 322.744751
-24.547729 111.307114 322.744751
-24.545149 111.821266 322.710815
-24.545149 112.347122 322.710815
-24.545149 112.872971 322.710815
-22.057188 101.904419 290.000000
-24.219173 112.411690 318.425018
-24.219173 112.930565 318.425018
-24.219173 113.449432 318.425018
-24.123672 113.518898 317.169403
-24.123672 114.035728 317.169403
-23.917519 113.573616 314.458954
-23.836220 113.698219 313.390076
-23.836220 114.208885 313.390076
-23.615786 113.658638 310.491882
-23.360327 112.929634 307.133209
-23.360327 113.430107 307.133209
-22.108202 121.085884 290.670715
-22.197029 122.047928 291.838593
-22.197029 122.523483 291.838593
-22.197029 122.999023 291.838593
-22.057188 126.477089 290.000000
-22.057188 126.949646 290.000000
-22.057188 127.422195 290.000000
-22.057188 127.894745 290.000000
-22.057188 128.367294 290.000000
-22.110926 129.153748 290.706512
-22.110926 129.627441 290.706512
-22.128828 130.206482 290.941895
-22.128828 130.680573 290.941895
-22.128828 131.154648 290.941895
-22.121250 131.583664 290.842255
-22.057188 131.675156 290.000000
-22.057188 132.147705 290.000000
-22.057188 132.620255 290.000000
-22.133247 133.551758 291.000000
-22.133247 134.025940 291.000000
-22.133247 134.500107 291.000000
-22.133247 134.974289 291.000000
-22.133247 135.448471 291.000000
-22.133247 135.922653 291.000000
-22.133247 136.396835 291.000000
-22.133247 136.871017 291.000000
-22.209307 137.817184 292.000000
-22.209307 138.292984 292.000000
-22.209307 138.768799 292.000000
-22.209307 139.244614 292.000000
-22.209307 139.720413 292.000000
-22.209307 140.196228 292.000000
-22.209307 140.672043 292.000000
-22.209307 141.147842 292.000000
-22.209307 141.623657 292.000000
-22.209307 142.099472 292.000000
-22.209307 142.575287 292.000000
-22.209307 143.051086 292.000000
-22.209307 143.526901 292.000000
-22.209307 144.002716 292.000000
-22.285366 144.973312 293.000000
-22.285366 145.450760 293.000000
-22.361425 146.426239 294.000000
-22.361425 146.905319 294.000000
-22.361425 147.384384 294.000000
-22.361425 147.863449 294.000000
-22.361425 148.342514 294.000000
-22.361425 148.821594 294.000000
-22.387234 149.472961 294.339325
-22.420719 150.176880 294.779572
-22.420719 150.657227 294.779572
-22.420719 151.137558 294.779572
-22.416039 151.586258 294.718048
-22.416039 152.066498 294.718048
-22.741720 155.250305 299.000000
-22.741720 155.737518 299.000000
-22.969898 157.792191 302.000000
-22.969898 158.284302 302.000000
-22.969898 158.776413 302.000000
-22.969898 159.268509 302.000000
-22.969898 159.760620 302.000000
-22.969898 160.252716 302.000000
-22.969898 165.665878 302.000000
-23.045958 166.708176 303.000000
-23.045958 167.201920 303.000000
-23.045958 167.695648 303.000000
-23.045958 168.189377 303.000000
-23.045958 168.683121 303.000000
-23.045958 169.176849 303.000000
-22.969898 169.110611 302.000000
-22.969898 169.602722 302.000000
-22.969898 170.094833 302.000000
-22.969898 170.586929 302.000000
-22.969898 171.079041 302.000000
-22.969898 171.571136 302.000000
-22.969898 172.063248 302.000000
-22.969898 172.555359 302.000000
-22.969898 173.047455 302.000000
-22.969898 173.539566 302.000000
-22.969898 174.031662 302.000000
-22.969898 174.523773 302.000000
-22.962294 174.957932 301.899994
-22.962294 175.449875 301.899994
-22.961535 175.935989 301.890015
-22.795444 175.151749 299.706329
-22.795444 175.640121 299.706329
-22.774660 175.967911 299.433075
-22.760399 176.345337 299.245575
-22.756813 176.805084 299.198425
-22.756813 177.292633 299.198425
-21.584852 5.031400 290.000000
-21.584852 5.503951 290.000000
-21.584852 5.976502 290.000000
-21.584852 6.449054 290.000000
-21.584852 6.921605 290.000000
-21.642107 7.413770 290.769226
-21.642107 7.887574 290.769226
-21.642107 8.361380 290.769226
-21.584852 8.811810 290.000000
-21.584852 9.284362 290.000000
-21.659285 9.790558 291.000000
-21.659285 10.264738 291.000000
-21.659285 10.738919 291.000000
-21.733715 11.251634 292.000000
-21.733715 11.727444 292.000000
-21.733715 12.203254 292.000000
-21.733715 12.679064 292.000000
-21.733715 13.154875 292.000000
-21.733715 13.630684 292.000000
-21.733715 14.106494 292.000000
-21.733715 14.582305 292.000000
-21.733715 15.058115 292.000000
-24.189922 35.295307 325.000000
-24.189922 35.824890 325.000000
-24.189922 36.354473 325.000000
-24.189922 36.884056 325.000000
-24.189922 37.413639 325.000000
-24.189922 37.943226 325.000000
-22.217512 39.227009 298.500000
-22.217512 39.713409 298.500000
-22.899792 41.434311 307.666656
-22.899792 41.935654 307.666656
-22.899792 42.436989 307.666656
-22.899792 42.938328 307.666656
-22.828119 43.303711 306.703705
-22.828119 43.803478 306.703705
-22.828119 44.303246 306.703705
-22.828119 44.803020 306.703705
-22.828119 45.302788 306.703705
-22.828119 45.802555 306.703705
-22.828119 46.302330 306.703705
-22.828119 46.802097 306.703705
-22.828119 47.301865 306.703705
-22.828119 47.801640 306.703705
-22.828119 48.301407 306.703705
-22.828119 48.801178 306.703705
-22.817089 49.277130 306.555542
-22.817089 49.776661 306.555542
-22.817089 50.276188 306.555542
-23.592438 52.501122 316.972595
-23.592438 53.017624 316.972595
-23.592438 53.534126 316.972595
-22.900560 52.465527 307.676971
-26.535517 61.374203 356.513885
-26.535517 61.955139 356.513885
-26.535517 62.536076 356.513885
-26.425789 62.856018 355.039673
-26.425789 63.434547 355.039673
-26.425789 64.013077 355.039673
-26.433764 64.611099 355.146790
-26.433764 65.189804 355.146790
-26.433764 65.768517 355.146790
-26.348959 66.134369 354.007416
-26.348959 66.711220 354.007416
-26.045414 66.512901 349.929169
-26.045414 67.083107 349.929169
-26.045414 67.653305 349.929169
-26.475571 69.350266 355.708496
-26.475571 69.929893 355.708496
-26.475571 70.509514 355.708496
-26.469576 71.073044 355.627960
-26.103252 70.660904 350.706268
-26.103252 71.232376 350.706268
-26.103252 71.803841 350.706268
-26.060404 72.256516 350.130585
-26.060404 72.827049 350.130585
-25.853012 72.813477 347.344208
-26.253139 74.515167 352.720062
-26.253139 75.089912 352.720062
-26.253139 75.664673 352.720062
-26.229021 76.169373 352.395996
-26.202490 76.665970 352.039551
-26.202490 77.239624 352.039551
-26.192064 77.782303 351.899475
-26.163712 78.270897 351.518555
-26.163712 78.843697 351.518555
-25.330826 76.888374 340.328430
-25.938732 79.301468 348.495880
-25.938732 79.869339 348.495880
-25.938732 80.437202 348.495880
-25.926565 80.967079 348.332428
-25.926565 81.534683 348.332428
-25.221342 79.869041 338.857513
-25.221342 80.421204 338.857513
-25.221342 80.973373 338.857513
-25.722195 83.144485 345.586609
-25.722195 83.707611 345.586609
-25.722195 84.270737 345.586609
-25.674164 84.675461 344.941315
-25.622374 85.065605 344.245514
-25.622374 85.626549 344.245514
-25.007053 84.117699 335.978455
-25.244686 85.469711 339.171143
-25.244686 86.022385 339.171143
-25.357834 86.963097 340.691315
-25.466549 87.893463 342.151947
-25.466549 88.450989 342.151947
-25.466549 89.008522 342.151947
-25.443708 89.485725 341.845062
-25.443708 90.042763 341.845062
-25.463449 90.670082 342.110291
-25.463449 91.227547 342.110291
-25.463449 91.785011 342.110291
-25.417244 94.957176 341.489502
-25.417244 95.513626 341.489502
-25.490740 96.347885 342.476959
-25.493773 96.917473 342.517700
-25.493773 97.475594 342.517700
-25.493773 98.033730 342.517700
-25.374180 101.462410 340.910919
-25.374180 102.017921 340.910919
-25.375181 102.577484 340.924377
-25.375181 103.133011 340.924377
-25.375181 103.688545 340.924377
-25.367359 104.211945 340.819275
-25.359598 104.735252 340.715027
-25.359598 105.290443 340.715027
-25.348671 105.800026 340.568207
-25.352283 106.370132 340.616730
-25.352283 106.925163 340.616730
-25.352283 107.480194 340.616730
-25.352283 108.035225 340.616730
-25.316574 108.437302 340.136963
-25.316574 108.991547 340.136963
-25.316574 109.545799 340.136963
-25.160681 109.422073 338.042480
-25.160681 109.972916 338.042480
-25.141586 110.439880 337.785950
-24.946272 110.128059 335.161835
-24.946272 110.674194 335.161835
-24.635117 109.833084 330.981354
-24.547659 109.980583 329.806335
-24.547659 110.518005 329.806335
-24.321423 110.031898 326.766754
-24.260563 110.287704 325.949097
-24.260563 110.818825 325.949097
-24.084408 110.541458 323.582397
-24.022060 110.781204 322.744751
-24.022060 111.307114 322.744751
-24.019535 111.821266 322.710815
-24.019535 112.347122 322.710815
-24.019535 112.872971 322.710815
-23.700542 112.411690 318.425018
-23.700542 112.930565 318.425018
-23.700542 113.449432 318.425018
-23.607084 113.518898 317.169403
-23.607084 114.035728 317.169403
-23.405346 113.573616 314.458954
-23.714558 115.593239 318.613342
-23.714558 116.112404 318.613342
-23.714558 116.631592 318.613342
-23.633354 116.749596 317.522308
-23.633354 117.266998 317.522308
-23.633354 117.784401 317.522308
-23.590681 118.088196 316.949005
-23.590681 118.604652 316.949005
-21.625919 121.509781 290.551758
-21.625919 121.983223 290.551758
-21.625919 122.456673 290.551758
-21.584852 126.477089 290.000000
-21.584852 126.949646 290.000000
-21.584852 127.422195 290.000000
-21.584852 127.894745 290.000000
-21.584852 128.367294 290.000000
-21.584852 128.839844 290.000000
-21.584852 129.312393 290.000000
-21.626982 130.038254 290.566010
-21.626982 130.511734 290.566010
-21.626982 130.985214 290.566010
-21.620546 131.419571 290.479553
-21.584852 131.675156 290.000000
-21.584852 132.147705 290.000000
-21.584852 132.620255 290.000000
-21.584852 133.092804 290.000000
-21.584852 133.565369 290.000000
-21.659285 134.500107 291.000000
-21.659285 134.974289 291.000000
-21.659285 135.448471 291.000000
-21.659285 135.922653 291.000000
-21.659285 136.396835 291.000000
-21.659285 136.871017 291.000000
-21.733715 137.817184 292.000000
-21.733715 138.292984 292.000000
-21.733715 138.768799 292.000000
-21.733715 139.244614 292.000000
-21.733715 139.720413 292.000000
-21.733715 140.196228 292.000000
-21.733715 140.672043 292.000000
-21.733715 141.147842 292.000000
-21.733715 141.623657 292.000000
-21.733715 142.099472 292.000000
-21.733715 142.575287 292.000000
-21.733715 143.051086 292.000000
-21.733715 143.526901 292.000000
-21.733715 144.002716 292.000000
-21.808146 144.973312 293.000000
-21.808146 145.450760 293.000000
-21.808146 145.928192 293.000000
-21.882576 146.905319 294.000000
-21.882576 147.384384 294.000000
-21.882576 147.863449 294.000000
-21.882576 148.342514 294.000000
-21.882576 148.821594 294.000000
-21.957006 149.808472 295.000000
-21.957006 150.289169 295.000000
-21.957006 150.769867 295.000000
-21.957006 151.250565 295.000000
-21.957006 151.731262 295.000000
-21.957006 152.211960 295.000000
-22.031437 153.210266 296.000000
-22.254726 155.250305 299.000000
-22.254726 155.737518 299.000000
-22.329157 156.747223 300.000000
-22.329157 157.236069 300.000000
-22.329157 157.724915 300.000000
-22.329157 158.213760 300.000000
-22.329157 158.702606 300.000000
-22.329157 159.191452 300.000000
-22.180296 158.615768 298.000000
-22.478020 165.665878 302.000000
-22.552450 166.708176 303.000000
-22.552450 167.201920 303.000000
-22.552450 167.695648 303.000000
-22.552450 168.189377 303.000000
-22.552450 168.683121 303.000000
-22.552450 169.176849 303.000000
-22.478020 169.110611 302.000000
-22.478020 169.602722 302.000000
-22.478020 170.094833 302.000000
-22.478020 170.586929 302.000000
-22.478020 171.079041 302.000000
-22.478020 171.571136 302.000000
-22.478020 172.063248 302.000000
-22.478020 172.555359 302.000000
-22.478020 173.047455 302.000000
-22.478020 173.539566 302.000000
-22.478020 174.031662 302.000000
-22.478020 174.523773 302.000000
-22.470575 174.957932 301.899994
-22.470575 175.449875 301.899994
-22.469831 175.935989 301.890015
-22.441694 176.206985 301.511963
-22.438063 176.669693 301.463165
-22.438063 177.160934 301.463165
-22.434067 177.620529 301.409485
-22.429672 178.076767 301.350433
-22.429672 178.567810 301.350433
-22.244747 177.582596 298.865906
-22.225515 177.915649 298.607544
-22.225515 178.402222 298.607544
-21.112518 1.250989 290.000000
-21.112518 1.723541 290.000000
-21.112518 2.196092 290.000000
-21.112518 4.086297 290.000000
-21.112518 4.558848 290.000000
-21.124651 5.034291 290.166656
-21.132236 5.509091 290.270844
-21.132236 5.982084 290.270844
-21.137545 6.456698 290.343750
-21.150780 6.934149 290.525574
-21.168518 7.413770 290.769226
-21.168518 7.887574 290.769226
-21.168518 8.361380 290.769226
-21.167482 8.834751 290.754974
-21.167482 9.308533 290.754974
-21.167482 9.782314 290.754974
-21.185320 10.264738 291.000000
-21.185320 10.738919 291.000000
-21.185320 11.213100 291.000000
-21.258121 11.727444 292.000000
-21.258121 12.203254 292.000000
-21.258121 12.679064 292.000000
-21.258121 13.154875 292.000000
-21.258121 13.630684 292.000000
-21.258121 14.106494 292.000000
-21.258121 14.582305 292.000000
-21.258121 15.058115 292.000000
-21.258121 15.533925 292.000000
-21.258121 16.009735 292.000000
-21.258121 16.485546 292.000000
-23.660582 35.295307 325.000000
-23.660582 35.824890 325.000000
-23.660582 36.354473 325.000000
-23.660582 36.884056 325.000000
-23.660582 37.413639 325.000000
-23.660582 37.943226 325.000000
-21.731333 39.227009 298.500000
-21.731333 39.713409 298.500000
-22.398682 41.434311 307.666656
-22.398682 41.935654 307.666656
-22.398682 42.436989 307.666656
-22.398682 42.938328 307.666656
-22.328577 43.303711 306.703705
-22.328577 43.803478 306.703705
-22.328577 44.303246 306.703705
-22.328577 44.803020 306.703705
-22.328577 45.302788 306.703705
-22.328577 45.802555 306.703705
-22.328577 46.302330 306.703705
-22.328577 46.802097 306.703705
-22.328577 47.301865 306.703705
-22.328577 47.801640 306.703705
-22.328577 48.301407 306.703705
-22.328577 48.801178 306.703705
-22.317791 49.277130 306.555542
-22.317791 49.776661 306.555542
-22.317791 50.276188 306.555542
-23.076172 52.501122 316.972595
-23.076172 53.017624 316.972595
-23.076172 53.534126 316.972595
-22.399431 52.465527 307.676971
-25.954847 61.374203 356.513885
-25.954847 61.955139 356.513885
-25.954847 62.536076 356.513885
-25.847523 62.856018 355.039673
-25.847523 63.434547 355.039673
-25.847523 64.013077 355.039673
-25.855322 64.611099 355.146790
-25.855322 65.189804 355.146790
-25.855322 65.768517 355.146790
-25.772371 66.134369 354.007416
-25.772371 66.711220 354.007416
-22.827784 59.600163 313.560760
-22.827784 60.111099 313.560760
-22.827784 60.622047 313.560760
-25.896214 69.350266 355.708496
-25.896214 69.929893 355.708496
-25.896214 70.509514 355.708496
-25.890350 71.073044 355.627960
-25.532043 70.660904 350.706268
-25.532043 71.232376 350.706268
-25.532043 71.803841 350.706268
-25.490131 72.256516 350.130585
-25.490131 72.827049 350.130585
-25.287279 72.813477 347.344208
-25.678650 74.515167 352.720062
-25.764467 75.340866 353.898834
-25.764467 75.917534 353.898834
-25.764467 76.494209 353.898834
-25.729816 76.967232 353.422882
-25.729816 77.543137 353.422882
-25.729816 78.119034 353.422882
-25.591179 78.270897 351.518555
-25.591179 78.843697 351.518555
-24.776516 76.888374 340.328430
-25.371122 79.301468 348.495880
-25.371122 79.869339 348.495880
-25.371122 80.437202 348.495880
-25.359222 80.967079 348.332428
-25.359222 81.534683 348.332428
-24.669432 79.869041 338.857513
-24.669432 80.421204 338.857513
-24.669432 80.973373 338.857513
-25.159323 83.144485 345.586609
-25.159323 83.707611 345.586609
-25.159323 84.270737 345.586609
-25.112343 84.675461 344.941315
-25.061687 85.065605 344.245514
-25.061687 85.626549 344.245514
-24.459831 84.117699 335.978455
-24.692265 85.469711 339.171143
-24.692265 86.022385 339.171143
-24.790997 86.921234 340.527313
-24.909271 87.893463 342.151947
-24.909271 88.450989 342.151947
-24.909271 89.008522 342.151947
-24.886930 89.485725 341.845062
-24.886930 90.042763 341.845062
-24.906240 90.670082 342.110291
-24.906240 91.227547 342.110291
-24.906240 91.785011 342.110291
-24.932934 96.347885 342.476959
-24.935900 96.917473 342.517700
-24.935900 97.475594 342.517700
-24.935900 98.033730 342.517700
-24.812305 102.546074 340.820007
-24.812305 103.101440 340.820007
-24.812305 103.656799 340.820007
-24.805725 104.184532 340.729645
-24.802977 104.728142 340.691895
-24.802977 105.283295 340.691895
-24.791039 105.787506 340.527893
-24.797506 106.370132 340.616730
-24.797506 106.925163 340.616730
-24.797506 107.480194 340.616730
-24.797506 108.035225 340.616730
-24.762579 108.437302 340.136963
-24.762579 108.991547 340.136963
-24.762579 109.545799 340.136963
-24.610096 109.422073 338.042480
-24.610096 109.972916 338.042480
-24.591421 110.439880 337.785950
-24.400379 110.128059 335.161835
-24.400379 110.674194 335.161835
-24.096033 109.833084 330.981354
-24.061644 110.214897 330.508972
-24.061644 110.753456 330.508972
-24.061644 111.292015 330.508972
-24.007448 111.578690 329.764557
-24.007448 112.116035 329.764557
-23.825806 111.801048 327.269531
-23.770639 112.074234 326.511780
-23.770639 112.606270 326.511780
-24.250355 115.421570 333.101105
-24.250355 115.964355 333.101105
-24.250355 116.507133 333.101105
-24.218609 116.896683 332.665039
-24.185791 117.279625 332.214264
-24.185791 117.820961 332.214264
-24.136318 118.120186 331.534698
-24.082470 118.395683 330.795044
-24.082470 118.934715 330.795044
-24.023823 119.182793 329.989471
-24.020041 119.701660 329.937531
-24.020041 120.239288 329.937531
-23.195620 116.631592 318.613342
-23.116192 116.749596 317.522308
-23.116192 117.266998 317.522308
-23.116192 117.784401 317.522308
-23.074453 118.088196 316.949005
-23.074453 118.604652 316.949005
-22.386127 117.571892 307.494202
-22.386127 118.072945 307.494202
-22.386127 118.573997 307.494202
-21.112518 126.477089 290.000000
-21.112518 126.949646 290.000000
-21.112518 127.422195 290.000000
-21.112518 127.894745 290.000000
-21.112518 128.367294 290.000000
-21.112518 128.839844 290.000000
-21.112518 129.312393 290.000000
-21.112518 129.784958 290.000000
-21.112518 130.257507 290.000000
-21.112518 130.730057 290.000000
-21.112518 131.202606 290.000000
-21.112518 131.675156 290.000000
-21.112518 132.147705 290.000000
-21.112518 132.620255 290.000000
-21.112518 133.092804 290.000000
-21.112518 133.565369 290.000000
-21.112518 134.037918 290.000000
-21.185320 134.974289 291.000000
-21.185320 135.448471 291.000000
-21.185320 135.922653 291.000000
-21.185320 136.396835 291.000000
-21.185320 136.871017 291.000000
-21.258121 137.817184 292.000000
-21.258121 138.292984 292.000000
-21.258121 138.768799 292.000000
-21.258121 139.244614 292.000000
-21.258121 139.720413 292.000000
-21.258121 140.196228 292.000000
-21.258121 140.672043 292.000000
-21.258121 141.147842 292.000000
-21.258121 141.623657 292.000000
-21.258121 142.099472 292.000000
-21.258121 142.575287 292.000000
-21.258121 143.051086 292.000000
-21.258121 143.526901 292.000000
-21.258121 144.002716 292.000000
-21.258121 144.478516 292.000000
-21.258121 144.954330 292.000000
-21.330923 145.928192 293.000000
-21.330923 146.405640 293.000000
-21.330923 146.883072 293.000000
-21.403725 147.863449 294.000000
