-35.640369 92.526917 301.000000
-35.640369 93.017395 301.000000
-35.521965 93.197212 300.000000
-35.521965 93.686058 300.000000
-35.521965 94.174904 300.000000
-35.403557 94.348206 299.000000
-35.285152 94.518250 298.000000
-35.285152 95.003838 298.000000
-35.166744 95.168983 297.000000
-35.166744 95.652946 297.000000
-35.166744 96.136902 297.000000
-35.048340 96.295532 296.000000
-34.929932 96.450912 295.000000
-34.929932 96.931618 295.000000
-34.929932 97.412315 295.000000
-34.811527 97.561172 294.000000
-34.811527 98.040237 294.000000
-34.693119 98.184204 293.000000
-34.693119 98.661644 293.000000
-34.693119 99.139084 293.000000
-34.574715 99.276543 292.000000
-34.574715 99.752350 292.000000
-34.574715 100.228165 292.000000
-34.574715 100.703972 292.000000
-34.456303 100.833275 291.000000
-34.337898 100.959320 290.000000
-34.337898 101.431870 290.000000
-34.337898 101.904419 290.000000
-34.397102 106.813789 290.500000
-34.397102 107.287155 290.500000
-34.397102 107.760521 290.500000
-34.367500 108.140739 290.250000
-34.367500 108.613693 290.250000
-34.342838 109.008362 290.041687
-34.345299 109.488831 290.062500
-34.345299 109.961487 290.062500
-34.382301 110.553116 290.375000
-34.382301 111.026283 290.375000
-34.382301 111.499443 290.375000
-34.408508 121.054886 290.596313
-34.409122 121.530579 290.601501
-34.409122 122.004112 290.601501
-34.409817 122.480125 290.607391
-34.409817 122.953667 290.607391
-34.409817 123.427200 290.607391
-34.409317 123.898933 290.603149
-34.409550 124.373306 290.605103
-34.409550 124.846840 290.605103
-34.409550 125.320381 290.605103
-34.409473 125.793648 290.604462
-34.409473 126.267181 290.604462
-34.409359 126.740295 290.603485
-47.762123 69.743279 409.000000
-47.762123 70.409744 409.000000
-47.762123 71.076202 409.000000
-47.732929 71.698807 408.750000
-47.603775 72.169060 407.644012
-47.603775 72.833313 407.644012
-47.573093 73.450195 407.381287
-47.530537 74.047722 407.016876
-47.530537 74.710945 407.016876
-47.515591 75.350471 406.888855
-47.515591 76.013481 406.888855
-47.515591 76.676506 406.888855
-47.421204 77.185898 406.080597
-47.314709 77.672783 405.168671
-47.314709 78.332993 405.168671
-47.023903 78.507706 402.678436
-46.763145 78.724892 400.445496
-46.763145 79.377411 400.445496
-46.449245 79.492714 397.757446
-46.379070 80.019791 397.156555
-46.379070 80.666954 397.156555
-46.000858 80.651009 393.917816
-45.882000 81.082848 392.899994
-46.348366 82.553741 396.893616
-46.348366 83.200478 396.893616
-46.348366 83.847206 396.893616
-46.201744 84.226646 395.638062
-46.201744 84.871338 395.638062
-45.329247 83.901085 388.166595
-45.060146 84.031769 385.862244
-45.060146 84.660522 385.862244
-45.007057 85.188797 385.407623
-45.007057 85.816811 385.407623
-45.007057 86.444824 385.407623
-44.711292 86.500641 382.874908
-44.194469 86.117455 378.449219
-44.194469 86.734131 378.449219
-43.678768 86.331520 374.033112
-42.937428 85.465393 367.684845
-42.937428 86.064529 367.684845
-42.608261 85.999290 364.866089
-42.109127 85.579430 360.591858
-42.109127 86.167007 360.591858
-41.998569 86.526810 359.645111
-41.806458 86.714371 358.000000
-41.806458 87.297729 358.000000
-41.806458 87.881088 358.000000
-41.806458 88.464439 358.000000
-41.806458 89.047798 358.000000
-41.689674 89.380783 357.000000
-41.572899 89.710518 356.000000
-41.572899 90.290611 356.000000
-41.339344 90.360207 354.000000
-41.222565 90.680153 353.000000
-41.222565 91.255363 353.000000
-40.872234 91.050148 350.000000
-40.872234 91.620468 350.000000
-40.872234 92.190788 350.000000
-40.755455 92.496071 349.000000
-40.755455 93.064766 349.000000
-40.755455 93.633453 349.000000
-40.755455 94.202148 349.000000
-35.383675 89.685570 303.000000
-35.383675 90.179306 303.000000
-35.383675 90.673042 303.000000
-35.383675 91.166779 303.000000
-35.383675 91.660507 303.000000
-35.383675 92.154243 303.000000
-35.266899 92.342216 302.000000
-35.266899 92.834320 302.000000
-35.266899 93.326424 302.000000
-35.033344 93.197212 300.000000
-35.033344 93.686058 300.000000
-35.033344 94.174904 300.000000
-34.916565 94.348206 299.000000
-34.916565 94.835426 299.000000
-34.916565 95.322639 299.000000
-34.799789 95.489426 298.000000
-34.683006 95.652946 297.000000
-34.683006 96.136902 297.000000
-34.683006 96.620857 297.000000
-34.449451 96.450912 295.000000
-34.449451 96.931618 295.000000
-34.449451 97.412315 295.000000
-34.332676 97.561172 294.000000
-34.332676 98.040237 294.000000
-34.215897 98.184204 293.000000
-34.215897 98.661644 293.000000
-34.215897 99.139084 293.000000
-34.099121 99.276543 292.000000
-34.099121 99.752350 292.000000
-34.099121 100.228165 292.000000
-34.099121 100.703972 292.000000
-33.982342 100.833275 291.000000
-33.982342 101.307457 291.000000
-33.982342 101.781639 291.000000
-33.865566 101.904419 290.000000
-33.865566 102.376976 290.000000
-33.865566 102.849525 290.000000
-33.875294 107.605957 290.083344
-33.875294 108.078636 290.083344
-33.875294 108.551331 290.083344
-33.870430 109.008362 290.041687
-33.872864 109.488831 290.062500
-33.872864 109.961487 290.062500
-33.872864 110.434135 290.062500
-33.935822 120.110039 290.601624
-33.935822 120.583565 290.601624
-33.935822 121.057098 290.601624
-33.935879 121.530830 290.602112
-33.935879 122.004364 290.602112
-33.936447 122.479958 290.606995
-33.936447 122.953491 290.606995
-33.936447 123.427032 290.606995
-33.935879 123.898506 290.602142
-33.935879 124.372032 290.602142
-33.935879 124.845566 290.602142
-33.936092 125.319901 290.603973
-33.936092 125.793434 290.603973
-33.936092 126.266960 290.603973
-33.935978 126.740059 290.602966
-47.239906 69.956429 410.250000
-47.239906 70.624931 410.250000
-47.239906 71.293427 410.250000
-47.171131 71.857162 409.652771
-47.014977 72.284592 408.296631
-47.014977 72.949905 408.296631
-46.978546 73.558182 407.980255
-46.906967 74.109894 407.358643
-46.906967 74.773682 407.358643
-46.857239 75.357483 406.926758
-46.715752 75.791031 405.698059
-46.715752 76.452103 405.698059
-46.708641 77.101448 405.636292
-46.696205 77.741722 405.528290
-46.696205 78.402527 405.528290
-46.368046 78.507706 402.678436
-46.110924 78.724892 400.445496
-46.110924 79.377411 400.445496
-45.801399 79.492714 397.757446
-45.732208 80.019791 397.156555
-45.732208 80.666954 397.156555
-45.359268 80.651009 393.917816
-45.242065 81.082848 392.899994
-45.701927 82.553741 396.893616
-45.701927 83.200478 396.893616
-45.701927 83.847206 396.893616
-45.557354 84.226646 395.638062
-45.557354 84.871338 395.638062
-44.697021 83.901085 388.166595
-44.510056 84.180000 386.542908
-44.510056 84.809868 386.542908
-44.510056 85.439735 386.542908
-44.379326 85.816811 385.407623
-44.379326 86.444824 385.407623
-44.087688 86.500641 382.874908
-43.605553 86.171761 378.687866
-43.605553 86.788826 378.687866
-43.123928 86.440491 374.505249
-42.338566 85.465393 367.684845
-42.338566 86.064529 367.684845
-42.095848 86.166840 365.576965
-41.602066 85.744827 361.288788
-41.602066 86.333542 361.288788
-41.499161 86.707253 360.395111
-41.223366 86.714371 358.000000
-41.223366 87.297729 358.000000
-41.223366 87.881088 358.000000
-41.223366 88.464439 358.000000
-41.223366 89.047798 358.000000
-41.223366 89.631157 358.000000
-40.993069 89.710518 356.000000
-40.993069 90.290611 356.000000
-40.762768 90.360207 354.000000
-40.647617 90.680153 353.000000
-40.647617 91.255363 353.000000
-40.417324 91.310287 351.000000
-40.302174 91.620468 350.000000
-40.302174 92.190788 350.000000
-40.187027 92.496071 349.000000
-40.187027 93.064766 349.000000
-40.187027 93.633453 349.000000
-40.187027 94.202148 349.000000
-34.890167 89.685570 303.000000
-34.890167 90.179306 303.000000
-34.890167 90.673042 303.000000
-34.890167 91.166779 303.000000
-34.890167 91.660507 303.000000
-34.890167 92.154243 303.000000
-34.775021 92.342216 302.000000
-34.775021 92.834320 302.000000
-34.775021 93.326424 302.000000
-34.659870 93.507874 301.000000
-34.544720 93.686058 300.000000
-34.544720 94.174904 300.000000
-34.429569 94.348206 299.000000
-34.429569 94.835426 299.000000
-34.429569 95.322639 299.000000
-34.314423 95.489426 298.000000
-34.314423 95.975014 298.000000
-34.314423 96.460594 298.000000
-34.199272 96.620857 297.000000
-34.084126 96.777863 296.000000
-34.084126 97.260193 296.000000
-33.968975 97.412315 295.000000
-33.853825 97.561172 294.000000
-33.853825 98.040237 294.000000
-33.738674 98.184204 293.000000
-33.738674 98.661644 293.000000
-33.738674 99.139084 293.000000
-33.738674 99.616524 293.000000
-33.623528 99.752350 292.000000
-33.623528 100.228165 292.000000
-33.623528 100.703972 292.000000
-33.623528 101.179787 292.000000
-33.508377 101.307457 291.000000
-33.508377 101.781639 291.000000
-33.393230 101.904419 290.000000
-33.393230 102.376976 290.000000
-33.393230 102.849525 290.000000
-33.402828 107.605957 290.083344
-33.402828 108.078636 290.083344
-33.402828 108.551331 290.083344
-33.398029 109.008362 290.041687
-33.400425 109.488831 290.062500
-33.400425 109.961487 290.062500
-33.400425 110.434135 290.062500
-33.462505 120.110039 290.601624
-33.462505 120.583565 290.601624
-33.462505 121.057098 290.601624
-33.462563 121.530830 290.602112
-33.462563 122.004364 290.602112
-33.463127 122.479958 290.606995
-33.463127 122.953491 290.606995
-33.463127 123.427032 290.606995
-33.462566 123.898506 290.602142
-33.462566 124.372032 290.602142
-33.462566 124.845566 290.602142
-33.462776 125.319901 290.603973
-33.462776 125.793434 290.603973
-33.462776 126.266960 290.603973
-33.462662 126.740059 290.602966
-46.642662 70.063004 410.875000
-46.642662 70.732521 410.875000
-46.642662 71.402039 410.875000
-46.560280 71.944260 410.149292
-46.404736 72.370018 408.779114
-46.404736 73.036118 408.779114
-46.338875 73.597603 408.198914
-46.263470 74.141914 407.534668
-46.263470 74.805992 407.534668
-46.194458 75.357483 406.926758
-46.045067 75.774719 405.610779
-46.045067 76.435654 405.610779
-46.035702 77.080917 405.528290
-46.035702 77.741722 405.528290
-46.035702 78.402527 405.528290
-45.714794 78.512192 402.701416
-45.462898 78.732147 400.482452
-45.462898 79.384735 400.482452
-45.153553 79.492714 397.757446
-45.066509 79.986366 396.990662
-45.066509 80.633255 396.990662
-44.699535 80.618286 393.757996
-44.584644 81.051048 392.745911
-45.055492 82.553741 396.893616
-45.055492 83.200478 396.893616
-45.055492 83.847206 396.893616
-44.912964 84.226646 395.638062
-44.912964 84.871338 395.638062
-44.064796 83.901085 388.166595
-43.880478 84.180000 386.542908
-43.880478 84.809868 386.542908
-43.880478 85.439735 386.542908
-43.751598 85.816811 385.407623
-43.751598 86.444824 385.407623
-43.241035 86.056747 380.910095
-43.021973 86.238319 378.980377
-43.021973 86.855865 378.980377
-42.578373 86.571457 375.072662
-41.840061 85.670891 368.568909
-41.840061 86.271469 368.568909
-41.500416 86.166840 365.576965
-41.013622 85.744827 361.288788
-41.013622 86.333542 361.288788
-40.912167 86.707253 360.395111
-40.640278 86.714371 358.000000
-40.640278 87.297729 358.000000
-40.640278 87.881088 358.000000
-40.640278 88.464439 358.000000
-40.640278 89.047798 358.000000
-40.640278 89.631157 358.000000
-40.413235 89.710518 356.000000
-40.413235 90.290611 356.000000
-40.186195 90.360207 354.000000
-40.186195 90.937042 354.000000
-40.186195 91.513878 354.000000
-39.959156 91.570427 352.000000
-39.732113 91.620468 350.000000
-39.732113 92.190788 350.000000
-39.732113 92.761108 350.000000
-39.732113 93.331429 350.000000
-39.732113 93.901749 350.000000
-39.732113 94.472069 350.000000
-34.283138 91.358002 302.000000
-34.283138 91.850113 302.000000
-34.283138 92.342216 302.000000
-34.283138 92.834320 302.000000
-34.283138 93.326424 302.000000
-34.169617 93.507874 301.000000
-34.056099 93.686058 300.000000
-34.056099 94.174904 300.000000
-33.942577 94.348206 299.000000
-33.942577 94.835426 299.000000
-33.942577 95.322639 299.000000
-33.829056 95.489426 298.000000
-33.829056 95.975014 298.000000
-33.829056 96.460594 298.000000
-33.715534 96.620857 297.000000
-33.602016 96.777863 296.000000
-33.602016 97.260193 296.000000
-33.488495 97.412315 295.000000
-33.488495 97.893013 295.000000
-33.488495 98.373711 295.000000
-33.374977 98.519310 294.000000
-33.261456 98.661644 293.000000
-33.261456 99.139084 293.000000
-33.261456 99.616524 293.000000
-33.261456 100.093964 293.000000
-33.261456 100.571404 293.000000
-33.147934 100.703972 292.000000
-33.147934 101.179787 292.000000
-33.034412 101.307457 291.000000
-33.034412 101.781639 291.000000
-32.920895 101.904419 290.000000
-32.920895 102.376976 290.000000
-32.920895 102.849525 290.000000
-32.922470 108.052757 290.013885
-32.922470 108.525337 290.013885
-32.922470 108.997910 290.013885
-32.921684 109.467865 290.006958
-32.921684 109.940430 290.006958
-32.990051 119.639633 290.609222
-32.990051 120.113182 290.609222
-32.990051 120.586723 290.609222
-32.989452 121.058052 290.603912
-32.989380 121.531326 290.603302
-32.989380 122.004860 290.603302
-32.989841 122.480110 290.607361
-32.989841 122.953659 290.607361
-32.989841 123.427185 290.607361
-32.989532 123.899574 290.604645
-32.989532 124.373116 290.604645
-32.989532 124.846649 290.604645
-32.989586 125.320381 290.605103
-32.989586 125.793915 290.605103
-32.989586 126.267464 290.605103
-32.989510 126.740700 290.604431
-32.989544 130.055603 290.604736
-32.989544 130.529129 290.604736
-32.989544 131.002655 290.604736
-45.973454 70.063004 410.875000
-45.973454 70.732521 410.875000
-45.973454 71.402039 410.875000
-45.892254 71.944260 410.149292
-45.738941 72.370018 408.779114
-45.738941 73.036118 408.779114
-45.674023 73.597603 408.198914
-45.599701 74.141914 407.534668
-45.599701 74.805992 407.534668
-45.531681 75.357483 406.926758
-45.384434 75.774719 405.610779
-45.384434 76.435654 405.610779
-45.375202 77.080917 405.528290
-45.375202 77.741722 405.528290
-45.375202 78.402527 405.528290
-45.058899 78.512192 402.701416
-44.810616 78.732147 400.482452
-44.810616 79.384735 400.482452
-44.492599 79.469299 397.640289
-44.390144 79.932755 396.724609
-44.390144 80.579216 396.724609
-44.044151 80.592583 393.632416
-43.936970 81.036308 392.674500
-44.390522 82.519287 396.727966
-44.390522 83.165749 396.727966
-44.390522 83.812218 396.727966
-44.245655 84.183052 395.433289
-44.245655 84.827408 395.433289
-43.755928 84.525726 391.056488
-43.546478 84.755287 389.184570
-43.546478 85.389465 389.184570
-43.259739 85.457199 386.621918
-43.030933 85.631866 384.577026
-43.030933 86.258530 384.577026
-42.620632 86.056747 380.910095
-42.404713 86.238319 378.980377
-42.404713 86.855865 378.980377
-41.967476 86.571457 375.072662
-41.266109 85.725632 368.804413
-41.266109 86.326591 368.804413
-40.929249 86.217949 365.793793
-40.459450 85.817528 361.595123
-40.459450 86.406746 361.595123
-40.404163 86.877083 361.101013
-40.169079 86.956589 359.000000
-40.169079 87.541573 359.000000
-40.169079 88.126556 359.000000
-40.057186 88.464439 358.000000
-40.057186 89.047798 358.000000
-40.057186 89.631157 358.000000
-39.833405 89.710518 356.000000
-39.833405 90.290611 356.000000
-39.609619 90.360207 354.000000
-39.609619 90.937042 354.000000
-39.609619 91.513878 354.000000
-39.385838 91.570427 352.000000
-39.162052 91.620468 350.000000
-39.162052 92.190788 350.000000
-39.162052 92.761108 350.000000
-39.162052 93.331429 350.000000
-39.162052 93.901749 350.000000
-39.162052 94.472069 350.000000
-39.050163 94.770836 349.000000
-39.050163 95.339531 349.000000
-39.050163 95.908218 349.000000
-33.791260 91.358002 302.000000
-33.791260 91.850113 302.000000
-33.791260 92.342216 302.000000
-33.791260 92.834320 302.000000
-33.791260 93.326424 302.000000
-33.791260 93.818527 302.000000
-33.567474 93.686058 300.000000
-33.567474 94.174904 300.000000
-33.567474 94.663750 300.000000
-33.455582 94.835426 299.000000
-33.455582 95.322639 299.000000
-33.455582 95.809860 299.000000
-33.343693 95.975014 298.000000
-33.343693 96.460594 298.000000
-33.231800 96.620857 297.000000
-33.231800 97.104820 297.000000
-33.231800 97.588776 297.000000
-33.008015 97.412315 295.000000
-33.008015 97.893013 295.000000
-33.008015 98.373711 295.000000
-32.896126 98.519310 294.000000
-32.784233 98.661644 293.000000
-32.784233 99.139084 293.000000
-32.784233 99.616524 293.000000
-32.784233 100.093964 293.000000
-32.784233 100.571404 293.000000
-32.672344 100.703972 292.000000
-32.672344 101.179787 292.000000
-32.560448 101.307457 291.000000
-32.560448 101.781639 291.000000
-32.560448 102.255821 291.000000
-32.448559 102.376976 290.000000
-32.448559 102.849525 290.000000
-32.448559 103.322075 290.000000
-32.448948 108.994003 290.003479
-32.448948 109.466553 290.003479
-32.448948 109.939117 290.003479
-32.516724 119.639633 290.609222
-32.516724 120.113182 290.609222
-32.516724 120.586723 290.609222
-32.516132 121.058052 290.603912
-32.516064 121.531326 290.603302
-32.516064 122.004860 290.603302
-32.516518 122.480110 290.607361
-32.516518 122.953659 290.607361
-32.516518 123.427185 290.607361
-32.516212 123.899574 290.604645
-32.516232 124.373184 290.604797
-32.516232 124.846710 290.604797
-32.516262 125.320381 290.605103
-32.516262 125.793915 290.605103
-32.516262 126.267464 290.605103
-32.516190 126.740700 290.604431
-32.516037 127.213631 290.603058
-32.516037 127.687180 290.603058
-32.516159 129.581802 290.604156
-32.516224 130.055603 290.604736
-32.516224 130.529129 290.604736
-32.516224 131.002655 290.604736
-45.304245 70.063004 410.875000
-45.304245 70.732521 410.875000
-45.304245 71.402039 410.875000
-45.250259 71.985672 410.385406
-45.086788 72.391914 408.902832
-45.086788 73.058220 408.902832
-45.009171 73.597603 408.198914
-44.935928 74.141914 407.534668
-44.935928 74.805992 407.534668
-44.780380 75.208809 406.123932
-44.717064 75.763313 405.549713
-44.717064 76.424156 405.549713
-44.712242 77.076675 405.505981
-44.712242 77.737442 405.505981
-44.712242 78.398209 405.505981
-44.403004 78.512192 402.701416
-44.158333 78.732147 400.482452
-44.158333 79.384735 400.482452
-43.844948 79.469299 397.640289
-43.743984 79.932755 396.724609
-43.743984 80.579216 396.724609
-43.403030 80.592583 393.632416
-43.290054 81.022545 392.607819
-43.744354 82.519287 396.727966
-43.744354 83.165749 396.727966
-43.744354 83.812218 396.727966
-43.601601 84.183052 395.433289
-43.601601 84.827408 395.433289
-43.118999 84.525726 391.056488
-42.912598 84.755287 389.184570
-42.912598 85.389465 389.184570
-42.642696 85.482590 386.736786
-42.417404 85.657806 384.693542
-42.417404 86.284668 384.693542
-42.033371 86.124649 381.210663
-41.835102 86.336647 379.412506
-41.835102 86.954903 379.412506
-41.387218 86.635597 375.350555
-40.665424 85.725632 368.804413
-40.665424 86.326591 368.804413
-40.359207 86.272980 366.027283
-39.906696 85.895432 361.923340
-39.906696 86.485176 361.923340
-39.849110 86.949272 361.401062
-39.694622 87.198807 360.000000
-39.694622 87.785423 360.000000
-39.584358 88.126556 359.000000
-39.584358 88.711548 359.000000
-39.584358 89.296532 359.000000
-39.474098 89.631157 358.000000
-39.474098 90.214508 358.000000
-39.474098 90.797867 358.000000
-39.143307 90.615456 355.000000
-39.033047 90.937042 354.000000
-39.033047 91.513878 354.000000
-38.922783 91.830574 353.000000
-38.702259 91.882240 351.000000
-38.702259 92.454193 351.000000
-38.591995 92.761108 350.000000
-38.591995 93.331429 350.000000
-38.591995 93.901749 350.000000
-38.591995 94.472069 350.000000
-38.481731 94.770836 349.000000
-38.481731 95.339531 349.000000
-38.481731 95.908218 349.000000
-33.299381 92.342216 302.000000
-33.299381 92.834320 302.000000
-33.299381 93.326424 302.000000
-33.299381 93.818527 302.000000
-33.299381 94.310638 302.000000
-33.299381 94.802742 302.000000
-33.078854 94.663750 300.000000
-32.968590 94.835426 299.000000
-32.968590 95.322639 299.000000
-32.968590 95.809860 299.000000
-32.858326 95.975014 298.000000
-32.858326 96.460594 298.000000
-32.858326 96.946182 298.000000
-32.748062 97.104820 297.000000
-32.748062 97.588776 297.000000
-32.637802 97.742523 296.000000
-32.527538 97.893013 295.000000
-32.527538 98.373711 295.000000
-32.417274 98.519310 294.000000
-32.417274 98.998375 294.000000
-32.417274 99.477448 294.000000
-32.417274 99.956512 294.000000
-32.307011 100.093964 293.000000
-32.307011 100.571404 293.000000
-32.196751 100.703972 292.000000
-32.196751 101.179787 292.000000
-32.196751 101.655594 292.000000
-32.196751 102.131401 292.000000
-32.086487 102.255821 291.000000
-31.976225 102.376976 290.000000
-31.976225 102.849525 290.000000
-31.976225 103.322075 290.000000
-31.976608 108.994003 290.003479
-31.976608 109.466553 290.003479
-31.976608 109.939117 290.003479
-32.043396 119.639633 290.609222
-32.043396 120.113182 290.609222
-32.043396 120.586723 290.609222
-32.042812 121.058052 290.603912
-32.042744 121.531326 290.603302
-32.042744 122.004860 290.603302
-32.043194 122.480110 290.607361
-32.043194 122.953659 290.607361
-32.043194 123.427185 290.607361
-32.042896 123.899574 290.604645
-32.042912 124.373184 290.604797
-32.042912 124.846710 290.604797
-32.042946 125.320381 290.605103
-32.042946 125.793915 290.605103
-32.042946 126.267464 290.605103
-32.042870 126.740700 290.604431
-32.042721 127.213631 290.603058
-32.042721 127.687180 290.603058
-32.042839 129.581802 290.604156
-32.042904 130.055603 290.604736
-32.042904 130.529129 290.604736
-32.042904 131.002655 290.604736
-44.710476 70.181427 411.569458
-44.710476 70.852074 411.569458
-44.710476 71.522720 411.569458
-44.616238 72.041199 410.701965
-44.460213 72.456161 409.265717
-44.460213 73.123055 409.265717
-44.372967 73.645149 408.462616
-44.294807 74.179840 407.743134
-44.294807 74.844261 407.743134
-44.124287 75.217979 406.173431
-44.051552 75.754753 405.503906
-44.051552 76.415520 405.503906
-44.046158 77.066849 405.454254
-44.046158 77.727524 405.454254
-44.046158 78.388206 405.454254
-43.742344 78.503647 402.657593
-43.529697 78.774940 400.700104
-43.529697 79.427879 400.700104
-43.190506 79.456818 397.577789
-43.077454 79.894981 396.537109
-43.077454 80.541138 396.537109
-42.744522 80.559814 393.472412
-42.650597 81.022545 392.607819
-42.871014 82.084328 394.636810
-42.871014 82.727386 394.636810
-42.920151 83.465988 395.089111
-42.920151 84.109787 395.089111
-42.920151 84.753578 395.089111
-42.482067 84.525726 391.056488
-42.278713 84.755287 389.184570
-42.278713 85.389465 389.184570
-42.012802 85.482590 386.736786
-41.790836 85.657806 384.693542
-41.790836 86.284668 384.693542
-41.448818 86.200233 381.545197
-41.261959 86.430542 379.825104
-41.261959 87.049461 379.825104
-40.808212 86.704323 375.648285
-40.092289 85.784584 369.058044
-40.092289 86.385963 369.058044
-39.763042 86.272980 366.027283
-39.317219 85.895432 361.923340
-39.317219 86.485176 361.923340
-39.260479 86.949272 361.401062
-39.108276 87.198807 360.000000
-39.108276 87.785423 360.000000
-38.999641 88.126556 359.000000
-38.999641 88.711548 359.000000
-38.999641 89.296532 359.000000
-38.891006 89.631157 358.000000
-38.891006 90.214508 358.000000
-38.891006 90.797867 358.000000
-38.673740 90.870712 356.000000
-38.456470 90.937042 354.000000
-38.456470 91.513878 354.000000
-38.347836 91.830574 353.000000
-38.130569 91.882240 351.000000
-38.130569 92.454193 351.000000
-38.130569 93.026138 351.000000
-38.021935 93.331429 350.000000
-38.021935 93.901749 350.000000
-38.021935 94.472069 350.000000
-37.913303 94.770836 349.000000
-37.913303 95.339531 349.000000
-37.913303 95.908218 349.000000
-37.804665 96.200470 348.000000
-32.916134 92.647980 303.000000
-32.916134 93.141716 303.000000
-32.916134 93.635445 303.000000
-32.807499 93.818527 302.000000
-32.807499 94.310638 302.000000
-32.807499 94.802742 302.000000
-32.590233 94.663750 300.000000
-32.481594 94.835426 299.000000
-32.481594 95.322639 299.000000
-32.481594 95.809860 299.000000
-32.372963 95.975014 298.000000
-32.372963 96.460594 298.000000
-32.372963 96.946182 298.000000
-32.264328 97.104820 297.000000
-32.264328 97.588776 297.000000
-32.264328 98.072731 297.000000
-32.155693 98.224846 296.000000
-32.155693 98.707176 296.000000
-32.047058 98.854408 295.000000
-31.938425 98.998375 294.000000
-31.938425 99.477448 294.000000
-31.938425 99.956512 294.000000
-31.938425 100.435585 294.000000
-31.938425 100.914658 294.000000
-31.829790 101.048843 293.000000
-31.721157 101.179787 292.000000
-31.721157 101.655594 292.000000
-31.721157 102.131401 292.000000
-31.612522 102.255821 291.000000
-31.612522 102.729996 291.000000
-31.612522 103.204178 291.000000
-31.503889 103.322075 290.000000
-31.503889 103.794624 290.000000
-31.503889 104.267181 290.000000
-31.522232 109.056152 290.168854
-31.522232 109.528984 290.168854
-31.522232 110.001801 290.168854
-31.568905 121.055786 290.598480
-31.569328 121.530945 290.602386
-31.569328 122.004478 290.602386
-31.569328 122.478012 290.602386
-31.569399 122.951820 290.603027
-31.569399 123.425354 290.603027
-31.569525 123.899384 290.604187
-31.569590 124.373184 290.604797
-31.569590 124.846710 290.604797
-31.569656 125.320511 290.605408
-31.569656 125.794060 290.605408
-31.569656 126.267586 290.605408
-31.569525 126.740601 290.604187
-31.569401 127.213631 290.603058
-31.569401 127.687180 290.603058
-31.569590 129.582077 290.604797
-31.569590 130.055618 290.604797
-31.569695 130.529572 290.605743
-31.569695 131.003113 290.605743
-31.569695 131.476669 290.605743
-31.569592 131.949768 290.604828
-31.569592 132.423325 290.604828
-31.569592 132.896851 290.604828
-44.040138 70.181427 411.569458
-44.040138 70.852074 411.569458
-44.040138 71.522720 411.569458
-43.947311 72.041199 410.701965
-43.793625 72.456161 409.265717
-43.793625 73.123055 409.265717
-43.707687 73.645149 408.462616
-43.630699 74.179840 407.743134
-43.630699 74.844261 407.743134
-43.462734 75.217979 406.173431
-43.391090 75.754753 405.503906
-43.391090 76.415520 405.503906
-43.385777 77.066849 405.454254
-43.385777 77.727524 405.454254
-43.385777 78.388206 405.454254
-43.076351 78.485115 402.562561
-42.877056 78.774940 400.700104
-42.877056 79.427879 400.700104
-42.529106 79.430946 397.448364
-42.412712 79.859428 396.360657
-42.412712 80.505295 396.360657
-42.092957 80.539345 393.372437
-42.004452 81.009651 392.545319
-42.208710 82.046333 394.454163
-42.208710 82.689095 394.454163
-42.251469 83.416267 394.853760
-42.251469 84.059685 394.853760
-42.251469 84.703087 394.853760
-41.828739 84.492607 390.903229
-41.640739 84.746956 389.146301
-41.640739 85.381073 389.146301
-41.398087 85.513947 386.878632
-41.184624 85.700165 384.883759
-41.184624 86.327332 384.883759
-40.827381 86.200233 381.545197
-40.643322 86.430542 379.825104
-40.643322 87.049461 379.825104
-40.196377 86.704323 375.648285
-39.579029 85.975403 369.878967
-39.579029 86.578110 369.878967
-39.191681 86.327606 366.259033
-38.765369 85.978897 362.275024
-38.765369 86.569214 362.275024
-38.705849 87.025711 361.718781
-38.628933 87.441025 361.000000
-38.628933 88.029274 361.000000
-38.628933 88.617516 361.000000
-38.414921 88.711548 359.000000
-38.414921 89.296532 359.000000
-38.414921 89.881516 359.000000
-38.307919 90.214508 358.000000
-38.307919 90.797867 358.000000
-38.093906 90.870712 356.000000
-37.879898 90.937042 354.000000
-37.879898 91.513878 354.000000
-37.772888 91.830574 353.000000
-37.558884 91.882240 351.000000
-37.558884 92.454193 351.000000
-37.558884 93.026138 351.000000
-37.451874 93.331429 350.000000
-37.451874 93.901749 350.000000
-37.451874 94.472069 350.000000
-37.344872 94.770836 349.000000
-37.344872 95.339531 349.000000
-37.344872 95.908218 349.000000
-37.237865 96.200470 348.000000
-32.422623 92.647980 303.000000
-32.422623 93.141716 303.000000
-32.422623 93.635445 303.000000
-32.315620 93.818527 302.000000
-32.315620 94.310638 302.000000
-32.315620 94.802742 302.000000
-32.101608 94.663750 300.000000
-32.101608 95.152596 300.000000
-32.101608 95.641441 300.000000
-31.994602 95.809860 299.000000
-31.994602 96.297073 299.000000
-31.994602 96.784294 299.000000
-31.887598 96.946182 298.000000
-31.780590 97.104820 297.000000
-31.780590 97.588776 297.000000
-31.780590 98.072731 297.000000
-31.673586 98.224846 296.000000
-31.673586 98.707176 296.000000
-31.566580 98.854408 295.000000
-31.459576 98.998375 294.000000
-31.459576 99.477448 294.000000
-31.459576 99.956512 294.000000
-31.459576 100.435585 294.000000
-31.459576 100.914658 294.000000
-31.352570 101.048843 293.000000
-31.245565 101.179787 292.000000
-31.245565 101.655594 292.000000
-31.245565 102.131401 292.000000
-31.245565 102.607216 292.000000
-31.138557 102.729996 291.000000
-31.138557 103.204178 291.000000
-31.138557 103.678360 291.000000
-31.138557 104.152542 291.000000
-31.138557 104.626724 291.000000
-31.031553 104.739731 290.000000
-31.049623 109.056152 290.168854
-31.049623 109.528984 290.168854
-31.049623 110.001801 290.168854
-31.096334 125.320511 290.605408
-31.096334 125.794060 290.605408
-31.096334 126.267586 290.605408
-31.096205 126.740601 290.604187
-31.096272 129.582077 290.604797
-31.096272 130.055618 290.604797
-31.096373 130.529572 290.605743
-31.096373 131.003113 290.605743
-31.096373 131.476669 290.605743
-31.096273 131.949768 290.604828
-31.096273 132.423325 290.604828
-31.096273 132.896851 290.604828
-43.369797 70.181427 411.569458
-43.369797 70.852074 411.569458
-43.369797 71.522720 411.569458
-43.281872 72.047012 410.735077
-43.127037 72.456161 409.265717
-43.127037 73.123055 409.265717
-43.042408 73.645149 408.462616
-42.966591 74.179840 407.743134
-42.966591 74.844261 407.743134
-42.806305 75.226982 406.222046
-42.726833 75.748032 405.467896
-42.726833 76.408730 405.467896
-42.725395 77.066849 405.454254
-42.725395 77.727524 405.454254
-42.725395 78.388206 405.454254
-42.420681 78.485115 402.562561
-42.224422 78.774940 400.700104
-42.224422 79.427879 400.700104
-41.881763 79.430946 397.448364
-41.767147 79.859428 396.360657
-41.767147 80.505295 396.360657
-41.448536 80.532120 393.337128
-41.358902 80.997513 392.486511
-41.566246 82.046333 394.454163
-41.566246 82.689095 394.454163
-41.608353 83.416267 394.853760
-41.608353 84.059685 394.853760
-41.608353 84.703087 394.853760
-41.182823 84.473663 390.815582
-41.026253 84.786911 389.329773
-41.026253 85.421326 389.329773
-40.780750 85.540764 387.000000
-40.584862 85.757454 385.141052
-40.584862 86.385040 385.141052
-40.241001 86.275398 381.877899
-40.072628 86.534073 380.280090
-40.072628 87.153732 380.280090
-39.660542 86.870781 376.369476
-38.976593 85.975403 369.878967
-38.976593 86.578110 369.878967
-38.652138 86.455093 366.799927
-38.259617 86.168755 363.075012
-38.259617 86.760384 363.075012
-38.146336 87.093369 362.000000
-38.146336 87.683243 362.000000
-38.146336 88.273117 362.000000
-38.040958 88.617516 361.000000
-37.935581 88.958656 360.000000
-37.935581 89.545273 360.000000
-37.830204 89.881516 359.000000
-37.830204 90.466499 359.000000
-37.830204 91.051491 359.000000
-37.619450 91.125969 357.000000
-37.408699 91.193924 355.000000
-37.408699 91.772392 355.000000
-37.303322 92.090721 354.000000
-37.092567 92.144012 352.000000
-37.092567 92.717590 352.000000
-36.987194 93.026138 351.000000
-36.881817 93.331429 350.000000
-36.881817 93.901749 350.000000
-36.881817 94.472069 350.000000
-36.776440 94.770836 349.000000
-36.776440 95.339531 349.000000
-36.776440 95.908218 349.000000
-36.671062 96.200470 348.000000
-31.929115 92.647980 303.000000
-31.929115 93.141716 303.000000
-31.929115 93.635445 303.000000
-31.929115 94.129181 303.000000
-31.823740 94.310638 302.000000
-31.823740 94.802742 302.000000
-31.718361 94.979301 301.000000
-31.612986 95.152596 300.000000
-31.612986 95.641441 300.000000
-31.612986 96.130287 300.000000
-31.507608 96.297073 299.000000
-31.507608 96.784294 299.000000
-31.402233 96.946182 298.000000
-31.402233 97.431770 298.000000
-31.402233 97.917358 298.000000
-31.296854 98.072731 297.000000
-31.191479 98.224846 296.000000
-31.191479 98.707176 296.000000
-31.086102 98.854408 295.000000
-31.086102 99.335106 295.000000
-31.086102 99.815811 295.000000
-30.980726 99.956512 294.000000
-30.980726 100.435585 294.000000
-30.980726 100.914658 294.000000
-30.980726 101.393723 294.000000
-30.875347 101.526283 293.000000
-30.769972 101.655594 292.000000
-30.769972 102.131401 292.000000
-30.769972 102.607216 292.000000
-30.664595 102.729996 291.000000
-30.664595 103.204178 291.000000
-30.664595 103.678360 291.000000
-30.664595 104.152542 291.000000
-30.664595 104.626724 291.000000
-30.559219 104.739731 290.000000
-30.577011 109.056152 290.168854
-30.577011 109.528984 290.168854
-30.577011 110.001801 290.168854
-30.623014 125.320511 290.605408
-30.623014 125.794060 290.605408
-30.623014 126.267586 290.605408
-30.622887 126.740601 290.604187
-30.622950 129.582077 290.604797
-30.622950 130.055618 290.604797
-30.623049 130.529572 290.605743
-30.623049 131.003113 290.605743
-30.623049 131.476669 290.605743
-30.622953 131.949768 290.604828
-30.622953 132.423325 290.604828
-30.622953 132.896851 290.604828
-41.914139 68.890671 404.000000
-42.612892 70.708435 410.735077
-42.612892 71.377724 410.735077
-42.612892 72.047012 410.735077
-42.456741 72.449837 409.229980
-42.456741 73.116669 409.229980
-42.362591 73.619888 408.322510
-42.289097 74.156372 407.614105
-42.289097 74.820572 407.614105
-42.170609 75.273277 406.472046
-42.063400 75.742561 405.438660
-42.063400 76.403221 405.438660
-42.050869 77.040924 405.317871
-42.025730 77.654930 405.075562
-42.025730 78.314995 405.075562
-41.914139 78.765366 404.000000
-41.706646 79.030495 402.000000
-41.706646 79.685547 402.000000
-41.228432 79.419403 397.390594
-41.110046 79.837036 396.249542
-41.110046 80.482719 396.249542
-40.807892 80.532120 393.337128
-40.719643 80.997513 392.486511
-40.898319 81.995293 394.208771
-40.898319 82.637657 394.208771
-40.952744 83.390831 394.733337
-40.952744 84.034042 394.733337
-40.952744 84.677261 394.733337
-40.546288 84.473663 390.815582
-40.392136 84.786911 389.329773
-40.392136 85.421326 389.329773
-40.150425 85.540764 387.000000
-39.957565 85.757454 385.141052
-39.957565 86.385040 385.141052
-39.839184 86.754829 384.000000
-39.839184 87.380554 384.000000
-39.839184 88.006279 384.000000
-39.104710 86.997986 376.920593
-38.436352 86.114738 370.478424
-38.436352 86.718430 370.478424
-38.054714 86.455093 366.799927
-37.668262 86.168755 363.075012
-37.668262 86.760384 363.075012
-37.556732 87.093369 362.000000
-37.556732 87.683243 362.000000
-37.556732 88.273117 362.000000
-37.452984 88.617516 361.000000
-37.349236 88.958656 360.000000
-37.349236 89.545273 360.000000
-37.245487 89.881516 359.000000
-37.245487 90.466499 359.000000
-37.245487 91.051491 359.000000
-37.037991 91.125969 357.000000
-36.934242 91.450806 356.000000
-36.934242 92.030907 356.000000
-36.726749 92.090721 354.000000
-36.622997 92.405785 353.000000
-36.622997 92.980995 353.000000
-36.415504 93.026138 351.000000
-36.415504 93.598091 351.000000
-36.311756 93.901749 350.000000
-36.311756 94.472069 350.000000
-36.311756 95.042389 350.000000
-36.208008 95.339531 349.000000
-36.208008 95.908218 349.000000
-36.104259 96.200470 348.000000
-36.104259 96.767532 348.000000
-36.104259 97.334595 348.000000
-31.435606 93.141716 303.000000
-31.435606 93.635445 303.000000
-31.435606 94.129181 303.000000
-31.331860 94.310638 302.000000
-31.331860 94.802742 302.000000
-31.228109 94.979301 301.000000
-31.124363 95.152596 300.000000
-31.124363 95.641441 300.000000
-31.124363 96.130287 300.000000
-31.020615 96.297073 299.000000
-31.020615 96.784294 299.000000
-30.916868 96.946182 298.000000
-30.916868 97.431770 298.000000
-30.916868 97.917358 298.000000
-30.813118 98.072731 297.000000
-30.813118 98.556694 297.000000
-30.813118 99.040649 297.000000
-30.709372 99.189507 296.000000
-30.605621 99.335106 295.000000
-30.605621 99.815811 295.000000
-30.605621 100.296509 295.000000
-30.501875 100.435585 294.000000
-30.501875 100.914658 294.000000
-30.501875 101.393723 294.000000
-30.398127 101.526283 293.000000
-30.398127 102.003723 293.000000
-30.398127 102.481163 293.000000
-30.294380 102.607216 292.000000
-30.294380 103.083023 292.000000
-30.294380 103.558838 292.000000
-30.190630 103.678360 291.000000
-30.190630 104.152542 291.000000
-30.190630 104.626724 291.000000
-30.190630 105.100906 291.000000
-30.086884 105.212280 290.000000
-30.086884 105.684830 290.000000
-30.149630 129.582077 290.604797
-30.149645 130.055695 290.604950
-30.149677 130.529358 290.605255
-30.149677 131.002899 290.605255
-30.149677 131.476440 290.605255
-30.149649 131.949844 290.604980
-30.149649 132.423386 290.604980
-30.149654 132.896957 290.605042
-30.149654 133.370483 290.605042
-30.149654 133.844025 290.605042
-41.358250 67.081367 405.000000
-41.358250 67.741310 405.000000
-41.358250 68.401253 405.000000
-41.358250 69.061195 405.000000
-41.943909 70.708435 410.735077
-41.943909 71.377724 410.735077
-41.943909 72.047012 410.735077
-41.790211 72.449837 409.229980
-41.790211 73.116669 409.229980
-41.697540 73.619888 408.322510
-41.625198 74.156372 407.614105
-41.625198 74.820572 407.614105
-41.508575 75.273277 406.472046
-41.408764 75.753029 405.494659
-41.408764 76.413780 405.494659
-41.390709 77.040924 405.317871
-41.365963 77.654930 405.075562
-41.365963 78.314995 405.075562
-41.256130 78.765366 404.000000
-41.051891 79.030495 402.000000
-41.051891 79.685547 402.000000
-40.847656 79.940895 400.000000
-40.745533 80.391212 399.000000
-40.745533 81.041374 399.000000
-40.165997 80.529610 393.324860
-40.080379 80.997513 392.486511
-40.233379 81.948692 393.984741
-40.233379 82.590691 393.984741
-40.272530 83.313667 394.368103
-40.272530 83.956291 394.368103
-40.272530 84.598907 394.368103
-39.909748 84.473663 390.815582
-39.758022 84.786911 389.329773
-39.758022 85.421326 389.329773
-39.520103 85.540764 387.000000
-39.330269 85.757454 385.141052
-39.330269 86.385040 385.141052
-39.213749 86.754829 384.000000
-39.213749 87.380554 384.000000
-39.213749 88.006279 384.000000
-38.490807 86.997986 376.920593
-37.880802 86.223694 370.947144
-37.880802 86.828140 370.947144
-37.506168 86.567909 367.278564
-37.171368 86.388283 364.000000
-37.171368 86.981415 364.000000
-37.171368 87.574554 364.000000
-36.967129 87.683243 362.000000
-36.967129 88.273117 362.000000
-36.865005 88.617516 361.000000
-36.865005 89.205765 361.000000
-36.865005 89.794006 361.000000
-36.762890 90.131882 360.000000
-36.660767 90.466499 359.000000
-36.660767 91.051491 359.000000
-36.456528 91.125969 357.000000
-36.354412 91.450806 356.000000
-36.354412 92.030907 356.000000
-36.150173 92.090721 354.000000
-36.048054 92.405785 353.000000
-36.048054 92.980995 353.000000
-35.843819 93.026138 351.000000
-35.843819 93.598091 351.000000
-35.741695 93.901749 350.000000
-35.741695 94.472069 350.000000
-35.741695 95.042389 350.000000
-35.639580 95.339531 349.000000
-35.639580 95.908218 349.000000
-35.537457 96.200470 348.000000
-35.537457 96.767532 348.000000
-35.537457 97.334595 348.000000
-30.942097 93.141716 303.000000
-30.942097 93.635445 303.000000
-30.942097 94.129181 303.000000
-30.839979 94.310638 302.000000
-30.839979 94.802742 302.000000
-30.737860 94.979301 301.000000
-30.635742 95.152596 300.000000
-30.635742 95.641441 300.000000
-30.635742 96.130287 300.000000
-30.533621 96.297073 299.000000
-30.533621 96.784294 299.000000
-30.533621 97.271507 299.000000
-30.431503 97.431770 298.000000
-30.431503 97.917358 298.000000
-30.329382 98.072731 297.000000
-30.329382 98.556694 297.000000
-30.329382 99.040649 297.000000
-30.227264 99.189507 296.000000
-30.125143 99.335106 295.000000
-30.125143 99.815811 295.000000
-30.125143 100.296509 295.000000
-30.023026 100.435585 294.000000
-30.023026 100.914658 294.000000
-30.023026 101.393723 294.000000
-29.920904 101.526283 293.000000
-29.920904 102.003723 293.000000
-29.920904 102.481163 293.000000
-29.818787 102.607216 292.000000
-29.818787 103.083023 292.000000
-29.818787 103.558838 292.000000
-29.716667 103.678360 291.000000
-29.716667 104.152542 291.000000
-29.716667 104.626724 291.000000
-29.716667 105.100906 291.000000
-29.614550 105.212280 290.000000
-29.614550 105.684830 290.000000
-29.676331 129.582169 290.604980
-29.676331 130.055695 290.604980
-29.676359 130.529358 290.605255
-29.676359 131.002899 290.605255
-29.676359 131.476440 290.605255
-29.676331 131.949844 290.604980
-29.676331 132.423386 290.604980
-29.676336 132.896957 290.605042
-29.676336 133.370483 290.605042
-29.676336 133.844025 290.605042
-29.676327 134.317520 290.604950
-40.698608 67.081367 405.000000
-40.698608 67.741310 405.000000
-40.698608 68.401253 405.000000
-40.698608 69.061195 405.000000
-41.158024 70.508163 409.571716
-41.158024 71.175552 409.571716
-41.158024 71.842949 409.571716
-41.064590 72.345734 408.641937
-41.064590 73.011604 408.641937
-41.064590 73.677483 408.641937
-40.988052 74.204796 407.880310
-40.988052 74.869431 407.880310
-40.868477 75.313713 406.690399
-40.748318 75.753029 405.494659
-40.748318 76.413780 405.494659
-40.711945 77.005730 405.132721
-40.698608 77.640442 405.000000
-40.698608 78.300385 405.000000
-40.598118 78.765366 404.000000
-40.397137 79.030495 402.000000
-40.397137 79.685547 402.000000
-40.196159 79.940895 400.000000
-40.095665 80.391212 399.000000
-40.095665 81.041374 399.000000
-39.693703 80.872581 395.000000
-39.527260 81.174408 393.343689
-39.591682 81.948692 393.984741
-39.591682 82.590691 393.984741
-39.591682 83.232689 393.984741
-39.499588 83.679581 393.068298
-39.499588 84.320076 393.068298
-38.889782 83.648933 387.000000
-38.889782 84.279541 387.000000
-38.889782 84.910156 387.000000
-38.889782 85.540764 387.000000
-38.688801 85.726051 385.000000
-38.688801 86.353401 385.000000
-38.588310 86.754829 384.000000
-38.588310 87.380554 384.000000
-38.588310 88.006279 384.000000
-37.913921 87.083023 377.289032
-37.276623 86.223694 370.947144
-37.276623 86.828140 370.947144
-36.930431 86.620598 367.502106
-36.779484 86.862946 366.000000
-36.779484 87.459335 366.000000
-36.678993 87.815132 365.000000
-36.478012 87.925461 363.000000
-36.478012 88.516968 363.000000
-36.377522 88.862991 362.000000
-36.277031 89.205765 361.000000
-36.277031 89.794006 361.000000
-36.277031 90.382256 361.000000
-36.076050 90.466499 359.000000
-36.076050 91.051491 359.000000
-35.875069 91.125969 357.000000
-35.875069 91.707695 357.000000
-35.875069 92.289421 357.000000
-35.674088 92.350861 355.000000
-35.573601 92.667557 354.000000
-35.573601 93.244400 354.000000
-35.473106 93.556198 353.000000
-35.272129 93.598091 351.000000
-35.171638 93.901749 350.000000
-35.171638 94.472069 350.000000
-35.171638 95.042389 350.000000
-35.071148 95.339531 349.000000
-35.071148 95.908218 349.000000
-34.970657 96.200470 348.000000
-34.970657 96.767532 348.000000
-34.970657 97.334595 348.000000
-30.391674 92.967613 302.433624
-30.391674 93.460426 302.433624
-30.391674 93.953239 302.433624
-30.348101 94.310638 302.000000
-30.348101 94.802742 302.000000
-30.247608 94.979301 301.000000
-30.147120 95.152596 300.000000
-30.147120 95.641441 300.000000
-30.147120 96.130287 300.000000
-30.147120 96.619133 300.000000
-30.147120 97.107979 300.000000
-30.046627 97.271507 299.000000
-29.946138 97.431770 298.000000
-29.946138 97.917358 298.000000
-29.946138 98.402946 298.000000
-29.845646 98.556694 297.000000
-29.845646 99.040649 297.000000
-29.745157 99.189507 296.000000
-29.745157 99.671837 296.000000
-29.745157 100.154160 296.000000
-29.644665 100.296509 295.000000
-29.644665 100.777206 295.000000
-29.644665 101.257904 295.000000
-29.544176 101.393723 294.000000
-29.544176 101.872795 294.000000
-29.443684 102.003723 293.000000
-29.443684 102.481163 293.000000
-29.343195 102.607216 292.000000
-29.343195 103.083023 292.000000
-29.343195 103.558838 292.000000
-29.242702 103.678360 291.000000
-29.242702 104.152542 291.000000
-29.242702 104.626724 291.000000
-29.242702 105.100906 291.000000
-29.142214 105.212280 290.000000
-29.142214 105.684830 290.000000
-29.203009 129.582169 290.604980
-29.203009 130.055695 290.604980
-29.203037 130.529358 290.605255
-29.203037 131.002899 290.605255
-29.203037 131.476440 290.605255
-29.203009 131.949844 290.604980
-29.203009 132.423386 290.604980
-29.203014 132.896957 290.605042
-29.203014 133.370483 290.605042
-29.203014 133.844025 290.605042
-29.203005 134.317520 290.604950
-40.137829 65.262283 406.000000
-40.137829 65.923859 406.000000
-40.137829 66.585426 406.000000
-40.104877 67.191780 405.666656
-40.091694 67.830513 405.533325
-40.091694 68.491325 405.533325
-40.070038 69.114784 405.314270
-40.424786 70.392975 408.902618
-40.424786 71.059280 408.902618
-40.424786 71.725578 408.902618
-40.421696 72.386345 408.871338
-40.421696 73.052589 408.871338
-40.421696 73.718842 408.871338
-40.342289 74.238976 408.068146
-40.342289 74.903915 408.068146
-40.206085 75.313713 406.690399
-40.087872 75.753029 405.494659
-40.087872 76.413780 405.494659
-40.038967 76.980499 405.000000
-40.038967 77.640442 405.000000
-40.038967 78.300385 405.000000
-39.940105 78.765366 404.000000
-39.643520 78.833900 401.000000
-39.643520 79.487320 401.000000
-39.544662 79.940895 400.000000
-39.445797 80.391212 399.000000
-39.445797 81.041374 399.000000
-39.050350 80.872581 395.000000
-38.886604 81.174408 393.343689
-38.949982 81.948692 393.984741
-38.949982 82.590691 393.984741
-38.949982 83.232689 393.984741
-38.859383 83.679581 393.068298
-38.859383 84.320076 393.068298
-38.259457 83.648933 387.000000
-38.259457 84.279541 387.000000
-38.259457 84.910156 387.000000
-38.259457 85.540764 387.000000
-37.962875 85.503380 384.000000
-37.962875 86.129105 384.000000
-37.962875 86.754829 384.000000
-37.962875 87.380554 384.000000
-37.962875 88.006279 384.000000
-37.765152 88.170380 382.000000
-36.698933 86.285965 371.215057
-36.698933 86.890854 371.215057
-36.331863 86.620598 367.502106
-36.183365 86.862946 366.000000
-36.183365 87.459335 366.000000
-36.084503 87.815132 365.000000
-35.886780 87.925461 363.000000
-35.886780 88.516968 363.000000
-35.787918 88.862991 362.000000
-35.689056 89.205765 361.000000
-35.689056 89.794006 361.000000
-35.689056 90.382256 361.000000
-35.491333 90.466499 359.000000
-35.491333 91.051491 359.000000
-35.392471 91.381226 358.000000
-35.293610 91.707695 357.000000
-35.293610 92.289421 357.000000
-35.095886 92.350861 355.000000
-34.997025 92.667557 354.000000
-34.997025 93.244400 354.000000
-34.898163 93.556198 353.000000
-34.799301 93.864746 352.000000
-34.700439 94.170044 351.000000
-34.700439 94.741989 351.000000
-34.601578 95.042389 350.000000
-34.601578 95.612709 350.000000
-34.601578 96.183029 350.000000
-34.403854 96.200470 348.000000
-34.403854 96.767532 348.000000
-34.403854 97.334595 348.000000
-30.264847 93.606056 306.133331
-30.264847 94.104897 306.133331
-30.264847 94.603737 306.133331
-29.899088 93.953239 302.433624
-29.856220 94.310638 302.000000
-29.856220 94.802742 302.000000
-29.757357 94.979301 301.000000
-29.658497 95.152596 300.000000
-29.658497 95.641441 300.000000
-29.658497 96.130287 300.000000
-29.658497 96.619133 300.000000
-29.658497 97.107979 300.000000
-29.559633 97.271507 299.000000
-29.460773 97.431770 298.000000
-29.460773 97.917358 298.000000
-29.460773 98.402946 298.000000
-29.361910 98.556694 297.000000
-29.361910 99.040649 297.000000
-29.361910 99.524605 297.000000
-29.263050 99.671837 296.000000
-29.263050 100.154160 296.000000
-29.164186 100.296509 295.000000
-29.164186 100.777206 295.000000
-29.164186 101.257904 295.000000
-29.164186 101.738602 295.000000
-29.065327 101.872795 294.000000
-29.065327 102.351860 294.000000
-29.065327 102.830933 294.000000
-28.966463 102.958603 293.000000
-28.867601 103.083023 292.000000
-28.867601 103.558838 292.000000
-28.867601 104.034645 292.000000
-28.768740 104.152542 291.000000
-28.768740 104.626724 291.000000
-28.768740 105.100906 291.000000
-28.669878 105.212280 290.000000
-28.669878 105.684830 290.000000
-28.729687 129.582169 290.604980
-28.729687 130.055695 290.604980
-28.729706 130.529327 290.605164
-28.729706 131.002853 290.605164
-28.729706 131.476395 290.605164
-28.729681 131.949829 290.604919
-28.729681 132.423355 290.604919
-28.729685 132.896912 290.604950
-28.729685 133.370453 290.604950
