-53.064987 72.906929 297.000000
-52.886318 73.143776 296.000000
-52.886318 73.626106 296.000000
-52.886318 74.108437 296.000000
-52.707645 74.338776 295.000000
-52.707645 74.819473 295.000000
-52.707645 75.300171 295.000000
-52.707645 75.780869 295.000000
-52.707645 76.261566 295.000000
-52.528976 76.482124 294.000000
-52.528976 76.961189 294.000000
-52.528976 77.440262 294.000000
-52.528976 77.919327 294.000000
-52.528976 78.398399 294.000000
-52.528976 78.877464 294.000000
-52.528976 79.356537 294.000000
-52.350304 79.564056 293.000000
-52.350304 80.041496 293.000000
-52.350304 80.518936 293.000000
-52.350304 80.996376 293.000000
-52.350304 81.473816 293.000000
-52.171638 81.671562 292.000000
-52.171638 82.147369 292.000000
-52.171638 82.623184 292.000000
-52.171638 83.098991 292.000000
-52.171638 83.574806 292.000000
-52.171638 84.050613 292.000000
-52.171638 84.526421 292.000000
-52.171638 85.002235 292.000000
-52.171638 85.478043 292.000000
-51.992966 85.659492 291.000000
-51.992966 86.133667 291.000000
-51.992966 86.607849 291.000000
-51.992966 87.082031 291.000000
-51.992966 87.556213 291.000000
-51.992966 88.030396 291.000000
-51.992966 88.504578 291.000000
-51.992966 88.978752 291.000000
-51.814297 89.145538 290.000000
-51.814297 89.618088 290.000000
-51.992966 90.401299 291.000000
-51.992966 90.875481 291.000000
-51.992966 91.349663 291.000000
-51.992966 91.823837 291.000000
-51.992966 92.298019 291.000000
-51.992966 92.772202 291.000000
-52.171638 93.566818 292.000000
-52.171638 94.042625 292.000000
-52.171638 94.518440 292.000000
-52.171638 94.994247 292.000000
-52.171638 95.470062 292.000000
-52.171638 95.945869 292.000000
-52.171638 96.421684 292.000000
-52.171638 96.897491 292.000000
-52.171638 97.373299 292.000000
-52.174194 97.853905 292.014313
-52.243626 98.460594 292.402924
-52.243626 98.937065 292.402924
-52.336422 99.590111 292.922302
-52.707645 100.777206 295.000000
-52.707645 101.257904 295.000000
-52.707645 101.738602 295.000000
-53.433735 103.627457 299.063873
-53.433735 104.114777 299.063873
-53.433735 104.602097 299.063873
-53.430168 105.082390 299.043884
-53.143188 105.002655 297.437683
-53.143188 105.487328 297.437683
-53.061920 105.809944 296.982849
-55.030354 110.237045 308.000000
-55.030354 110.738930 308.000000
-55.030354 111.240814 308.000000
-55.030354 111.742691 308.000000
-55.030354 112.244576 308.000000
-53.849091 110.326271 301.388550
-53.849091 110.817390 301.388550
-53.849091 111.308502 301.388550
-53.944130 111.996933 301.920502
-53.944130 112.488907 301.920502
-53.944130 112.980888 301.920502
-52.934681 111.349449 296.270691
-52.934681 111.832214 296.270691
-52.934681 112.314987 296.270691
-74.534363 72.475548 421.000000
-74.534363 73.161560 421.000000
-74.534363 73.847580 421.000000
-72.940994 78.311028 412.000000
-72.940994 78.982376 412.000000
-72.940994 79.653725 412.000000
-72.763954 80.130112 411.000000
-72.763954 80.799828 411.000000
-72.763954 81.469551 411.000000
-72.409866 81.739571 409.000000
-72.232834 82.204544 408.000000
-72.232834 82.869377 408.000000
-72.232834 83.534203 408.000000
-53.289413 62.117428 301.000000
-53.289413 62.607903 301.000000
-53.289413 63.098377 301.000000
-53.230396 63.518429 300.666656
-53.230396 64.008362 300.666656
-53.186138 64.444664 300.416656
-53.186138 64.934196 300.416656
-53.186138 65.423721 300.416656
-53.125015 65.837494 300.071411
-53.064602 66.251030 299.730164
-53.064602 66.739433 299.730164
-53.013550 67.163162 299.441803
-52.953487 67.574455 299.102539
-52.953487 68.061836 299.102539
-52.925114 68.512497 298.942291
-52.877296 68.937271 298.672180
-52.877296 69.423950 298.672180
-52.813324 69.826057 298.310852
-52.728340 70.199013 297.830841
-52.728340 70.684326 297.830841
-52.675686 71.098572 297.533417
-52.758293 71.695648 298.000000
-52.758293 72.181236 298.000000
-52.758293 72.666824 298.000000
-52.758293 73.152412 298.000000
-52.581249 73.390892 297.000000
-52.581249 73.874847 297.000000
-52.404209 74.108437 296.000000
-52.404209 74.590767 296.000000
-52.404209 75.073090 296.000000
-52.227165 75.300171 295.000000
-52.227165 75.780869 295.000000
-52.227165 76.261566 295.000000
-52.050125 76.482124 294.000000
-52.050125 76.961189 294.000000
-52.050125 77.440262 294.000000
-52.050125 77.919327 294.000000
-52.050125 78.398399 294.000000
-52.050125 78.877464 294.000000
-52.050125 79.356537 294.000000
-51.873085 79.564056 293.000000
-51.873085 80.041496 293.000000
-51.873085 80.518936 293.000000
-51.873085 80.996376 293.000000
-51.873085 81.473816 293.000000
-51.696045 81.671562 292.000000
-51.696045 82.147369 292.000000
-51.696045 82.623184 292.000000
-51.696045 83.098991 292.000000
-51.696045 83.574806 292.000000
-51.696045 84.050613 292.000000
-51.696045 84.526421 292.000000
-51.696045 85.002235 292.000000
-51.696045 85.478043 292.000000
-51.519001 85.659492 291.000000
-51.519001 86.133667 291.000000
-51.519001 86.607849 291.000000
-51.519001 87.082031 291.000000
-51.519001 87.556213 291.000000
-51.519001 88.030396 291.000000
-51.519001 88.504578 291.000000
-51.519001 88.978752 291.000000
-51.341961 89.145538 290.000000
-51.341961 89.618088 290.000000
-51.519001 90.401299 291.000000
-51.519001 90.875481 291.000000
-51.519001 91.349663 291.000000
-51.519001 91.823837 291.000000
-51.519001 92.298019 291.000000
-51.519001 92.772202 291.000000
-51.696045 93.566818 292.000000
-51.696045 94.042625 292.000000
-51.696045 94.518440 292.000000
-51.696045 94.994247 292.000000
-51.696045 95.470062 292.000000
-51.696045 95.945869 292.000000
-51.696045 96.421684 292.000000
-51.696045 96.897491 292.000000
-51.696045 97.373299 292.000000
-51.698578 97.853905 292.014313
-51.767376 98.460594 292.402924
-51.767376 98.937065 292.402924
-51.859329 99.590111 292.922302
-52.227165 100.777206 295.000000
-52.227165 101.257904 295.000000
-52.227165 101.738602 295.000000
-52.946640 103.627457 299.063873
-52.946640 104.114777 299.063873
-52.946640 104.602097 299.063873
-52.943100 105.082390 299.043884
-52.418491 104.523590 296.080658
-52.418491 105.006058 296.080658
-52.578213 105.809944 296.982849
-54.528702 110.237045 308.000000
-54.528702 110.738930 308.000000
-54.528702 111.240814 308.000000
-54.528702 111.742691 308.000000
-54.528702 112.244576 308.000000
-52.934273 109.449738 298.994019
-53.341202 110.782074 301.292511
-53.341202 111.273018 301.292511
-53.452385 111.996933 301.920502
-53.452385 112.488907 301.920502
-53.452385 112.980888 301.920502
-52.673183 111.818718 297.519287
-52.452133 111.832214 296.270691
-52.452133 112.314987 296.270691
-73.848663 72.475548 421.000000
-73.848663 73.161560 421.000000
-73.892517 73.891434 421.250000
-73.892517 74.577858 421.250000
-73.892517 75.264275 421.250000
-73.797501 75.853035 420.708344
-71.568306 80.874886 408.000000
-71.568306 81.539711 408.000000
-71.568306 82.204544 408.000000
-52.041107 69.927391 296.678436
-52.041107 70.410820 296.678436
-52.041107 70.894257 296.678436
-52.004787 71.327873 296.471375
-52.272926 72.181236 298.000000
-52.272926 72.666824 298.000000
-52.272926 73.152412 298.000000
-52.097511 73.390892 297.000000
-52.097511 73.874847 297.000000
-51.922100 74.108437 296.000000
-51.922100 74.590767 296.000000
-51.922100 75.073090 296.000000
-51.746689 75.300171 295.000000
-51.746689 75.780869 295.000000
-51.746689 76.261566 295.000000
-51.746689 76.742264 295.000000
-51.571278 76.961189 294.000000
-51.571278 77.440262 294.000000
-51.571278 77.919327 294.000000
-51.571278 78.398399 294.000000
-51.571278 78.877464 294.000000
-51.571278 79.356537 294.000000
-51.395863 79.564056 293.000000
-51.395863 80.041496 293.000000
-51.395863 80.518936 293.000000
-51.395863 80.996376 293.000000
-51.395863 81.473816 293.000000
-51.220451 81.671562 292.000000
-51.220451 82.147369 292.000000
-51.220451 82.623184 292.000000
-51.220451 83.098991 292.000000
-51.220451 83.574806 292.000000
-51.220451 84.050613 292.000000
-51.045036 84.236946 291.000000
-51.045036 84.711128 291.000000
-51.045036 85.185310 291.000000
-51.045036 85.659492 291.000000
-51.045036 86.133667 291.000000
-51.045036 86.607849 291.000000
-51.045036 87.082031 291.000000
-50.869625 87.255333 290.000000
-50.869625 87.727882 290.000000
-50.869625 88.200432 290.000000
-50.869625 88.672981 290.000000
-50.869625 89.145538 290.000000
-50.869625 89.618088 290.000000
-50.869625 90.090637 290.000000
-50.869625 90.563187 290.000000
-50.869625 91.035744 290.000000
-51.045036 91.823837 291.000000
-51.045036 92.298019 291.000000
-51.045036 92.772202 291.000000
-51.045036 93.246384 291.000000
-51.045036 93.720566 291.000000
-51.045036 94.194748 291.000000
-51.045036 94.668922 291.000000
-51.045036 95.143105 291.000000
-51.045036 95.617287 291.000000
-51.220451 96.421684 292.000000
-51.220451 96.897491 292.000000
-51.220451 97.373299 292.000000
-51.222961 97.853905 292.014313
-51.291130 98.460594 292.402924
-51.291130 98.937065 292.402924
-51.571278 99.956512 294.000000
-51.746689 100.777206 295.000000
-51.746689 101.257904 295.000000
-51.746689 101.738602 295.000000
-52.459541 103.627457 299.063873
-52.459541 104.114777 299.063873
-52.459541 104.602097 299.063873
-52.456036 105.082390 299.043884
-51.852154 104.354347 295.601227
-51.852154 104.836021 295.601227
-51.859795 105.333229 295.644806
-53.851635 109.879143 307.000000
-53.851635 110.379402 307.000000
-53.851635 110.879654 307.000000
-51.904404 107.352486 295.899109
-51.904404 107.834648 295.899109
-51.956615 108.425781 296.196777
-51.977612 108.952438 296.316467
-51.977612 109.435272 296.316467
-52.415779 110.844719 298.814392
-52.415779 111.331642 298.814392
-52.415779 111.818558 298.814392
-52.188602 111.818718 297.519287
-51.969585 111.832214 296.270691
-51.969585 112.314987 296.270691
-51.855846 112.550896 295.622284
-73.162964 72.475548 421.000000
-73.162964 73.161560 421.000000
-73.206413 73.891434 421.250000
-73.206413 74.577858 421.250000
-73.206413 75.264275 421.250000
-73.112282 75.853035 420.708344
-65.457825 77.118141 376.662506
-65.457825 77.731911 376.662506
-65.457825 78.345673 376.662506
-51.557892 69.927391 296.678436
-51.557892 70.410820 296.678436
-51.557892 70.894257 296.678436
-51.521912 71.327873 296.471375
-51.787563 72.181236 298.000000
-51.787563 72.666824 298.000000
-51.787563 73.152412 298.000000
-51.613777 73.390892 297.000000
-51.613777 73.874847 297.000000
-51.439995 74.108437 296.000000
-51.439995 74.590767 296.000000
-51.439995 75.073090 296.000000
-51.439995 75.555420 296.000000
-51.266209 75.780869 295.000000
-51.266209 76.261566 295.000000
-51.266209 76.742264 295.000000
-51.092426 76.961189 294.000000
-51.092426 77.440262 294.000000
-51.092426 77.919327 294.000000
-51.092426 78.398399 294.000000
-51.092426 78.877464 294.000000
-51.092426 79.356537 294.000000
-50.918640 79.564056 293.000000
-50.918640 80.041496 293.000000
-50.918640 80.518936 293.000000
-50.744858 80.719940 292.000000
-50.744858 81.195747 292.000000
-50.744858 81.671562 292.000000
-50.744858 82.147369 292.000000
-50.744858 82.623184 292.000000
-50.744858 83.098991 292.000000
-50.571075 83.288582 291.000000
-50.571075 83.762764 291.000000
-50.571075 84.236946 291.000000
-50.571075 84.711128 291.000000
-50.571075 85.185310 291.000000
-50.571075 85.659492 291.000000
-50.571075 86.133667 291.000000
-50.397293 86.310226 290.000000
-50.397293 86.782776 290.000000
-50.397293 87.255333 290.000000
-50.397293 87.727882 290.000000
-50.397293 88.200432 290.000000
-50.397293 88.672981 290.000000
-50.397293 89.145538 290.000000
-50.397293 89.618088 290.000000
-50.397293 90.090637 290.000000
-50.397293 90.563187 290.000000
-50.397293 91.035744 290.000000
-50.397293 91.508293 290.000000
-50.397293 91.980843 290.000000
-50.397293 92.453392 290.000000
-50.571075 93.246384 291.000000
-50.571075 93.720566 291.000000
-50.571075 94.194748 291.000000
-50.571075 94.668922 291.000000
-50.571075 95.143105 291.000000
-50.571075 95.617287 291.000000
-50.571075 96.091469 291.000000
-50.571075 96.565651 291.000000
-50.571075 97.039833 291.000000
-50.571075 97.514008 291.000000
-50.744858 98.324921 292.000000
-50.744858 98.800735 292.000000
-51.092426 99.956512 294.000000
-51.092426 100.435585 294.000000
-51.092426 100.914658 294.000000
-51.092426 101.393723 294.000000
-51.972446 103.627457 299.063873
-51.972446 104.114777 299.063873
-51.972446 104.602097 299.063873
-51.968971 105.082390 299.043884
-51.370693 104.354347 295.601227
-51.370693 104.836021 295.601227
-51.308552 105.190300 295.243652
-51.604073 106.280029 296.944153
-51.604073 106.763901 296.944153
-51.604073 107.247765 296.944153
-51.532654 107.582535 296.533203
-51.532654 108.065727 296.533203
-51.532654 108.548927 296.533203
-51.476490 108.913292 296.210022
-51.476490 109.395966 296.210022
-51.929089 110.844719 298.814392
-51.929089 111.331642 298.814392
-51.929089 111.818558 298.814392
-51.704021 111.818718 297.519287
-51.419163 111.684799 295.880127
-51.419163 112.166931 295.880127
-51.421768 112.654762 295.895111
-51.449917 113.198860 296.057098
-51.449917 113.681274 296.057098
-51.449917 114.163704 296.057098
-72.520302 73.891434 421.250000
-72.520302 74.577858 421.250000
-72.520302 75.264275 421.250000
-72.427055 75.853035 420.708344
-72.167389 76.264168 419.200012
-72.167389 76.947250 419.200012
-71.880455 77.321686 417.533325
-71.708305 77.815231 416.533325
-71.708305 78.493965 416.533325
-71.524673 78.969963 415.466675
-71.362717 79.466614 414.525940
-71.362717 80.142075 414.525940
-71.315399 80.763947 414.251038
-71.298180 81.419304 414.151031
-71.298180 82.094162 414.151031
-66.642647 77.995255 387.108337
-66.642647 78.626045 387.108337
-66.642647 79.256836 387.108337
-64.844345 77.731911 376.662506
-64.844345 78.345673 376.662506
-50.958862 71.215836 296.005676
-50.958862 71.698166 296.005676
-50.958862 72.180511 296.005676
-51.130039 72.906929 297.000000
-51.130039 73.390892 297.000000
-51.130039 73.874847 297.000000
-51.130039 74.358803 297.000000
-50.957886 74.590767 296.000000
-50.957886 75.073090 296.000000
-50.957886 75.555420 296.000000
-50.785728 75.780869 295.000000
-50.785728 76.261566 295.000000
-50.785728 76.742264 295.000000
-50.613575 76.961189 294.000000
-50.613575 77.440262 294.000000
-50.613575 77.919327 294.000000
-50.613575 78.398399 294.000000
-50.613575 78.877464 294.000000
-50.613575 79.356537 294.000000
-50.441422 79.564056 293.000000
-50.441422 80.041496 293.000000
-50.441422 80.518936 293.000000
-50.269268 80.719940 292.000000
-50.269268 81.195747 292.000000
-50.269268 81.671562 292.000000
-50.269268 82.147369 292.000000
-50.269268 82.623184 292.000000
-50.269268 83.098991 292.000000
-50.097111 83.288582 291.000000
-50.097111 83.762764 291.000000
-50.097111 84.236946 291.000000
-50.097111 84.711128 291.000000
-50.097111 85.185310 291.000000
-50.097111 85.659492 291.000000
-50.097111 86.133667 291.000000
-49.924957 86.310226 290.000000
-49.924957 86.782776 290.000000
-50.036350 87.450020 290.647064
-50.036350 87.923622 290.647064
-50.036350 88.397232 290.647064
-50.017223 88.836861 290.535950
-49.999104 89.277931 290.430695
-49.999104 89.751183 290.430695
-49.924957 90.090637 290.000000
-49.924957 90.563187 290.000000
-49.924957 91.035744 290.000000
-49.924957 91.508293 290.000000
-49.924957 91.980843 290.000000
-49.924957 92.453392 290.000000
-50.097111 93.246384 291.000000
-50.097111 93.720566 291.000000
-50.097111 94.194748 291.000000
-50.097111 94.668922 291.000000
-50.097111 95.143105 291.000000
-50.097111 95.617287 291.000000
-50.097111 96.091469 291.000000
-50.097111 96.565651 291.000000
-50.097111 97.039833 291.000000
-50.097111 97.514008 291.000000
-50.269268 98.324921 292.000000
-50.269268 98.800735 292.000000
-50.613575 99.956512 294.000000
-50.613575 100.435585 294.000000
-50.613575 100.914658 294.000000
-50.613575 101.393723 294.000000
-51.485348 103.627457 299.063873
-51.485348 104.114777 299.063873
-51.485348 104.602097 299.063873
-51.481907 105.082390 299.043884
-50.889236 104.354347 295.601227
-50.889236 104.836021 295.601227
-50.827675 105.190300 295.243652
-51.042839 106.118721 296.493469
-51.042839 106.601852 296.493469
-51.042839 107.084984 296.493469
-51.049679 107.582535 296.533203
-51.049679 108.065727 296.533203
-51.049679 108.548927 296.533203
-50.994045 108.913292 296.210022
-50.994045 109.395966 296.210022
-51.032089 109.960617 296.431030
-51.032089 110.443649 296.431030
-51.032089 110.926674 296.431030
-50.986767 111.310768 296.167755
-50.937252 111.684799 295.880127
-50.937252 112.166931 295.880127
-50.939827 112.654762 295.895111
-50.967716 113.198860 296.057098
-50.967716 113.681274 296.057098
-50.967716 114.163704 296.057098
-71.484619 75.581085 419.200012
-71.484619 76.264168 419.200012
-71.484619 76.947250 419.200012
-71.200409 77.321686 417.533325
-71.029877 77.815231 416.533325
-71.029877 78.493965 416.533325
-70.847984 78.969963 415.466675
-70.687569 79.466614 414.525940
-70.687569 80.142075 414.525940
-70.640694 80.763947 414.251038
-70.623634 81.419304 414.151031
-70.623634 82.094162 414.151031
-69.873138 81.889458 409.750000
-69.709717 82.364052 408.791656
-66.012146 78.626045 387.108337
-66.012146 79.256836 387.108337
-64.230858 77.731911 376.662506
-64.230858 78.345673 376.662506
-50.473423 71.693443 295.986176
-50.473423 72.175758 295.986176
-50.646305 72.906929 297.000000
-50.646305 73.390892 297.000000
-50.646305 73.874847 297.000000
-50.646305 74.358803 297.000000
-50.475780 74.590767 296.000000
-50.475780 75.073090 296.000000
-50.475780 75.555420 296.000000
-50.305252 75.780869 295.000000
-50.305252 76.261566 295.000000
-50.305252 76.742264 295.000000
-50.305252 77.222969 295.000000
-50.305252 77.703667 295.000000
-50.134727 77.919327 294.000000
-50.134727 78.398399 294.000000
-50.134727 78.877464 294.000000
-49.964199 79.086617 293.000000
-49.964199 79.564056 293.000000
-49.964199 80.041496 293.000000
-49.964199 80.518936 293.000000
-49.793674 80.719940 292.000000
-49.793674 81.195747 292.000000
-49.793674 81.671562 292.000000
-49.793674 82.147369 292.000000
-49.793674 82.623184 292.000000
-49.793674 83.098991 292.000000
-49.623146 83.288582 291.000000
-49.623146 83.762764 291.000000
-49.623146 84.236946 291.000000
-49.623146 84.711128 291.000000
-49.623146 85.185310 291.000000
-49.623146 85.659492 291.000000
-49.623146 86.133667 291.000000
-49.452621 86.310226 290.000000
-49.452621 86.782776 290.000000
-49.562962 87.450020 290.647064
-49.562962 87.923622 290.647064
-49.562962 88.397232 290.647064
-49.544014 88.836861 290.535950
-49.526066 89.277931 290.430695
-49.526066 89.751183 290.430695
-49.452621 90.090637 290.000000
-49.452621 90.563187 290.000000
-49.452621 91.035744 290.000000
-49.452621 91.508293 290.000000
-49.452621 91.980843 290.000000
-49.452621 92.453392 290.000000
-49.452621 92.925949 290.000000
-49.452621 93.398499 290.000000
-49.452621 93.871048 290.000000
-49.452621 94.343597 290.000000
-49.623146 95.143105 291.000000
-49.623146 95.617287 291.000000
-49.623146 96.091469 291.000000
-49.623146 96.565651 291.000000
-49.623146 97.039833 291.000000
-49.623146 97.514008 291.000000
-49.623146 97.988190 291.000000
-49.623146 98.462372 291.000000
-49.793674 99.276543 292.000000
-50.134727 100.435585 294.000000
-50.134727 100.914658 294.000000
-50.134727 101.393723 294.000000
-50.998249 103.627457 299.063873
-50.998249 104.114777 299.063873
-50.998249 104.602097 299.063873
-50.994843 105.082390 299.043884
-50.407776 104.354347 295.601227
-50.407776 104.836021 295.601227
-50.452015 105.410118 295.860626
-50.536716 106.070007 296.357361
-50.536716 106.552917 296.357361
-50.547264 107.058159 296.419189
-50.566704 107.582535 296.533203
-50.566704 108.065727 296.533203
-50.566704 108.548927 296.533203
-50.511593 108.913292 296.210022
-50.511593 109.395966 296.210022
-50.549278 109.960617 296.431030
-50.549278 110.443649 296.431030
-50.549278 110.926674 296.431030
-50.504383 111.310768 296.167755
-50.455338 111.684799 295.880127
-50.455338 112.166931 295.880127
-50.457893 112.654762 295.895111
-50.485516 113.198860 296.057098
-50.485516 113.681274 296.057098
-50.485516 114.163704 296.057098
-50.399368 114.450493 295.551910
-50.399368 114.932083 295.551910
-70.801849 75.581085 419.200012
-70.801849 76.264168 419.200012
-70.801849 76.947250 419.200012
-70.520348 77.321686 417.533325
-70.351456 77.815231 416.533325
-70.351456 78.493965 416.533325
-70.171295 78.969963 415.466675
-70.012413 79.466614 414.525940
-70.012413 80.142075 414.525940
-69.965981 80.763947 414.251038
-69.949089 81.419304 414.151031
-69.949089 82.094162 414.151031
-69.205765 81.889458 409.750000
-69.043907 82.364052 408.791656
-65.381645 78.626045 387.108337
-65.381645 79.256836 387.108337
-50.000099 71.706017 296.038055
-50.000099 72.188400 296.038055
-50.162567 72.906929 297.000000
-50.162567 73.390892 297.000000
-50.162567 73.874847 297.000000
-50.162567 74.358803 297.000000
-49.993671 74.590767 296.000000
-49.993671 75.073090 296.000000
-49.993671 75.555420 296.000000
-49.824772 75.780869 295.000000
-49.824772 76.261566 295.000000
-49.824772 76.742264 295.000000
-49.824772 77.222969 295.000000
-49.824772 77.703667 295.000000
-49.655876 77.919327 294.000000
-49.655876 78.398399 294.000000
-49.655876 78.877464 294.000000
-49.486977 79.086617 293.000000
-49.486977 79.564056 293.000000
-49.486977 80.041496 293.000000
-49.486977 80.518936 293.000000
-49.318081 80.719940 292.000000
-49.318081 81.195747 292.000000
-49.318081 81.671562 292.000000
-49.318081 82.147369 292.000000
-49.318081 82.623184 292.000000
-49.318081 83.098991 292.000000
-49.149181 83.288582 291.000000
-49.149181 83.762764 291.000000
-49.149181 84.236946 291.000000
-49.149181 84.711128 291.000000
-49.149181 85.185310 291.000000
-49.149181 85.659492 291.000000
-49.149181 86.133667 291.000000
-48.980286 86.310226 290.000000
-48.980286 86.782776 290.000000
-49.100929 87.470253 290.714294
-49.100929 87.943970 290.714294
-49.100929 88.417679 290.714294
-49.078407 88.850624 290.580963
-49.057297 89.285698 290.455963
-49.057297 89.758995 290.455963
-49.037426 90.195740 290.338318
-49.028042 90.651489 290.282745
-49.028042 91.124504 290.282745
-49.019154 91.580910 290.230133
-48.980286 91.980843 290.000000
-48.980286 92.453392 290.000000
-48.980286 92.925949 290.000000
-48.980286 93.398499 290.000000
-48.980286 93.871048 290.000000
-48.980286 94.343597 290.000000
-48.980286 94.816154 290.000000
-48.980286 95.288704 290.000000
-48.980286 95.761253 290.000000
-48.980286 96.233803 290.000000
-48.980286 96.706360 290.000000
-48.980286 97.178909 290.000000
-49.149181 97.988190 291.000000
-49.149181 98.462372 291.000000
-49.318081 99.276543 292.000000
-49.318081 99.752350 292.000000
-49.318081 100.228165 292.000000
-49.318081 100.703972 292.000000
-50.511150 103.627457 299.063873
-50.511150 104.114777 299.063873
-50.511150 104.602097 299.063873
-50.507774 105.082390 299.043884
-49.926319 104.354347 295.601227
-49.926319 104.836021 295.601227
-49.970131 105.410118 295.860626
-49.974388 105.901245 295.885834
-49.974388 106.383385 295.885834
-49.991589 106.902298 295.987671
-50.004768 107.412926 296.065704
-50.004768 107.895363 296.065704
-50.004768 108.377800 296.065704
-49.932091 108.702019 295.635406
-49.932091 109.183746 295.635406
-49.932091 109.665482 295.635406
-49.972363 110.236053 295.873840
-49.972363 110.718178 295.873840
-49.972363 111.200302 295.873840
-49.918827 111.562775 295.556854
-49.918827 112.044380 295.556854
-49.944984 112.584946 295.711731
-49.944984 113.066803 295.711731
-49.944984 113.548660 295.711731
-49.917988 113.968895 295.551910
-49.917988 114.450493 295.551910
-49.917988 114.932083 295.551910
-49.792778 115.124184 294.810547
-68.538383 80.554092 409.750000
-68.538383 81.221771 409.750000
-68.538383 81.889458 409.750000
-68.378090 82.364052 408.791656
-49.517929 71.706017 296.038055
-49.517929 72.188400 296.038055
-49.678833 72.906929 297.000000
-49.678833 73.390892 297.000000
-49.678833 73.874847 297.000000
-49.678833 74.358803 297.000000
-49.678833 74.842758 297.000000
-49.678833 75.326721 297.000000
-49.511566 75.555420 296.000000
-49.344296 75.780869 295.000000
-49.344296 76.261566 295.000000
-49.344296 76.742264 295.000000
-49.344296 77.222969 295.000000
-49.344296 77.703667 295.000000
-49.177025 77.919327 294.000000
-49.177025 78.398399 294.000000
-49.177025 78.877464 294.000000
-49.009758 79.086617 293.000000
-49.009758 79.564056 293.000000
-49.009758 80.041496 293.000000
-49.009758 80.518936 293.000000
-48.842487 80.719940 292.000000
-48.842487 81.195747 292.000000
-48.842487 81.671562 292.000000
-48.842487 82.147369 292.000000
-48.842487 82.623184 292.000000
-48.842487 83.098991 292.000000
-48.675217 83.288582 291.000000
-48.675217 83.762764 291.000000
-48.675217 84.236946 291.000000
-48.675217 84.711128 291.000000
-48.675217 85.185310 291.000000
-48.675217 85.659492 291.000000
-48.507950 85.837677 290.000000
-48.507950 86.310226 290.000000
-48.507950 86.782776 290.000000
-48.675217 87.556213 291.000000
-48.675217 88.030396 291.000000
-48.675217 88.504578 291.000000
-48.644806 88.923157 290.818176
-48.616932 89.345810 290.651520
-48.616932 89.819427 290.651520
-48.591198 90.245247 290.497681
-48.579247 90.696297 290.426239
-48.579247 91.169540 290.426239
-48.568100 91.621758 290.359589
-48.557644 92.075073 290.297089
-48.557644 92.548111 290.297089
-48.547806 93.002289 290.238251
-48.556610 93.492188 290.290894
-48.556610 93.965210 290.290894
-48.556610 94.438240 290.290894
-48.507950 94.816154 290.000000
-48.507950 95.288704 290.000000
-48.507950 95.761253 290.000000
-48.507950 96.233803 290.000000
-48.507950 96.706360 290.000000
-48.507950 97.178909 290.000000
-48.507950 97.651459 290.000000
-48.507950 98.124008 290.000000
-48.842487 99.276543 292.000000
-48.842487 99.752350 292.000000
-48.842487 100.228165 292.000000
-48.842487 100.703972 292.000000
-48.842487 101.179787 292.000000
-50.020710 104.107819 299.043884
-50.020710 104.595108 299.043884
-50.020710 105.082390 299.043884
-49.444862 104.354347 295.601227
-49.444862 104.836021 295.601227
-49.488251 105.410118 295.860626
-49.492470 105.901245 295.885834
-49.492470 106.383385 295.885834
-49.509499 106.902298 295.987671
-49.522556 107.412926 296.065704
-49.522556 107.895363 296.065704
-49.522556 108.377800 296.065704
-49.450581 108.702019 295.635406
-49.450581 109.183746 295.635406
-49.450581 109.665482 295.635406
-49.490459 110.236053 295.873840
-49.490459 110.718178 295.873840
-49.490459 111.200302 295.873840
-49.437439 111.562775 295.556854
-49.437439 112.044380 295.556854
-49.463345 112.584946 295.711731
-49.463345 113.066803 295.711731
-49.463345 113.548660 295.711731
-49.436615 113.968895 295.551910
-49.436615 114.450493 295.551910
-49.436615 114.932083 295.551910
-49.312607 115.124184 294.810547
-49.035759 71.706017 296.038055
-49.035759 72.188400 296.038055
-49.195095 72.906929 297.000000
-49.195095 73.390892 297.000000
-49.195095 73.874847 297.000000
-49.195095 74.358803 297.000000
-49.195095 74.842758 297.000000
-49.195095 75.326721 297.000000
-49.029457 75.555420 296.000000
-48.863815 75.780869 295.000000
-48.863815 76.261566 295.000000
-48.863815 76.742264 295.000000
-48.863815 77.222969 295.000000
-48.863815 77.703667 295.000000
-48.698177 77.919327 294.000000
-48.698177 78.398399 294.000000
-48.698177 78.877464 294.000000
-48.532536 79.086617 293.000000
-48.532536 79.564056 293.000000
-48.532536 80.041496 293.000000
-48.532536 80.518936 293.000000
-48.366898 80.719940 292.000000
-48.366898 81.195747 292.000000
-48.366898 81.671562 292.000000
-48.366898 82.147369 292.000000
-48.366898 82.623184 292.000000
-48.366898 83.098991 292.000000
-48.201256 83.288582 291.000000
-48.201256 83.762764 291.000000
-48.201256 84.236946 291.000000
-48.201256 84.711128 291.000000
-48.201256 85.185310 291.000000
-48.201256 85.659492 291.000000
-48.035618 85.837677 290.000000
-48.035618 86.310226 290.000000
-48.035618 86.782776 290.000000
-48.201256 87.556213 291.000000
-48.201256 88.030396 291.000000
-48.201256 88.504578 291.000000
-48.171139 88.923157 290.818176
-48.143532 89.345810 290.651520
-48.143532 89.819427 290.651520
-48.118053 90.245247 290.497681
-48.106216 90.696297 290.426239
-48.106216 91.169540 290.426239
-48.095181 91.621758 290.359589
-48.084824 92.075073 290.297089
-48.084824 92.548111 290.297089
-48.075081 93.002289 290.238251
-48.083801 93.492188 290.290894
-48.083801 93.965210 290.290894
-48.083801 94.438240 290.290894
-48.035618 94.816154 290.000000
-48.035618 95.288704 290.000000
-48.035618 95.761253 290.000000
-48.035618 96.233803 290.000000
-48.035618 96.706360 290.000000
-48.035618 97.178909 290.000000
-48.035618 97.651459 290.000000
-48.035618 98.124008 290.000000
-48.201256 98.936554 291.000000
-48.366898 99.752350 292.000000
-48.366898 100.228165 292.000000
-48.366898 100.703972 292.000000
-48.366898 101.179787 292.000000
-48.366898 101.655594 292.000000
-48.366898 102.131401 292.000000
-48.532536 102.958603 293.000000
-48.532536 103.436043 293.000000
-48.532536 103.913483 293.000000
-48.698177 104.747208 294.000000
-48.698177 105.226280 294.000000
-48.698177 105.705345 294.000000
-48.863815 106.545593 295.000000
-48.932087 107.175827 295.412170
-48.932087 107.657196 295.412170
-48.932087 108.138557 295.412170
-48.969067 108.702019 295.635406
-48.969067 109.183746 295.635406
-48.997429 109.729004 295.806641
-48.997429 110.211014 295.806641
-48.997429 110.693024 295.806641
-48.826996 110.788338 294.777710
-48.767715 111.133583 294.419830
-48.767715 111.613342 294.419830
-48.797363 112.161232 294.598816
-48.807285 112.664185 294.658722
-48.807285 113.144318 294.658722
-48.820633 113.655533 294.739288
-48.839310 114.179474 294.852051
-48.839310 114.659935 294.852051
-48.839310 115.140388 294.852051
-48.823334 115.583023 294.755585
-48.823334 116.063316 294.755585
-48.822628 116.541939 294.751343
-48.711361 72.906929 297.000000
-48.711361 73.390892 297.000000
-48.711361 73.874847 297.000000
-48.711361 74.358803 297.000000
-48.711361 74.842758 297.000000
-48.711361 75.326721 297.000000
-48.547348 75.555420 296.000000
-48.547348 76.037750 296.000000
-48.547348 76.520081 296.000000
-48.383335 76.742264 295.000000
-48.383335 77.222969 295.000000
-48.383335 77.703667 295.000000
-48.219326 77.919327 294.000000
-48.219326 78.398399 294.000000
-48.219326 78.877464 294.000000
-48.055313 79.086617 293.000000
-48.055313 79.564056 293.000000
-48.055313 80.041496 293.000000
-48.055313 80.518936 293.000000
-47.891304 80.719940 292.000000
-47.891304 81.195747 292.000000
-47.891304 81.671562 292.000000
-47.891304 82.147369 292.000000
-47.891304 82.623184 292.000000
-47.891304 83.098991 292.000000
-47.727291 83.288582 291.000000
-47.727291 83.762764 291.000000
-47.727291 84.236946 291.000000
-47.727291 84.711128 291.000000
-47.727291 85.185310 291.000000
-47.727291 85.659492 291.000000
-47.563282 85.837677 290.000000
-47.563282 86.310226 290.000000
-47.563282 86.782776 290.000000
-47.727291 87.556213 291.000000
-47.727291 88.030396 291.000000
-47.727291 88.504578 291.000000
-47.710888 88.948174 290.899994
-47.692852 89.388390 290.790009
-47.692852 89.862221 290.790009
-47.673004 90.298477 290.669006
-47.667576 90.761772 290.635895
-47.667576 91.235359 290.635895
-47.661602 91.697456 290.599487
-47.655037 92.158287 290.559448
-47.655037 92.631752 290.559448
-47.647812 93.091095 290.515381
-47.647812 93.564484 290.515381
-47.647812 94.037872 290.515381
-47.647812 94.511269 290.515381
-47.647812 94.984657 290.515381
-47.647812 95.458046 290.515381
-47.694065 96.024574 290.797424
-47.700848 96.512146 290.838776
-47.700848 96.986061 290.838776
-47.721703 97.502586 290.965912
-47.764500 98.064583 291.226868
-47.764500 98.539139 291.226868
-47.826702 99.142616 291.606110
-47.826702 99.617790 291.606110
-47.826702 100.092957 291.606110
-47.727291 100.359093 291.000000
-47.727291 100.833275 291.000000
-47.891304 101.655594 292.000000
-47.891304 102.131401 292.000000
-47.891304 102.607216 292.000000
-47.891304 103.083023 292.000000
-47.891304 103.558838 292.000000
-48.219326 104.747208 294.000000
-48.219326 105.226280 294.000000
-48.219326 105.705345 294.000000
-48.219326 106.184418 294.000000
-48.383335 107.026283 295.000000
-48.383335 107.506981 295.000000
-48.383335 107.987679 295.000000
-48.533497 108.805008 295.915527
-48.533497 109.287209 295.915527
-48.615322 109.954460 296.414429
-48.615322 110.437462 296.414429
-48.615322 110.920464 296.414429
-48.463081 111.054619 295.486206
-48.387375 111.361877 295.024628
-48.387375 111.842613 295.024628
-48.626240 112.877838 296.481018
-48.683338 113.494049 296.829132
-48.683338 113.977730 296.829132
-48.729733 114.570503 297.112030
-48.780777 115.175156 297.423248
-48.780777 115.659805 297.423248
-48.820518 116.239075 297.665558
-48.820518 116.724113 297.665558
-48.820518 117.209152 297.665558
-48.599773 117.162041 296.319641
-48.599773 117.644890 296.319641
-48.599773 118.127739 296.319641
-48.227623 72.906929 297.000000
-48.227623 73.390892 297.000000
-48.227623 73.874847 297.000000
-48.227623 74.358803 297.000000
-48.227623 74.842758 297.000000
-48.227623 75.326721 297.000000
-48.065243 75.555420 296.000000
-48.065243 76.037750 296.000000
-48.065243 76.520081 296.000000
-47.902859 76.742264 295.000000
-47.902859 77.222969 295.000000
-47.902859 77.703667 295.000000
-47.740475 77.919327 294.000000
-47.740475 78.398399 294.000000
-47.740475 78.877464 294.000000
-47.578091 79.086617 293.000000
-47.578091 79.564056 293.000000
-47.578091 80.041496 293.000000
-47.578091 80.518936 293.000000
-47.415710 80.719940 292.000000
-47.415710 81.195747 292.000000
-47.415710 81.671562 292.000000
-47.415710 82.147369 292.000000
-47.415710 82.623184 292.000000
-47.415710 83.098991 292.000000
-47.253326 83.288582 291.000000
-47.253326 83.762764 291.000000
-47.253326 84.236946 291.000000
-47.253326 84.711128 291.000000
-47.253326 85.185310 291.000000
-47.253326 85.659492 291.000000
-47.090946 85.837677 290.000000
-47.090946 86.310226 290.000000
-47.090946 86.782776 290.000000
-47.269566 87.586304 291.100006
-47.269566 88.060646 291.100006
-47.269566 88.534988 291.100006
-47.254951 88.981819 291.010010
-47.238880 89.425575 290.911011
-47.238880 89.899612 290.911011
-47.221191 90.339813 290.802094
-47.194202 90.761772 290.635895
-47.194202 91.235359 290.635895
-47.188293 91.697456 290.599487
-47.187313 92.169067 290.593445
-47.187313 92.642586 290.593445
-47.191082 93.123550 290.616669
-47.201092 93.616959 290.678314
-47.201092 94.090614 290.678314
-47.201092 94.564278 290.678314
-47.208839 95.053520 290.726013
-47.208839 95.527260 290.726013
-47.220432 96.024574 290.797424
-47.227150 96.512146 290.838776
-47.227150 96.986061 290.838776
-47.247791 97.502586 290.965912
-47.290169 98.064583 291.226868
-47.290169 98.539139 291.226868
-47.351749 99.142616 291.606110
-47.370720 99.657700 291.722931
-47.370720 100.133057 291.722931
-47.417912 100.708649 292.013550
-47.417912 101.184479 292.013550
-47.417912 101.660309 292.013550
-47.415710 102.131401 292.000000
-47.415710 102.607216 292.000000
-47.415710 103.083023 292.000000
-47.415710 103.558838 292.000000
-47.740475 104.747208 294.000000
-47.740475 105.226280 294.000000
-47.740475 105.705345 294.000000
-47.740475 106.184418 294.000000
-47.902859 107.026283 295.000000
-47.902859 107.506981 295.000000
-47.902859 107.987679 295.000000
-48.051525 108.805008 295.915527
-48.051525 109.287209 295.915527
-48.132534 109.954460 296.414429
-48.132534 110.437462 296.414429
-48.132534 110.920464 296.414429
-47.981812 111.054619 295.486206
-47.906857 111.361877 295.024628
-47.906857 111.842613 295.024628
-48.143353 112.877838 296.481018
-48.199879 113.494049 296.829132
-48.199879 113.977730 296.829132
-48.245815 114.570503 297.112030
-48.296352 115.175156 297.423248
-48.296352 115.659805 297.423248
-48.335697 116.239075 297.665558
-48.335697 116.724113 297.665558
-48.335697 117.209152 297.665558
-48.117146 117.162041 296.319641
-48.117146 117.644890 296.319641
-48.117146 118.127739 296.319641
-47.574673 72.648529 295.947357
-47.743885 73.390892 297.000000
-47.743885 73.874847 297.000000
-47.743885 74.358803 297.000000
-47.743885 74.842758 297.000000
-47.743885 75.326721 297.000000
-47.583134 75.555420 296.000000
-47.583134 76.037750 296.000000
-47.583134 76.520081 296.000000
-47.422379 76.742264 295.000000
-47.422379 77.222969 295.000000
-47.422379 77.703667 295.000000
-47.261627 77.919327 294.000000
-47.261627 78.398399 294.000000
-47.261627 78.877464 294.000000
-47.100872 79.086617 293.000000
-47.100872 79.564056 293.000000
-47.100872 80.041496 293.000000
-47.100872 80.518936 293.000000
-46.940117 80.719940 292.000000
-46.940117 81.195747 292.000000
-46.940117 81.671562 292.000000
-46.940117 82.147369 292.000000
-46.940117 82.623184 292.000000
-46.940117 83.098991 292.000000
-46.940117 83.574806 292.000000
-46.940117 84.050613 292.000000
-46.779362 84.236946 291.000000
-46.779362 84.711128 291.000000
-46.779362 85.185310 291.000000
-46.779362 85.659492 291.000000
-46.618610 85.837677 290.000000
-46.618610 86.310226 290.000000
-46.618610 86.782776 290.000000
-46.795441 87.586304 291.100006
-46.795441 88.060646 291.100006
-46.795441 88.534988 291.100006
-46.780972 88.981819 291.010010
-46.765057 89.425575 290.911011
-46.765057 89.899612 290.911011
-46.747551 90.339813 290.802094
-46.720833 90.761772 290.635895
-46.720833 91.235359 290.635895
-46.714981 91.697456 290.599487
-46.714008 92.169067 290.593445
-46.714008 92.642586 290.593445
-46.717743 93.123550 290.616669
-46.727654 93.616959 290.678314
-46.727654 94.090614 290.678314
-46.727654 94.564278 290.678314
-46.735321 95.053520 290.726013
-46.735321 95.527260 290.726013
-46.746799 96.024574 290.797424
-46.753445 96.512146 290.838776
-46.753445 96.986061 290.838776
-46.773884 97.502586 290.965912
-46.815834 98.064583 291.226868
-46.815834 98.539139 291.226868
-46.876797 99.142616 291.606110
-46.895580 99.657700 291.722931
-46.895580 100.133057 291.722931
-46.942299 100.708649 292.013550
-46.942299 101.184479 292.013550
-46.942299 101.660309 292.013550
-46.779362 101.781639 291.000000
-46.940117 102.607216 292.000000
-46.940117 103.083023 292.000000
-46.940117 103.558838 292.000000
-47.100872 104.390923 293.000000
-47.261627 105.226280 294.000000
-47.261627 105.705345 294.000000
-47.261627 106.184418 294.000000
-47.422379 107.026283 295.000000
-47.422379 107.506981 295.000000
-47.422379 107.987679 295.000000
-47.569553 108.805008 295.915527
-47.569553 109.287209 295.915527
-47.649754 109.954460 296.414429
-47.649754 110.437462 296.414429
-47.649754 110.920464 296.414429
-47.554146 111.179932 295.819672
-47.510189 111.558762 295.546234
-47.510189 112.040352 295.546234
-47.660458 112.877838 296.481018
-47.919472 113.977013 298.092255
-47.919472 114.462753 298.092255
-48.017406 115.183411 298.701477
-48.092983 115.852211 299.171631
-48.092983 116.339706 299.171631
-48.176121 117.029144 299.688782
-48.267574 117.740570 300.257690
-48.267574 118.229836 300.257690
-48.267574 118.719101 300.257690
-48.038418 118.642418 298.832184
-47.898430 118.782204 297.961365
-47.898430 119.267731 297.961365
-47.898430 119.753250 297.961365
-47.100071 72.659981 295.993988
-47.260151 73.390892 297.000000
-47.260151 73.874847 297.000000
-47.260151 74.358803 297.000000
-47.260151 74.842758 297.000000
-47.260151 75.326721 297.000000
-47.101028 75.555420 296.000000
-47.101028 76.037750 296.000000
-47.101028 76.520081 296.000000
-47.101028 77.002403 296.000000
-46.941898 77.222969 295.000000
-46.941898 77.703667 295.000000
-46.782776 77.919327 294.000000
-46.782776 78.398399 294.000000
-46.782776 78.877464 294.000000
-46.782776 79.356537 294.000000
-46.623650 79.564056 293.000000
-46.623650 80.041496 293.000000
-46.623650 80.518936 293.000000
-46.623650 80.996376 293.000000
-46.623650 81.473816 293.000000
-46.464527 81.671562 292.000000
-46.464527 82.147369 292.000000
-46.464527 82.623184 292.000000
-46.464527 83.098991 292.000000
-46.464527 83.574806 292.000000
-46.464527 84.050613 292.000000
-46.305401 84.236946 291.000000
-46.305401 84.711128 291.000000
-46.305401 85.185310 291.000000
-46.305401 85.659492 291.000000
-46.146275 85.837677 290.000000
-46.146275 86.310226 290.000000
-46.146275 86.782776 290.000000
-46.321316 87.586304 291.100006
-46.321316 88.060646 291.100006
-46.321316 88.534988 291.100006
-46.306992 88.981819 291.010010
-46.291241 89.425575 290.911011
-46.291241 89.899612 290.911011
-46.273911 90.339813 290.802094
-46.243088 90.753181 290.608398
-46.243088 91.226730 290.608398
-46.240707 91.695549 290.593445
-46.240707 92.169067 290.593445
-46.240707 92.642586 290.593445
-46.249729 93.134277 290.650146
-46.255814 93.620201 290.688385
-46.255814 94.093872 290.688385
-46.258976 94.574013 290.708252
-46.261803 95.053520 290.726013
-46.261803 95.527260 290.726013
-46.269669 96.017319 290.775452
-46.269669 96.491135 290.775452
-46.269669 96.964951 290.775452
-46.283859 97.468643 290.864624
-46.315727 98.010048 291.064911
-46.315727 98.484329 291.064911
-46.379826 99.095566 291.467712
-46.420437 99.657700 291.722931
-46.420437 100.133057 291.722931
-46.466682 100.708649 292.013550
-46.644577 101.571854 293.131500
-46.644577 102.049507 293.131500
-46.644577 102.527161 293.131500
-46.305401 102.255821 291.000000
-46.305401 102.729996 291.000000
-46.305401 103.204178 291.000000
-46.464527 104.034645 292.000000
-46.464527 104.510452 292.000000
-46.464527 104.986267 292.000000
-46.782776 106.184418 294.000000
-46.782776 106.663483 294.000000
-46.782776 107.142563 294.000000
-46.782776 107.621628 294.000000
-49.647026 114.719109 312.000000
-49.647026 115.227509 312.000000
-49.647026 115.735909 312.000000
-49.647026 116.244308 312.000000
-49.647026 116.752708 312.000000
-47.072330 111.179932 295.819672
-47.028820 111.558762 295.546234
-47.028820 112.040352 295.546234
-47.162090 112.840805 296.383759
-47.433956 113.977013 298.092255
-47.433956 114.462753 298.092255
-47.530899 115.183411 298.701477
-47.605709 115.852211 299.171631
-47.605709 116.339706 299.171631
-47.688004 117.029144 299.688782
-47.778534 117.740570 300.257690
-47.778534 118.229836 300.257690
-47.778534 118.719101 300.257690
-47.551697 118.642418 298.832184
-47.413128 118.782204 297.961365
-47.413128 119.267731 297.961365
-47.469070 119.894547 298.312927
-47.469070 120.380646 298.312927
-47.469070 120.866737 298.312927
-46.617973 72.659981 295.993988
-46.776413 73.390892 297.000000
-46.776413 73.874847 297.000000
-46.776413 74.358803 297.000000
-46.776413 74.842758 297.000000
-46.776413 75.326721 297.000000
-46.618919 75.555420 296.000000
-46.618919 76.037750 296.000000
-46.618919 76.520081 296.000000
-46.618919 77.002403 296.000000
-46.461422 77.222969 295.000000
-46.461422 77.703667 295.000000
-46.303928 77.919327 294.000000
-46.303928 78.398399 294.000000
-46.303928 78.877464 294.000000
-46.303928 79.356537 294.000000
-46.146427 79.564056 293.000000
-46.146427 80.041496 293.000000
-46.146427 80.518936 293.000000
-46.146427 80.996376 293.000000
-46.146427 81.473816 293.000000
-45.988934 81.671562 292.000000
-45.988934 82.147369 292.000000
-45.988934 82.623184 292.000000
-45.988934 83.098991 292.000000
-45.988934 83.574806 292.000000
-45.988934 84.050613 292.000000
-45.831436 84.236946 291.000000
-45.831436 84.711128 291.000000
-45.831436 85.185310 291.000000
-45.831436 85.659492 291.000000
-45.673943 85.837677 290.000000
-45.673943 86.310226 290.000000
-45.673943 86.782776 290.000000
-45.847187 87.586304 291.100006
-45.847187 88.060646 291.100006
-45.847187 88.534988 291.100006
-45.833012 88.981819 291.010010
-45.817421 89.425575 290.911011
-45.817421 89.899612 290.911011
-45.763145 90.266602 290.566406
-45.756947 90.727783 290.527039
-45.756947 91.201195 290.527039
-45.753151 91.666992 290.502930
-45.756042 92.146187 290.521301
-45.756042 92.619591 290.521301
-45.776337 93.134277 290.650146
-45.782360 93.620201 290.688385
-45.782360 94.093872 290.688385
-45.785488 94.574013 290.708252
-45.785488 95.047714 290.708252
-45.785488 95.521423 290.708252
-45.783058 95.990036 290.692841
-45.783119 96.463844 290.693207
-45.783119 96.937523 290.693207
-45.792328 97.430801 290.751678
-45.818157 97.959793 290.915680
-45.818157 98.433846 290.915680
-45.871742 99.023567 291.255920
-45.903252 99.566505 291.455994
-45.903252 100.041435 291.455994
-45.932838 100.581139 291.643829
-46.167141 101.571854 293.131500
-46.167141 102.049507 293.131500
-46.167141 102.527161 293.131500
-45.673943 101.904419 290.000000
-45.831436 102.729996 291.000000
-45.831436 103.204178 291.000000
-45.831436 103.678360 291.000000
-45.831436 104.152542 291.000000
-45.831436 104.626724 291.000000
-46.303928 106.184418 294.000000
-46.303928 106.663483 294.000000
-46.303928 107.142563 294.000000
-46.303928 107.621628 294.000000
-49.138859 114.719109 312.000000
-49.138859 115.227509 312.000000
-49.138859 115.735909 312.000000
-49.138859 116.244308 312.000000
-49.138859 116.752708 312.000000
-46.590519 111.179932 295.819672
-46.547451 111.558762 295.546234
-46.547451 112.040352 295.546234
-46.679359 112.840805 296.383759
-46.948441 113.977013 298.092255
-46.948441 114.462753 298.092255
-47.044392 115.183411 298.701477
-47.207928 116.072227 299.739807
-47.207928 116.560654 299.739807
-47.329823 117.351311 300.513794
-47.448162 118.135628 301.265167
-47.448162 118.626541 301.265167
-47.448162 119.117447 301.265167
-47.294846 119.221863 300.291687
-47.126194 119.284302 299.220856
-47.126194 119.771881 299.220856
-46.983196 119.894547 298.312927
-46.983196 120.380646 298.312927
-46.983196 120.866737 298.312927
-46.135872 72.659981 295.993988
-46.135872 73.142296 295.993988
-46.135872 73.624619 295.993988
-46.292679 74.358803 297.000000
-46.292679 74.842758 297.000000
-46.292679 75.326721 297.000000
-46.292679 75.810677 297.000000
-46.136810 76.037750 296.000000
-46.136810 76.520081 296.000000
-46.136810 77.002403 296.000000
-45.980942 77.222969 295.000000
-45.980942 77.703667 295.000000
-45.980942 78.184364 295.000000
-45.825077 78.398399 294.000000
-45.825077 78.877464 294.000000
-45.825077 79.356537 294.000000
-45.669209 79.564056 293.000000
-45.669209 80.041496 293.000000
-45.669209 80.518936 293.000000
-45.669209 80.996376 293.000000
-45.669209 81.473816 293.000000
-45.513340 81.671562 292.000000
-45.513340 82.147369 292.000000
-45.513340 82.623184 292.000000
-45.513340 83.098991 292.000000
-45.513340 83.574806 292.000000
-45.513340 84.050613 292.000000
-45.357471 84.236946 291.000000
-45.357471 84.711128 291.000000
-45.357471 85.185310 291.000000
-45.357471 85.659492 291.000000
-45.201607 85.837677 290.000000
-45.201607 86.310226 290.000000
-45.201607 86.782776 290.000000
-45.373058 87.586304 291.100006
-45.373058 88.060646 291.100006
-45.373058 88.534988 291.100006
-45.359035 88.981819 291.010010
-45.343601 89.425575 290.911011
-45.343601 89.899612 290.911011
-45.289890 90.266602 290.566406
-45.283752 90.727783 290.527039
-45.283752 91.201195 290.527039
-45.279995 91.666992 290.502930
-45.282860 92.146187 290.521301
-45.282860 92.619591 290.521301
-45.302940 93.134277 290.650146
-45.308903 93.620201 290.688385
-45.308903 94.093872 290.688385
-45.311996 94.574013 290.708252
-45.311996 95.047714 290.708252
-45.311996 95.521423 290.708252
-45.309597 95.990036 290.692841
-45.309654 96.463844 290.693207
-45.309654 96.937523 290.693207
-45.318768 97.430801 290.751678
-45.344330 97.959793 290.915680
-45.344330 98.433846 290.915680
-45.397362 99.023567 291.255920
-45.428547 99.566505 291.455994
-45.428547 100.041435 291.455994
-45.457825 100.581139 291.643829
-45.689705 101.571854 293.131500
-45.689705 102.049507 293.131500
-45.689705 102.527161 293.131500
-45.201607 101.904419 290.000000
-45.357471 102.729996 291.000000
-45.357471 103.204178 291.000000
-45.357471 103.678360 291.000000
-45.357471 104.152542 291.000000
-45.357471 104.626724 291.000000
-45.513340 105.462074 292.000000
-45.513340 105.937889 292.000000
-45.513340 106.413696 292.000000
-45.669209 107.255569 293.000000
-48.630692 114.719109 312.000000
-48.630692 115.227509 312.000000
-48.630692 115.735909 312.000000
