-26.866346 97.964348 290.929199
-26.866346 98.438416 290.929199
-26.873695 98.939529 291.008759
-26.873695 99.413727 291.008759
-26.873695 99.887917 291.008759
-26.873205 100.360291 291.003479
-26.872290 100.831039 290.993561
-26.872595 101.306358 290.996857
-26.872595 101.780533 290.996857
-26.872673 102.255020 290.997711
-26.873095 102.730797 291.002258
-26.873095 103.204979 291.002258
-26.873095 103.679161 291.002258
-26.871811 104.148376 290.988373
-26.871811 104.622543 290.988373
-26.871792 105.096626 290.988159
-26.873476 105.577408 291.006409
-26.873476 106.051598 291.006409
-26.876673 106.538460 291.041016
-26.876673 107.012711 291.041016
-26.876673 107.486954 291.041016
-26.875849 107.957893 291.032104
-26.875700 108.431511 291.030457
-26.875700 108.905746 291.030457
-26.875439 109.378922 291.027649
-26.875614 109.853867 291.029541
-26.875614 110.328094 291.029541
-26.875614 110.802315 291.029541
-26.877241 111.283295 291.047180
-26.877241 111.757553 291.047180
-26.881966 112.251526 291.098328
-26.886129 112.743340 291.143433
-26.886129 113.217751 291.143433
-26.888720 113.703117 291.171478
-26.891506 114.189407 291.201630
-26.891506 114.663918 291.201630
-26.891506 115.138420 291.201630
-26.886353 115.590782 291.145844
-26.886837 133.621078 291.151062
-26.886837 134.095505 291.151062
-26.886837 134.569946 291.151062
-26.884424 135.032257 291.124969
-26.884424 135.506638 291.124969
-26.874493 135.930786 291.017426
-26.874882 136.406952 291.021606
-26.874882 136.881180 291.021606
-26.888515 137.425079 291.169250
-26.905153 137.984879 291.349426
-26.905153 138.459610 291.349426
-26.925522 139.039551 291.569977
-26.925522 139.514664 291.569977
-26.925522 139.989761 291.569977
-26.902582 140.345215 291.321594
-26.894421 140.777176 291.233185
-26.894421 141.251740 291.233185
-26.895880 141.733994 291.248993
-26.896708 142.212967 291.257965
-26.896708 142.687561 291.257965
-26.898466 143.171524 291.277008
-26.898466 143.646164 291.277008
-26.900646 144.132462 291.300598
-26.900646 144.607132 291.300598
-26.900646 145.081802 291.300598
-26.898905 145.547073 291.281769
-26.898905 146.021713 291.281769
-26.898474 146.493988 291.277100
-26.897497 146.963287 291.266510
-26.897497 147.437897 291.266510
-26.897308 147.911484 291.264465
-26.897856 148.389099 291.270386
-26.897856 148.863724 291.270386
-26.897856 149.338348 291.270386
-26.898203 149.814896 291.274139
-26.898203 150.289536 291.274139
-26.898203 150.764160 291.274139
-26.897888 152.186264 291.270752
-26.897888 152.660889 291.270752
-26.897888 153.135513 291.270752
-38.627701 64.282013 425.799988
-38.627701 64.975845 425.799988
-38.627701 65.669685 425.799988
-38.583633 66.287811 425.314270
-38.543251 66.910751 424.869141
-38.543251 67.603073 424.869141
-38.505505 68.228508 424.453033
-38.736561 69.333710 427.000000
-38.736561 70.029503 427.000000
-38.736561 70.725296 427.000000
-38.645844 71.253822 426.000000
-38.645844 71.947983 426.000000
-38.645844 72.642143 426.000000
-38.555126 73.164154 425.000000
-38.555126 73.856689 425.000000
-38.555126 74.549217 425.000000
-38.373688 74.887672 423.000000
-38.373688 75.576950 423.000000
-38.192253 75.905617 421.000000
-38.192253 76.591637 421.000000
-38.192253 77.277649 421.000000
-38.101536 77.778481 420.000000
-37.920101 78.089226 418.000000
-37.920101 78.770355 418.000000
-37.829380 79.261406 417.000000
-37.738663 79.749199 416.000000
-37.738663 80.427063 416.000000
-37.738663 81.104935 416.000000
-37.557228 81.389610 414.000000
-37.557228 82.064217 414.000000
-37.466511 82.538979 413.000000
-37.285076 82.808990 411.000000
-37.194355 83.275597 410.000000
-37.194355 83.943687 410.000000
-37.194355 84.611771 410.000000
-37.012920 84.863869 408.000000
-37.012920 85.528694 408.000000
-36.922203 85.982269 407.000000
-36.831482 86.432587 406.000000
-36.831482 87.094154 406.000000
-36.831482 87.755730 406.000000
-36.650047 87.981743 404.000000
-36.650047 88.640060 404.000000
-36.559330 89.077339 403.000000
-36.468613 89.511353 402.000000
-36.468613 90.166412 402.000000
-36.377895 90.595535 401.000000
-36.287178 91.021408 400.000000
-36.287178 91.673203 400.000000
-36.105743 91.863373 398.000000
-35.924305 92.047028 396.000000
-35.924305 92.692307 396.000000
-35.924305 93.337585 396.000000
-35.836014 93.751877 395.026733
-35.836014 94.395561 395.026733
-35.652149 94.551643 393.000000
-35.470715 94.707596 391.000000
-35.470715 95.344727 391.000000
-35.379997 95.736374 390.000000
-35.289280 96.124771 389.000000
-35.289280 96.758644 389.000000
-35.260456 97.312950 388.682251
-35.260456 97.946304 388.682251
-35.260456 98.579666 388.682251
-28.357307 85.901794 312.587646
-28.357307 86.411148 312.587646
-28.357307 86.920509 312.587646
-27.755346 85.573929 305.952118
-27.003998 83.742447 297.669861
-27.003998 84.227501 297.669861
-26.891283 84.358963 296.427399
-26.849445 84.709991 295.966217
-26.849445 85.192268 295.966217
-26.821331 85.584816 295.656281
-26.943228 86.457748 297.000000
-26.943228 86.941704 297.000000
-26.943228 87.425659 297.000000
-26.943228 87.909622 297.000000
-26.761791 87.798340 295.000000
-26.761791 88.279037 295.000000
-26.761791 88.759735 295.000000
-26.671076 88.937920 294.000000
-26.671076 89.416992 294.000000
-26.580359 89.590294 293.000000
-26.489639 89.760338 292.000000
-26.489639 90.236145 292.000000
-26.489639 90.711960 292.000000
-26.398922 90.875481 291.000000
-26.398922 91.349663 291.000000
-26.308203 91.508293 290.000000
-26.308203 91.980843 290.000000
-26.308203 92.453392 290.000000
-26.392498 97.964348 290.929199
-26.392498 98.438416 290.929199
-26.399715 98.939529 291.008759
-26.399715 99.413727 291.008759
-26.399715 99.887917 291.008759
-26.399237 100.360291 291.003479
-26.398338 100.831039 290.993561
-26.398638 101.306358 290.996857
-26.398638 101.780533 290.996857
-26.398714 102.255020 290.997711
-26.399126 102.730797 291.002258
-26.399126 103.204979 291.002258
-26.399126 103.679161 291.002258
-26.397867 104.148376 290.988373
-26.397867 104.622543 290.988373
-26.397846 105.096626 290.988159
-26.399502 105.577408 291.006409
-26.399502 106.051598 291.006409
-26.402641 106.538460 291.041016
-26.402641 107.012711 291.041016
-26.402641 107.486954 291.041016
-26.401834 107.957893 291.032104
-26.401684 108.431511 291.030457
-26.401684 108.905746 291.030457
-26.401430 109.378922 291.027649
-26.401602 109.853867 291.029541
-26.401602 110.328094 291.029541
-26.401602 110.802315 291.029541
-26.403202 111.283295 291.047180
-26.403202 111.757553 291.047180
-26.407841 112.251526 291.098328
-26.411932 112.743340 291.143433
-26.411932 113.217751 291.143433
-26.414478 113.703117 291.171478
-26.417213 114.189407 291.201630
-26.417213 114.663918 291.201630
-26.417213 115.138420 291.201630
-26.412151 115.590782 291.145844
-26.412626 133.621078 291.151062
-26.412626 134.095505 291.151062
-26.412626 134.569946 291.151062
-26.410257 135.032257 291.124969
-26.410257 135.506638 291.124969
-26.400503 135.930786 291.017426
-26.400881 136.406952 291.021606
-26.400881 136.881180 291.021606
-26.414276 137.425079 291.169250
-26.430620 137.984879 291.349426
-26.430620 138.459610 291.349426
-26.450628 139.039551 291.569977
-26.450628 139.514664 291.569977
-26.450628 139.989761 291.569977
-26.428095 140.345215 291.321594
-26.420074 140.777176 291.233185
-26.420074 141.251740 291.233185
-26.421509 141.733994 291.248993
-26.422323 142.212967 291.257965
-26.422323 142.687561 291.257965
-26.424051 143.171524 291.277008
-26.424051 143.646164 291.277008
-26.426189 144.132462 291.300598
-26.426189 144.607132 291.300598
-26.426189 145.081802 291.300598
-26.424482 145.547073 291.281769
-26.424482 146.021713 291.281769
-26.424059 146.493988 291.277100
-26.423098 146.963287 291.266510
-26.423098 147.437897 291.266510
-26.422915 147.911484 291.264465
-26.423450 148.389099 291.270386
-26.423450 148.863724 291.270386
-26.423450 149.338348 291.270386
-26.423790 149.814896 291.274139
-26.423790 150.289536 291.274139
-26.423790 150.764160 291.274139
-26.423483 152.186264 291.270752
-26.423483 152.660889 291.270752
-26.423483 153.135513 291.270752
-37.934181 64.282013 425.799988
-37.934181 64.975845 425.799988
-37.934181 65.669685 425.799988
-37.890907 66.287811 425.314270
-37.851250 66.910751 424.869141
-37.851250 67.603073 424.869141
-37.814182 68.228508 424.453033
-38.041088 69.333710 427.000000
-38.041088 70.029503 427.000000
-38.041088 70.725296 427.000000
-37.952000 71.253822 426.000000
-37.952000 71.947983 426.000000
-37.952000 72.642143 426.000000
-37.862911 73.164154 425.000000
-37.862911 73.856689 425.000000
-37.862911 74.549217 425.000000
-37.684731 74.887672 423.000000
-37.684731 75.576950 423.000000
-37.506554 75.905617 421.000000
-37.506554 76.591637 421.000000
-37.506554 77.277649 421.000000
-37.417465 77.778481 420.000000
-37.239285 78.089226 418.000000
-37.239285 78.770355 418.000000
-37.150196 79.261406 417.000000
-37.061108 79.749199 416.000000
-37.061108 80.427063 416.000000
-36.972019 80.909966 415.000000
-36.882931 81.389610 414.000000
-36.882931 82.064217 414.000000
-36.793842 82.538979 413.000000
-36.615662 82.808990 411.000000
-36.526573 83.275597 410.000000
-36.526573 83.943687 410.000000
-36.526573 84.611771 410.000000
-36.348392 84.863869 408.000000
-36.348392 85.528694 408.000000
-36.259304 85.982269 407.000000
-36.170216 86.432587 406.000000
-36.170216 87.094154 406.000000
-36.170216 87.755730 406.000000
-35.992035 87.981743 404.000000
-35.992035 88.640060 404.000000
-35.813858 88.856300 402.000000
-35.813858 89.511353 402.000000
-35.813858 90.166412 402.000000
-35.724770 90.595535 401.000000
-35.635681 91.021408 400.000000
-35.635681 91.673203 400.000000
-35.457504 91.863373 398.000000
-35.279324 92.047028 396.000000
-35.279324 92.692307 396.000000
-35.279324 93.337585 396.000000
-35.192616 93.751877 395.026733
-35.192616 94.395561 395.026733
-35.012054 94.551643 393.000000
-34.833878 94.707596 391.000000
-34.833878 95.344727 391.000000
-34.744789 95.736374 390.000000
-34.655697 96.124771 389.000000
-34.655697 96.758644 389.000000
-34.627392 97.312950 388.682251
-34.627392 97.946304 388.682251
-34.627392 98.579666 388.682251
-27.257029 84.576836 305.952118
-27.257029 85.075378 305.952118
-27.257029 85.573929 305.952118
-26.502750 83.690605 297.485565
-26.502750 84.175354 297.485565
-26.382061 84.274574 296.130859
-26.343313 84.632629 295.695923
-26.343313 85.114464 295.695923
-26.316185 85.508148 295.391418
-26.459492 86.457748 297.000000
-26.459492 86.941704 297.000000
-26.459492 87.425659 297.000000
-26.459492 87.909622 297.000000
-26.370405 88.095955 296.000000
-26.370405 88.578285 296.000000
-26.281315 88.759735 295.000000
-26.192226 88.937920 294.000000
-26.192226 89.416992 294.000000
-26.103136 89.590294 293.000000
-26.014048 89.760338 292.000000
-26.014048 90.236145 292.000000
-26.014048 90.711960 292.000000
-26.014048 91.187767 292.000000
-26.014048 91.663574 292.000000
-25.835869 91.508293 290.000000
-25.835869 91.980843 290.000000
-25.835869 92.453392 290.000000
-25.916950 98.905991 290.910126
-25.916950 99.380028 290.910126
-25.922638 99.875977 290.973969
-25.922638 100.350113 290.973969
-25.922907 100.825302 290.976990
-25.923820 101.303017 290.987244
-25.923820 101.777176 290.987244
-25.923820 102.251335 290.987244
-25.924204 102.727013 290.991547
-25.924204 103.201180 290.991547
-25.924204 103.675346 290.991547
-25.923737 104.147636 290.986298
-25.923737 104.621796 290.986298
-25.923681 105.095734 290.985687
-25.925381 105.576813 291.004761
-25.925381 106.050995 291.004761
-25.929140 106.540642 291.046967
-25.929140 107.014893 291.046967
-25.929140 107.489143 291.046967
-25.928028 107.958771 291.034454
-25.927652 108.431435 291.030243
-25.927652 108.905670 291.030243
-25.926699 109.375877 291.019531
-25.926849 109.850731 291.021240
-25.926849 110.324936 291.021240
-25.927063 110.800064 291.023621
-25.928699 111.281303 291.041992
-25.928699 111.755562 291.041992
-25.930273 112.236618 291.059662
-25.930273 112.710899 291.059662
-25.930273 113.185173 291.059662
-25.927448 113.647064 291.027954
-25.939167 114.172882 291.159515
-25.939167 114.647331 291.159515
-25.939167 115.121765 291.159515
-25.937952 115.590782 291.145844
-25.930984 116.034035 291.067657
-25.930984 116.508324 291.067657
-25.928886 116.973145 291.044098
-25.928886 117.447403 291.044098
-25.928886 117.921646 291.044098
-25.909319 135.840668 290.824463
-25.928505 136.415497 291.039825
-25.928505 136.889740 291.039825
-25.943529 137.443588 291.208466
-25.960413 138.007858 291.397980
-25.960413 138.482697 291.397980
-25.981571 139.070770 291.635468
-25.981571 139.545990 291.635468
-25.981571 140.021210 291.635468
-25.953609 140.345215 291.321594
-25.953505 140.819351 291.320435
-25.953505 141.294052 291.320435
-25.953505 141.768768 291.320435
-25.953505 142.243469 291.320435
-25.953505 142.718170 291.320435
-25.954897 143.200546 291.336060
-25.954897 143.675293 291.336060
-25.954897 144.150009 291.336060
-25.954897 144.624741 291.336060
-25.954897 145.099472 291.336060
-25.953407 145.565842 291.319336
-25.953407 146.040543 291.319336
-25.952927 146.512512 291.313934
-25.952047 146.982239 291.304077
-25.952047 147.456924 291.304077
-25.952232 147.932648 291.306152
-25.952732 148.410202 291.311768
-25.952732 148.884872 291.311768
-25.953024 149.361237 291.315033
-25.953024 149.835938 291.315033
-25.953024 150.310623 291.315033
-25.952795 150.783997 291.312469
-25.952881 151.259171 291.313416
-25.952881 151.733871 291.313416
-25.952881 152.208557 291.313416
-25.952570 152.681427 291.309937
-25.952570 153.156113 291.309937
-25.952570 153.630798 291.309937
-25.952591 154.105606 291.310181
-25.952591 154.580307 291.310181
-25.952652 155.055344 291.310852
-25.952652 155.530029 291.310852
-25.952652 156.004730 291.310852
-37.219673 64.245781 425.559998
-37.219673 64.939224 425.559998
-37.219673 65.632668 425.559998
-37.188065 66.269783 425.198578
-37.135258 66.867554 424.594818
-37.135258 67.559433 424.594818
-37.103817 68.193520 424.235352
-37.072948 68.827492 423.882385
-37.072948 69.518204 423.882385
-37.258156 70.559662 426.000000
-37.258156 71.253822 426.000000
-37.258156 71.947983 426.000000
-37.258156 72.642143 426.000000
-37.170696 73.164154 425.000000
-37.170696 73.856689 425.000000
-37.170696 74.549217 425.000000
-36.995773 74.887672 423.000000
-36.995773 75.576950 423.000000
-36.908314 76.085922 422.000000
-36.820854 76.591637 421.000000
-36.820854 77.277649 421.000000
-36.733395 77.778481 420.000000
-36.558472 78.089226 418.000000
-36.558472 78.770355 418.000000
-36.471008 79.261406 417.000000
-36.383553 79.749199 416.000000
-36.383553 80.427063 416.000000
-36.296093 80.909966 415.000000
-36.208630 81.389610 414.000000
-36.208630 82.064217 414.000000
-36.121170 82.538979 413.000000
-35.946251 82.808990 411.000000
-35.858788 83.275597 410.000000
-35.858788 83.943687 410.000000
-35.858788 84.611771 410.000000
-35.683868 84.863869 408.000000
-35.683868 85.528694 408.000000
-35.596409 85.982269 407.000000
-35.508945 86.432587 406.000000
-35.508945 87.094154 406.000000
-35.508945 87.755730 406.000000
-35.421486 88.199524 405.000000
-35.421486 88.859467 405.000000
-35.246567 89.077339 403.000000
-35.159103 89.511353 402.000000
-35.159103 90.166412 402.000000
-35.071644 90.595535 401.000000
-34.984184 91.021408 400.000000
-34.984184 91.673203 400.000000
-34.721802 91.632561 397.000000
-34.634342 92.047028 396.000000
-34.634342 92.692307 396.000000
-34.634342 93.337585 396.000000
-34.549217 93.751877 395.026733
-34.549217 94.395561 395.026733
-34.197041 94.070465 391.000000
-34.022118 94.223160 389.000000
-34.022118 94.857033 389.000000
-33.934658 95.245422 388.000000
-33.934658 95.877663 388.000000
-33.934658 96.509903 388.000000
-33.956078 97.203461 388.244904
-34.053234 98.116020 389.355743
-34.053234 98.750473 389.355743
-34.053234 99.384926 389.355743
-26.018225 83.205856 297.485565
-26.018225 83.690605 297.485565
-26.018225 84.175354 297.485565
-25.899740 84.274574 296.130859
-25.861700 84.632629 295.695923
-25.861700 85.114464 295.695923
-25.835068 85.508148 295.391418
-25.975756 86.457748 297.000000
-25.975756 86.941704 297.000000
-25.975756 87.425659 297.000000
-25.975756 87.909622 297.000000
-25.888296 88.095955 296.000000
-25.888296 88.578285 296.000000
-25.800837 88.759735 295.000000
-25.713375 88.937920 294.000000
-25.713375 89.416992 294.000000
-25.625916 89.590294 293.000000
-25.538454 89.760338 292.000000
-25.538454 90.236145 292.000000
-25.538454 90.711960 292.000000
-25.538454 91.187767 292.000000
-25.538454 91.663574 292.000000
-25.450994 91.823837 291.000000
-25.363533 91.980843 290.000000
-25.363533 92.453392 290.000000
-25.363533 92.925949 290.000000
-25.449877 101.303017 290.987244
-25.449877 101.777176 290.987244
-25.449913 102.251480 290.987640
-25.450377 102.727509 290.992950
-25.450377 103.201675 290.992950
-25.450377 103.675850 290.992950
-25.449802 104.147675 290.986389
-25.449802 104.621826 290.986389
-25.449747 105.095757 290.985748
-25.451534 105.577332 291.006195
-25.451534 106.051521 291.006195
-25.455473 106.542191 291.051208
-25.455473 107.016457 291.051208
-25.455473 107.490723 291.051208
-25.454309 107.960045 291.037903
-25.453955 108.432785 291.033875
-25.453955 108.907028 291.033875
-25.451637 109.371292 291.007355
-25.453215 109.852295 291.025391
-25.453215 110.326515 291.025391
-25.453274 110.800987 291.026062
-25.454876 111.282234 291.044403
-25.454876 111.756477 291.044403
-25.456436 112.237610 291.062225
-25.456436 112.711899 291.062225
-25.456436 113.186180 291.062225
-25.453844 113.648888 291.032593
-25.453844 114.123123 291.032593
-25.461500 114.631813 291.120117
-25.461500 115.106201 291.120117
-25.461500 115.580566 291.120117
-25.456911 116.034035 291.067657
-25.456911 116.508324 291.067657
-25.454851 116.973145 291.044098
-25.454851 117.447403 291.044098
-25.454851 117.921646 291.044098
-25.454088 118.392349 291.035370
-25.454678 136.416580 291.042114
-25.454678 136.890823 291.042114
-25.470074 137.448151 291.218140
-25.487520 138.017166 291.417633
-25.487520 138.492035 291.417633
-25.508867 139.083282 291.661713
-25.508867 139.558548 291.661713
-25.508867 140.033798 291.661713
-25.480284 140.351624 291.334900
-25.480284 140.826340 291.334900
-25.480284 141.301071 291.334900
-25.480284 141.775803 291.334900
-25.480284 142.250534 291.334900
-25.480284 142.725250 291.334900
-25.481079 143.204453 291.343994
-25.481079 143.679199 291.343994
-25.481152 144.154343 291.344818
-25.481152 144.629089 291.344818
-25.481152 145.103821 291.344818
-25.479733 145.570450 291.328583
-25.479733 146.045166 291.328583
-25.479202 146.516846 291.322540
-25.477589 146.982239 291.304077
-25.477589 147.456924 291.304077
-25.478529 147.937042 291.314819
-25.479143 148.415329 291.321838
-25.479143 148.890030 291.321838
-25.479546 149.367096 291.326447
-25.479546 149.841797 291.326447
-25.479546 150.316513 291.326447
-25.479206 150.789215 291.322571
-25.479321 151.264618 291.323883
-25.479321 151.739334 291.323883
-25.479321 152.214035 291.323883
-25.479067 152.687210 291.320984
-25.479067 153.161926 291.320984
-25.479067 153.636627 291.320984
-25.479052 154.111237 291.320801
-25.479052 154.585938 291.320801
-25.478962 155.060104 291.319794
-25.479086 155.535568 291.321198
-25.479086 156.010269 291.321198
-25.479086 156.484970 291.321198
-25.479029 156.959320 291.320526
-25.479029 157.434021 291.320526
-25.479033 157.908737 291.320587
-25.479033 158.383453 291.320587
-25.479033 158.858154 291.320587
-25.478977 159.332504 291.319946
-25.478977 159.807205 291.319946
-36.497936 64.195457 425.226654
-36.497936 64.888359 425.226654
-36.497936 65.581261 425.226654
-36.473270 66.229378 424.939301
-36.426617 66.836205 424.395752
-36.426617 67.527748 424.395752
-36.397472 68.164719 424.056183
-36.368462 68.800827 423.718170
-36.368462 69.491272 423.718170
-36.564312 70.559662 426.000000
-36.564312 71.253822 426.000000
-36.564312 71.947983 426.000000
-36.478481 72.471619 425.000000
-36.478481 73.164154 425.000000
-36.478481 73.856689 425.000000
-36.392651 74.373810 424.000000
-36.306816 74.887672 423.000000
-36.306816 75.576950 423.000000
-36.220985 76.085922 422.000000
-36.135151 76.591637 421.000000
-36.135151 77.277649 421.000000
-36.049320 77.778481 420.000000
-35.877659 78.089226 418.000000
-35.877659 78.770355 418.000000
-35.791824 79.261406 417.000000
-35.705994 79.749199 416.000000
-35.705994 80.427063 416.000000
-35.620163 80.909966 415.000000
-35.534332 81.389610 414.000000
-35.534332 82.064217 414.000000
-35.448502 82.538979 413.000000
-35.276836 82.808990 411.000000
-35.276836 83.478706 411.000000
-35.276836 84.148430 411.000000
-35.191002 84.611771 410.000000
-35.019341 84.863869 408.000000
-35.019341 85.528694 408.000000
-34.933510 85.982269 407.000000
-34.847675 86.432587 406.000000
-34.847675 87.094154 406.000000
-34.847675 87.755730 406.000000
-34.761845 88.199524 405.000000
-34.761845 88.859467 405.000000
-34.590183 89.077339 403.000000
-34.504349 89.511353 402.000000
-34.504349 90.166412 402.000000
-34.418518 90.595535 401.000000
-34.332687 91.021408 400.000000
-34.332687 91.673203 400.000000
-34.075191 91.632561 397.000000
-33.989361 92.047028 396.000000
-33.989361 92.692307 396.000000
-33.885643 93.052765 394.791626
-33.885643 93.696068 394.791626
-33.885643 94.339378 394.791626
-33.474369 93.829872 390.000000
-33.302708 93.980934 388.000000
-33.302708 94.613182 388.000000
-33.216873 94.999939 387.000000
-33.216873 95.630554 387.000000
-33.216873 96.261162 387.000000
-33.287518 97.097832 387.823029
-33.419071 98.116020 389.355743
-33.419071 98.750473 389.355743
-33.419071 99.384926 389.355743
-25.533697 83.205856 297.485565
-25.533697 83.690605 297.485565
-25.533697 84.175354 297.485565
-25.417419 84.274574 296.130859
-25.380089 84.632629 295.695923
-25.380089 85.114464 295.695923
-25.353756 85.507484 295.389130
-25.328218 85.902199 295.091583
-25.492020 86.941704 297.000000
-25.492020 87.425659 297.000000
-25.492020 87.909622 297.000000
-25.406189 88.095955 296.000000
-25.406189 88.578285 296.000000
-25.320358 88.759735 295.000000
-25.234526 88.937920 294.000000
-25.234526 89.416992 294.000000
-25.148693 89.590294 293.000000
-25.062862 89.760338 292.000000
-25.062862 90.236145 292.000000
-25.062862 90.711960 292.000000
-25.062862 91.187767 292.000000
-25.062862 91.663574 292.000000
-24.977030 91.823837 291.000000
-24.891199 91.980843 290.000000
-24.891199 92.453392 290.000000
-24.891199 92.925949 290.000000
-24.975935 101.303017 290.987244
-24.975935 101.777176 290.987244
-24.975969 102.251480 290.987640
-24.976423 102.727509 290.992950
-24.976423 103.201675 290.992950
-24.976423 103.675850 290.992950
-24.975861 104.147675 290.986389
-24.975861 104.621826 290.986389
-24.975807 105.095757 290.985748
-24.977562 105.577332 291.006195
-24.977562 106.051521 291.006195
-24.981424 106.542191 291.051208
-24.981424 107.016457 291.051208
-24.981424 107.490723 291.051208
-24.980284 107.960045 291.037903
-24.979939 108.432785 291.033875
-24.979939 108.907028 291.033875
-24.977661 109.371292 291.007355
-24.979210 109.852295 291.025391
-24.979210 110.326515 291.025391
-24.979267 110.800987 291.026062
-24.980841 111.282234 291.044403
-24.980841 111.756477 291.044403
-24.982372 112.237610 291.062225
-24.982372 112.711899 291.062225
-24.982372 113.186180 291.062225
-24.979828 113.648888 291.032593
-24.979828 114.123123 291.032593
-24.987341 114.631813 291.120117
-24.987341 115.106201 291.120117
-24.987341 115.580566 291.120117
-24.982838 116.034035 291.067657
-24.982838 116.508324 291.067657
-24.980814 116.973145 291.044098
-24.980814 117.447403 291.044098
-24.980814 117.921646 291.044098
-24.980064 118.392349 291.035370
-24.980644 136.416580 291.042114
-24.980644 136.890823 291.042114
-24.995752 137.448151 291.218140
-25.012877 138.017166 291.417633
-25.012877 138.492035 291.417633
-25.033827 139.083282 291.661713
-25.033827 139.558548 291.661713
-25.033827 140.033798 291.661713
-25.005775 140.351624 291.334900
-25.005775 140.826340 291.334900
-25.005775 141.301071 291.334900
-25.005775 141.775803 291.334900
-25.005775 142.250534 291.334900
-25.005775 142.725250 291.334900
-25.006556 143.204453 291.343994
-25.006556 143.679199 291.343994
-25.006626 144.154343 291.344818
-25.006626 144.629089 291.344818
-25.006626 145.103821 291.344818
-25.005232 145.570450 291.328583
-25.005232 146.045166 291.328583
-25.004715 146.516846 291.322540
-25.003130 146.982239 291.304077
-25.003130 147.456924 291.304077
-25.004051 147.937042 291.314819
-25.004654 148.415329 291.321838
-25.004654 148.890030 291.321838
-25.005049 149.367096 291.326447
-25.005049 149.841797 291.326447
-25.005049 150.316513 291.326447
-25.004717 150.789215 291.322571
-25.004829 151.264618 291.323883
-25.004829 151.739334 291.323883
-25.004829 152.214035 291.323883
-25.004580 152.687210 291.320984
-25.004580 153.161926 291.320984
-25.004580 153.636627 291.320984
-25.004564 154.111237 291.320801
-25.004564 154.585938 291.320801
-25.004478 155.060104 291.319794
-25.004599 155.535568 291.321198
-25.004599 156.010269 291.321198
-25.004599 156.484970 291.321198
-25.004541 156.959320 291.320526
-25.004541 157.434021 291.320526
-25.004547 157.908737 291.320587
-25.004547 158.383453 291.320587
-25.004547 158.858154 291.320587
-25.004492 159.332504 291.319946
-25.004492 159.807205 291.319946
-35.805351 64.195457 425.226654
-35.805351 64.888359 425.226654
-35.805351 65.581261 425.226654
-35.781155 66.229378 424.939301
-35.735386 66.836205 424.395752
-35.735386 67.527748 424.395752
-35.706795 68.164719 424.056183
-35.678333 68.800827 423.718170
-35.678333 69.491272 423.718170
-35.870468 70.559662 426.000000
-35.870468 71.253822 426.000000
-35.870468 71.947983 426.000000
-35.786263 72.471619 425.000000
-35.786263 73.164154 425.000000
-35.786263 73.856689 425.000000
-35.702065 74.373810 424.000000
-35.617859 74.887672 423.000000
-35.617859 75.576950 423.000000
-35.533657 76.085922 422.000000
-35.449451 76.591637 421.000000
-35.449451 77.277649 421.000000
-35.365250 77.778481 420.000000
-35.196846 78.089226 418.000000
-35.196846 78.770355 418.000000
-35.112640 79.261406 417.000000
-35.028439 79.749199 416.000000
-35.028439 80.427063 416.000000
-34.944237 80.909966 415.000000
-34.860031 81.389610 414.000000
-34.860031 82.064217 414.000000
-34.775829 82.538979 413.000000
-34.607426 82.808990 411.000000
-34.607426 83.478706 411.000000
-34.607426 84.148430 411.000000
-34.523220 84.611771 410.000000
-34.354813 84.863869 408.000000
-34.354813 85.528694 408.000000
-34.270611 85.982269 407.000000
-34.186409 86.432587 406.000000
-34.186409 87.094154 406.000000
-34.186409 87.755730 406.000000
-34.102207 88.199524 405.000000
-34.102207 88.859467 405.000000
-33.933800 89.077339 403.000000
-33.849594 89.511353 402.000000
-33.849594 90.166412 402.000000
-33.765392 90.595535 401.000000
-33.681190 91.021408 400.000000
-33.681190 91.673203 400.000000
-33.428581 91.632561 397.000000
-33.344379 92.047028 396.000000
-33.344379 92.692307 396.000000
-33.242630 93.052765 394.791626
-33.242630 93.696068 394.791626
-33.242630 94.339378 394.791626
-32.839161 93.829872 390.000000
-32.754955 94.223160 389.000000
-32.754955 94.857033 389.000000
-32.586552 94.999939 387.000000
-32.586552 95.630554 387.000000
-32.586552 96.261162 387.000000
-32.624714 97.005249 387.453217
-32.784912 98.116020 389.355743
-32.784912 98.750473 389.355743
-32.784912 99.384926 389.355743
-24.922390 83.267029 295.979919
-24.922390 83.749321 295.979919
-24.922390 84.231621 295.979919
-24.891989 84.610573 295.618866
-24.891989 85.092285 295.618866
-24.865767 85.483849 295.307465
-24.830559 85.843323 294.889313
-24.814260 86.267181 294.695770
-24.814260 86.747383 294.695770
-24.778633 87.102341 294.272644
-24.839878 87.798340 295.000000
-24.839878 88.279037 295.000000
-24.839878 88.759735 295.000000
-24.839878 89.240433 295.000000
-24.839878 89.721130 295.000000
-24.755676 89.896065 294.000000
-24.671473 90.067734 293.000000
-24.671473 90.545174 293.000000
-24.587269 90.711960 292.000000
-24.587269 91.187767 292.000000
-24.587269 91.663574 292.000000
-24.503067 91.823837 291.000000
-24.418863 91.980843 290.000000
-24.418863 92.453392 290.000000
-24.418863 92.925949 290.000000
-24.418863 93.398499 290.000000
-24.418863 93.871048 290.000000
-24.502026 102.251480 290.987640
-24.502474 102.727509 290.992950
-24.502474 103.201675 290.992950
-24.502474 103.675850 290.992950
-24.501919 104.147675 290.986389
-24.501919 104.621826 290.986389
-24.501865 105.095757 290.985748
-24.503662 105.577652 291.007080
-24.503662 106.051842 291.007080
-24.507704 106.543610 291.055084
-24.507704 107.017883 291.055084
-24.507704 107.492149 291.055084
-24.506516 107.961174 291.040955
-24.506189 108.433983 291.037079
-24.506189 108.908226 291.037079
-24.505487 109.379341 291.028748
-24.505415 109.853241 291.027893
-24.505415 110.327469 291.027893
-24.505508 110.802109 291.028992
-24.507067 111.283417 291.047516
-24.507067 111.757675 291.047516
-24.508307 112.237610 291.062225
-24.508307 112.711899 291.062225
-24.508307 113.186180 291.062225
-24.506018 113.649857 291.035065
-24.506018 114.124084 291.035065
-24.506018 114.598335 291.035065
-24.505848 115.071762 291.033051
-24.505781 115.545685 291.032257
-24.505816 116.020073 291.032654
-24.505816 116.494316 291.032654
-24.506037 116.969604 291.035278
-24.506044 117.443878 291.035370
-24.506044 117.918121 291.035370
-24.506044 118.392349 291.035370
-24.490534 135.853134 290.851166
-24.506611 136.416580 291.042114
-24.506611 136.890823 291.042114
-24.521435 137.448151 291.218140
-24.538233 138.017166 291.417633
-24.538233 138.492035 291.417633
-24.558784 139.083282 291.661713
-24.558784 139.558548 291.661713
-24.558784 140.033798 291.661713
-24.531265 140.351624 291.334900
-24.531265 140.826340 291.334900
-24.531265 141.301071 291.334900
-24.531265 141.775803 291.334900
-24.531265 142.250534 291.334900
-24.531265 142.725250 291.334900
-24.532030 143.204453 291.343994
-24.532030 143.679199 291.343994
-24.532101 144.154343 291.344818
-24.532101 144.629089 291.344818
-24.532101 145.103821 291.344818
-24.530735 145.570450 291.328583
-24.530735 146.045166 291.328583
-24.530226 146.516846 291.322540
-24.529575 147.937042 291.314819
-24.530167 148.415329 291.321838
-24.530167 148.890030 291.321838
-24.530554 149.367096 291.326447
-24.530554 149.841797 291.326447
-24.530554 150.316513 291.326447
-24.530228 150.789215 291.322571
-24.530338 151.264618 291.323883
-24.530338 151.739334 291.323883
-24.530338 152.214035 291.323883
-24.530094 152.687210 291.320984
-24.530094 153.161926 291.320984
-24.530094 153.636627 291.320984
-24.530079 154.111237 291.320801
-24.530079 154.585938 291.320801
-24.529993 155.060104 291.319794
-24.530113 155.535568 291.321198
-24.530113 156.010269 291.321198
-24.530113 156.484970 291.321198
-24.530056 156.959320 291.320526
-24.530056 157.434021 291.320526
-24.530060 157.908737 291.320587
-24.530060 158.383453 291.320587
-24.530060 158.858154 291.320587
-24.530006 159.332504 291.319946
-24.530006 159.807205 291.319946
-24.524973 160.249023 291.260162
-24.524973 160.723618 291.260162
-24.525133 161.199280 291.262054
-24.525133 161.673874 291.262054
-24.525133 162.148499 291.262054
-24.525112 162.622971 291.261810
-24.525101 163.097504 291.261688
-24.525101 163.572098 291.261688
-24.525152 164.047058 291.262299
-24.525152 164.521667 291.262299
-24.525152 164.996277 291.262299
-24.525145 165.945435 291.262207
-24.525145 166.420059 291.262207
-24.525145 166.894653 291.262207
-24.525105 167.368988 291.261719
-24.525105 167.843582 291.261719
-35.103470 64.178459 425.114075
-35.103470 64.871178 425.114075
-35.103470 65.563896 425.114075
-35.078125 66.208778 424.807129
-35.022148 66.794243 424.129272
-35.022148 67.485352 424.129272
-35.013916 68.160439 424.029572
-34.966911 68.758965 423.460327
-34.966911 69.448982 423.460327
-34.932232 70.069443 423.040314
-35.094048 71.086555 425.000000
-35.094048 71.779091 425.000000
-35.094048 72.471619 425.000000
-35.094048 73.164154 425.000000
-35.094048 73.856689 425.000000
-35.011475 74.373810 424.000000
-34.928902 74.887672 423.000000
-34.928902 75.576950 423.000000
-34.846329 76.085922 422.000000
-34.763752 76.591637 421.000000
-34.763752 77.277649 421.000000
-34.681179 77.778481 420.000000
-34.516029 78.089226 418.000000
-34.516029 78.770355 418.000000
-34.433453 79.261406 417.000000
-34.350883 79.749199 416.000000
-34.350883 80.427063 416.000000
-34.268311 80.909966 415.000000
-34.185734 81.389610 414.000000
-34.185734 82.064217 414.000000
-34.103161 82.538979 413.000000
-33.938011 82.808990 411.000000
-33.938011 83.478706 411.000000
-33.938011 84.148430 411.000000
-33.855434 84.611771 410.000000
-33.772861 85.071869 409.000000
-33.772861 85.738327 409.000000
-33.690289 86.193527 408.000000
-33.525139 86.432587 406.000000
-33.525139 87.094154 406.000000
-33.525139 87.755730 406.000000
-33.442566 88.199524 405.000000
-33.442566 88.859467 405.000000
-33.359989 89.298370 404.000000
-33.194839 89.511353 402.000000
-33.194839 90.166412 402.000000
-33.194839 90.821465 402.000000
-33.029694 91.021408 400.000000
-33.029694 91.673203 400.000000
-32.699398 91.401749 396.000000
-32.699398 92.047028 396.000000
-32.699398 92.692307 396.000000
-32.451675 92.630478 393.000000
-32.203953 92.558876 390.000000
-32.203953 93.194374 390.000000
-32.203953 93.829872 390.000000
-32.121376 94.223160 389.000000
-32.121376 94.857033 389.000000
-31.956228 94.999939 387.000000
-31.956228 95.630554 387.000000
-31.956228 96.261162 387.000000
-31.993654 97.005249 387.453217
-32.120033 98.022285 388.983734
-32.120033 98.656120 388.983734
-32.120033 99.289970 388.983734
-24.440315 83.267029 295.979919
-24.440315 83.749321 295.979919
-24.440315 84.231621 295.979919
-24.410501 84.610573 295.618866
-24.410501 85.092285 295.618866
-24.384789 85.483849 295.307465
-24.350260 85.843323 294.889313
-24.334276 86.267181 294.695770
-24.334276 86.747383 294.695770
-24.299339 87.102341 294.272644
-24.359400 87.798340 295.000000
-24.359400 88.279037 295.000000
-24.359400 88.759735 295.000000
-24.359400 89.240433 295.000000
-24.359400 89.721130 295.000000
-24.276825 89.896065 294.000000
-24.194252 90.067734 293.000000
-24.194252 90.545174 293.000000
-24.111677 90.711960 292.000000
-24.111677 91.187767 292.000000
-24.111677 91.663574 292.000000
-24.029102 91.823837 291.000000
-24.029102 92.298019 291.000000
-24.029102 92.772202 291.000000
-23.946527 92.925949 290.000000
-23.946527 93.398499 290.000000
-23.946527 93.871048 290.000000
-24.028343 102.726753 290.990814
-24.028343 103.200920 290.990814
-24.028343 103.675087 290.990814
-24.028147 104.148407 290.988434
-24.028147 104.622566 290.988434
-24.028206 105.096977 290.989136
-24.029720 105.577797 291.007477
-24.029720 106.051987 291.007477
-24.033651 106.543610 291.055084
-24.033651 107.017883 291.055084
-24.033651 107.492149 291.055084
-24.032484 107.961174 291.040955
-24.032461 108.435333 291.040680
-24.032461 108.909576 291.040680
-24.031475 109.379341 291.028748
-24.031532 109.853813 291.029419
-24.031532 110.328041 291.029419
-24.031532 110.802277 291.029419
-24.033026 111.283417 291.047516
-24.033026 111.757675 291.047516
-24.034252 112.237648 291.062347
-24.034252 112.711937 291.062347
-24.034252 113.186218 291.062347
-24.032084 113.650253 291.036102
-24.032084 114.124496 291.036102
-24.032084 114.598740 291.036102
-24.031965 115.072411 291.034668
-24.031925 115.546455 291.034180
-24.032019 116.021141 291.035309
-24.032019 116.495377 291.035309
-24.032200 116.970497 291.037506
-24.032200 117.444740 291.037506
-24.032200 117.918983 291.037506
-24.031887 118.391693 291.033722
-24.018473 134.914597 290.871277
-24.018473 135.388550 290.871277
-24.018473 135.862534 290.871277
-24.031336 136.409500 291.027039
-24.031336 136.883743 291.027039
-24.044327 137.432220 291.184387
-24.058878 137.990158 291.360596
-24.058878 138.464920 291.360596
-24.058878 138.939697 291.360596
-24.037840 139.292557 291.105804
-24.037840 139.766891 291.105804
-24.043673 140.275284 291.176453
-24.044413 140.754105 291.185425
-24.044413 141.228577 291.185425
-24.045202 141.707703 291.194977
-24.046427 142.189453 291.209808
-24.046427 142.663971 291.209808
-24.047962 143.147629 291.228394
-24.047962 143.622192 291.228394
-24.048838 144.101990 291.239014
-24.048838 144.576553 291.239014
-24.048838 145.051132 291.239014
-24.047056 145.514923 291.217438
-24.047056 145.989456 291.217438
-24.048462 148.370789 291.234436
-24.048462 148.845352 291.234436
-24.050797 149.334427 291.262726
-24.051653 149.814362 291.273102
-24.051653 150.288986 291.273102
-24.051704 150.763931 291.273712
-24.051796 151.239151 291.274841
-24.051796 151.713776 291.274841
-24.051796 152.188400 291.274841
-24.051310 152.659943 291.268951
-24.051310 153.134567 291.268951
-24.051310 153.609192 291.268951
-24.051310 154.083801 291.268951
-24.051310 154.558426 291.268951
-24.051973 155.037323 291.276978
-24.051973 155.511948 291.276978
-24.051973 155.986588 291.276978
-24.051699 156.459427 291.273651
-24.051758 156.934418 291.274353
-24.051758 157.409058 291.274353
-24.051775 157.883804 291.274567
-24.051775 158.358429 291.274567
-24.051775 158.833054 291.274567
-24.051006 159.302597 291.265259
-24.051451 159.780167 291.270630
-24.051573 160.255600 291.272125
-24.051573 160.730225 291.272125
-24.051573 161.204849 291.272125
-24.051529 161.679184 291.271606
-24.051529 162.153809 291.271606
-24.051577 162.628738 291.272156
-24.051577 163.103363 291.272156
-24.051577 163.577988 291.272156
-24.050762 164.047058 291.262299
-24.051567 164.527191 291.272064
-24.051567 165.001801 291.272064
-24.051567 165.476425 291.272064
-24.051535 165.950821 291.271667
-24.051535 166.425446 291.271667
-24.050753 166.894653 291.262207
-24.051548 167.374786 291.271820
-24.051548 167.849411 291.271820
-24.051548 168.324036 291.271820
-24.051550 168.798676 291.271851
-24.051550 169.273300 291.271851
-24.051554 169.747940 291.271881
-24.051554 170.222565 291.271881
-24.051554 170.697189 291.271881
-24.051550 171.171783 291.271851
-24.051550 171.646423 291.271851
-24.051550 172.121048 291.271851
-34.430950 64.215546 425.359711
-34.430950 64.908661 425.359711
-34.430950 65.601776 425.359711
-34.422874 66.279343 425.259918
-34.422874 66.972298 425.259918
-34.422874 67.665260 425.259918
-34.356907 68.227211 424.444946
-34.296936 68.798538 423.704102
-34.296936 69.488960 423.704102
-34.239223 70.061287 422.991089
-34.191132 70.651176 422.396973
-34.191132 71.339462 422.396973
-34.401833 72.471619 425.000000
-34.401833 73.164154 425.000000
-34.401833 73.856689 425.000000
-34.320889 74.373810 424.000000
-34.239944 74.887672 423.000000
-34.239944 75.576950 423.000000
-34.159000 76.085922 422.000000
-34.159000 76.773567 422.000000
-34.159000 77.461205 422.000000
-33.997108 77.778481 420.000000
-33.835217 78.089226 418.000000
-33.835217 78.770355 418.000000
-33.754269 79.261406 417.000000
-33.754269 79.940903 417.000000
-33.754269 80.620392 417.000000
-33.615322 80.965233 415.283447
-33.511433 81.389610 414.000000
-33.511433 82.064217 414.000000
-33.430489 82.538979 413.000000
-33.268600 82.808990 411.000000
-33.268600 83.478706 411.000000
-33.268600 84.148430 411.000000
-33.187653 84.611771 410.000000
-33.106709 85.071869 409.000000
-33.106709 85.738327 409.000000
-33.025761 86.193527 408.000000
-32.863869 86.432587 406.000000
-32.863869 87.094154 406.000000
-32.863869 87.755730 406.000000
-32.782925 88.199524 405.000000
-32.782925 88.859467 405.000000
-32.701977 89.298370 404.000000
-32.540089 89.511353 402.000000
-32.540089 90.166412 402.000000
-32.540089 90.821465 402.000000
-32.378201 91.021408 400.000000
-32.378201 91.673203 400.000000
-32.135361 91.632561 397.000000
-32.054417 92.047028 396.000000
-32.054417 92.692307 396.000000
-31.811579 92.630478 393.000000
-31.568743 92.558876 390.000000
-31.568743 93.194374 390.000000
-31.568743 93.829872 390.000000
-31.487795 94.223160 389.000000
-31.487795 94.857033 389.000000
-31.325905 94.999939 387.000000
-31.325905 95.630554 387.000000
-31.325905 96.261162 387.000000
-31.325905 96.891777 387.000000
-31.490528 98.034889 389.033752
-31.490528 98.668808 389.033752
-31.490528 99.302734 389.033752
-23.930618 84.134506 295.638672
-23.930618 84.616241 295.638672
-23.930618 85.097984 295.638672
-23.903809 85.483849 295.307465
-23.869961 85.843323 294.889313
-23.855961 86.273216 294.716370
-23.855961 86.753448 294.716370
-23.822250 87.110413 294.299896
-23.782312 87.443123 293.806488
-23.782312 87.921875 293.806488
-23.878922 88.759735 295.000000
-23.878922 89.240433 295.000000
-23.878922 89.721130 295.000000
-23.797976 89.896065 294.000000
-23.717030 90.067734 293.000000
-23.717030 90.545174 293.000000
-23.636084 90.711960 292.000000
-23.636084 91.187767 292.000000
-23.636084 91.663574 292.000000
-23.555140 91.823837 291.000000
-23.555140 92.298019 291.000000
-23.555140 92.772202 291.000000
-23.474194 92.925949 290.000000
-23.474194 93.398499 290.000000
-23.474194 93.871048 290.000000
-23.554394 102.726753 290.990814
-23.554394 103.200920 290.990814
-23.554394 103.675087 290.990814
-23.554201 104.148407 290.988434
-23.554201 104.622566 290.988434
-23.554258 105.096977 290.989136
-23.555744 105.577797 291.007477
-23.555744 106.051987 291.007477
-23.559597 106.543610 291.055084
-23.559597 107.017883 291.055084
-23.559597 107.492149 291.055084
-23.558455 107.961174 291.040955
-23.558432 108.435333 291.040680
-23.558432 108.909576 291.040680
-23.557467 109.379341 291.028748
-23.557520 109.853813 291.029419
-23.557520 110.328041 291.029419
-23.557520 110.802277 291.029419
-23.558985 111.283417 291.047516
-23.558985 111.757675 291.047516
-23.560186 112.237648 291.062347
-23.560186 112.711937 291.062347
-23.560186 113.186218 291.062347
-23.558062 113.650253 291.036102
-23.558062 114.124496 291.036102
-23.558062 114.598740 291.036102
-23.557945 115.072411 291.034668
-23.557905 115.546455 291.034180
-23.557997 116.021141 291.035309
-23.557997 116.495377 291.035309
-23.558176 116.970497 291.037506
-23.558176 117.444740 291.037506
-23.558176 117.918983 291.037506
-23.557869 118.391693 291.033722
-23.544720 134.914597 290.871277
-23.544720 135.388550 290.871277
-23.544720 135.862534 290.871277
-23.557327 136.409500 291.027039
-23.557327 136.883743 291.027039
-23.570063 137.432220 291.184387
-23.584328 137.990158 291.360596
-23.584328 138.464920 291.360596
-23.584328 138.939697 291.360596
-23.563702 139.292557 291.105804
-23.563702 139.766891 291.105804
-23.569422 140.275284 291.176453
-23.570147 140.754105 291.185425
-23.570147 141.228577 291.185425
-23.570921 141.707703 291.194977
-23.572121 142.189453 291.209808
-23.572121 142.663971 291.209808
-23.573626 143.147629 291.228394
-23.573626 143.622192 291.228394
-23.574486 144.101990 291.239014
-23.574486 144.576553 291.239014
-23.574486 145.051132 291.239014
-23.572739 145.514923 291.217438
-23.572739 145.989456 291.217438
-23.574114 148.370789 291.234436
-23.574114 148.845352 291.234436
-23.576405 149.334427 291.262726
-23.577244 149.814362 291.273102
-23.577244 150.288986 291.273102
-23.577293 150.763931 291.273712
-23.577387 151.239151 291.274841
-23.577387 151.713776 291.274841
-23.577387 152.188400 291.274841
-23.576908 152.659943 291.268951
-23.576908 153.134567 291.268951
-23.576908 153.609192 291.268951
-23.576908 154.083801 291.268951
-23.576908 154.558426 291.268951
-23.577559 155.037323 291.276978
-23.577559 155.511948 291.276978
-23.577559 155.986588 291.276978
-23.577290 156.459427 291.273651
-23.577347 156.934418 291.274353
-23.577347 157.409058 291.274353
-23.577364 157.883804 291.274567
-23.577364 158.358429 291.274567
-23.577364 158.833054 291.274567
-23.576611 159.302597 291.265259
-23.577044 159.780167 291.270630
-23.577168 160.255600 291.272125
-23.577168 160.730225 291.272125
-23.577168 161.204849 291.272125
-23.577124 161.679184 291.271606
-23.577124 162.153809 291.271606
-23.577168 162.628738 291.272156
-23.577168 163.103363 291.272156
-23.577168 163.577988 291.272156
-23.576370 164.047058 291.262299
-23.577160 164.527191 291.272064
-23.577160 165.001801 291.272064
-23.577160 165.476425 291.272064
-23.577129 165.950821 291.271667
-23.577129 166.425446 291.271667
-23.576363 166.894653 291.262207
-23.577141 167.374786 291.271820
-23.577141 167.849411 291.271820
-23.577141 168.324036 291.271820
-23.577145 168.798676 291.271851
-23.577145 169.273300 291.271851
-23.577147 169.747940 291.271881
-23.577147 170.222565 291.271881
-23.577147 170.697189 291.271881
-23.577145 171.171783 291.271851
-23.577145 171.646423 291.271851
-23.577145 172.121048 291.271851
-33.738152 64.215546 425.359711
-33.738152 64.908661 425.359711
-33.738152 65.601776 425.359711
-33.730236 66.279343 425.259918
-33.730236 66.972298 425.259918
-33.730236 67.665260 425.259918
-33.665596 68.227211 424.444946
-33.606834 68.798538 423.704102
-33.606834 69.488960 423.704102
-33.550278 70.061287 422.991089
-33.503159 70.651176 422.396973
-33.503159 71.339462 422.396973
-33.709618 72.471619 425.000000
-33.709618 73.164154 425.000000
-33.709618 73.856689 425.000000
-33.630302 74.373810 424.000000
-33.550983 74.887672 423.000000
-33.550983 75.576950 423.000000
-33.471668 76.085922 422.000000
-33.471668 76.773567 422.000000
-33.471668 77.461205 422.000000
-33.319469 77.793495 420.081085
-33.238861 78.288155 419.064819
-33.238861 78.971016 419.064819
-33.133373 79.401093 417.734894
-33.075085 79.940903 417.000000
-33.075085 80.620392 417.000000
-32.982567 81.072479 415.833557
-32.916454 81.586205 415.000000
-32.916454 82.262444 415.000000
-32.678501 82.339119 412.000000
-32.599186 82.808990 411.000000
-32.599186 83.478706 411.000000
-32.599186 84.148430 411.000000
-32.519867 84.611771 410.000000
-32.440552 85.071869 409.000000
-32.440552 85.738327 409.000000
-32.361233 86.193527 408.000000
-32.281918 86.645470 407.000000
-32.281918 87.308670 407.000000
-32.202599 87.755730 406.000000
-32.123283 88.199524 405.000000
-32.123283 88.859467 405.000000
-32.043968 89.298370 404.000000
-31.964651 89.734024 403.000000
-31.964651 90.390709 403.000000
-31.885332 90.821465 402.000000
-31.726702 91.021408 400.000000
-31.726702 91.673203 400.000000
-31.488750 91.632561 397.000000
-31.409435 92.047028 396.000000
-31.409435 92.692307 396.000000
-31.171482 92.630478 393.000000
-30.933535 92.558876 390.000000
-30.933535 93.194374 390.000000
-30.933535 93.829872 390.000000
-30.854216 94.223160 389.000000
-30.854216 94.857033 389.000000
-30.695581 94.999939 387.000000
-30.695581 95.630554 387.000000
-30.695581 96.261162 387.000000
-30.695581 96.891777 387.000000
-30.941982 98.305222 390.106537
-30.941982 98.940895 390.106537
-30.941982 99.576569 390.106537
-23.449099 84.134506 295.638672
-23.449099 84.616241 295.638672
-23.449099 85.097984 295.638672
-23.435339 85.529503 295.465179
-23.395164 85.863510 294.958679
-23.389719 86.324043 294.890015
-23.389719 86.804558 294.890015
-23.354818 87.154846 294.450012
-23.311691 87.472824 293.906281
-23.311691 87.951736 293.906281
-23.265236 88.254433 293.320587
-23.319126 88.937920 294.000000
-23.319126 89.416992 294.000000
-23.319126 89.896065 294.000000
-23.319126 90.375130 294.000000
-23.319126 90.854202 294.000000
-23.239809 91.022614 293.000000
-23.160492 91.187767 292.000000
-23.160492 91.663574 292.000000
-23.160492 92.139389 292.000000
-23.081175 92.298019 291.000000
-23.081175 92.772202 291.000000
-23.081175 93.246384 291.000000
-23.001858 93.398499 290.000000
-23.001858 93.871048 290.000000
-23.001858 94.343597 290.000000
-23.001858 94.816154 290.000000
-23.001858 95.288704 290.000000
-23.080257 103.674232 290.988434
-23.080257 104.148407 290.988434
-23.080257 104.622566 290.988434
-23.080313 105.096977 290.989136
-23.081842 105.578140 291.008423
-23.081842 106.052330 291.008423
-23.085178 106.541924 291.050476
-23.085178 107.016190 291.050476
-23.085178 107.490448 291.050476
-23.084400 107.961075 291.040680
-23.084400 108.435333 291.040680
-23.084400 108.909576 291.040680
-23.082893 109.376678 291.021667
