-20.684008 143.793610 290.615753
-20.684008 144.267166 290.615753
-20.683802 144.739273 290.612854
-20.683859 148.054535 290.613647
-20.683811 148.527740 290.612976
-20.683811 149.474838 290.612976
-20.683811 149.948395 290.612976
-20.683842 150.895706 290.613403
-20.683819 151.369095 290.613098
-20.683825 152.316254 290.613190
-20.683825 152.789795 290.613190
-20.683825 153.736893 290.613190
-20.683825 154.210464 290.613190
-20.683653 168.889114 290.610779
-20.683653 169.836212 290.610779
-20.683653 176.465866 290.610779
-20.683653 177.412964 290.610779
-20.683653 177.886505 290.610779
-20.683653 178.833588 290.610779
-29.876394 63.455982 429.602356
-29.876394 64.156013 429.602356
-29.881643 64.867432 429.677826
-29.973595 65.769348 431.000000
-29.973595 66.471657 431.000000
-29.973595 67.173965 431.000000
-29.904051 67.718796 430.000000
-29.904051 68.419472 430.000000
-29.834505 68.959412 429.000000
-29.717674 69.385681 427.320038
-29.717674 70.081993 427.320038
-29.717674 70.778305 427.320038
-29.556328 71.086555 425.000000
-29.556328 71.779091 425.000000
-29.717674 72.867241 427.320038
-29.717674 73.563553 427.320038
-29.717674 74.259865 427.320038
-29.717674 74.956177 427.320038
-29.701801 75.612083 427.091797
-29.701801 76.308022 427.091797
-29.683815 76.957336 426.833191
-29.680429 77.644005 426.784515
-29.680429 78.339439 426.784515
-29.676704 79.024963 426.730957
-29.672611 79.709312 426.672058
-29.672611 80.404572 426.672058
-29.668104 81.087509 426.607269
-29.673830 81.798439 426.689575
-29.673830 82.493729 426.689575
-29.685581 83.221954 426.858551
-29.685581 83.917519 426.858551
-29.685581 84.613075 426.858551
-29.682367 85.299408 426.812378
-29.678839 85.984665 426.761627
-29.676542 86.673370 426.728607
-29.676542 87.368713 426.728607
-28.234985 83.786301 406.000000
-28.165443 84.239868 405.000000
-28.165443 84.899811 405.000000
-29.675480 90.146881 426.713318
-29.675480 90.842201 426.713318
-29.675480 91.537529 426.713318
-28.681410 89.143234 412.419250
-28.681410 89.815262 412.419250
-28.681410 90.487289 412.419250
-28.641760 91.033318 411.849152
-28.601294 91.574844 411.267242
-28.601294 92.245003 411.267242
-28.559633 92.779816 410.668182
-28.515806 93.305595 410.037994
-28.515806 93.973740 410.037994
-28.226620 93.682106 405.879700
-28.028292 93.680595 403.027863
-28.028292 94.337326 403.027863
-27.722374 93.957237 398.628998
-27.411066 93.544411 394.152588
-27.411066 94.186676 394.152588
-27.118801 93.817848 389.950012
-26.984659 93.986046 388.021118
-26.984659 94.618332 388.021118
-26.905748 94.972069 386.886444
-26.881351 95.515808 386.535645
-26.881351 96.145660 386.535645
-26.621672 95.840645 382.801605
-26.353594 95.493027 378.946838
-26.353594 96.110512 378.946838
-25.383671 93.167999 365.000000
-25.383671 93.762764 365.000000
-25.383671 94.357529 365.000000
-25.383671 94.952293 365.000000
-25.383671 95.547050 365.000000
-25.244581 95.615013 363.000000
-25.244581 96.206520 363.000000
-25.175037 96.531357 362.000000
-25.105492 96.852951 361.000000
-25.105492 97.441193 361.000000
-25.035950 97.757889 360.000000
-24.966406 98.071320 359.000000
-24.966406 98.656303 359.000000
-24.896860 98.964859 358.000000
-24.896860 99.548218 358.000000
-24.896860 100.131569 358.000000
-24.896860 100.714928 358.000000
-24.827316 101.015327 357.000000
-24.827316 101.597054 357.000000
-24.057640 99.011124 345.932587
-23.785057 98.446587 342.013031
-23.785057 99.003899 342.013031
-23.717039 99.276482 341.034973
-23.285109 98.014069 334.824097
-23.285109 98.559654 334.824097
-22.888350 97.416580 329.118958
-22.579382 96.630623 324.676239
-22.579382 97.159683 324.676239
-22.279324 96.390541 320.361603
-22.232727 96.709885 319.691589
-22.232727 97.230820 319.691589
-21.902494 96.299797 314.943054
-21.676306 95.813194 311.690613
-21.676306 96.321091 311.690613
-21.403683 95.611168 307.770477
-20.654657 92.749199 297.000000
-20.654657 93.233154 297.000000
-20.585114 93.401566 296.000000
-20.515570 93.566727 295.000000
-20.515570 94.047424 295.000000
-20.515570 94.528122 295.000000
-20.515570 95.008820 295.000000
-20.515570 95.489517 295.000000
-20.446026 95.644890 294.000000
-20.446026 96.123962 294.000000
-20.446026 96.603035 294.000000
-20.446026 97.082100 294.000000
-20.376482 97.229324 293.000000
-20.376482 97.706764 293.000000
-20.306936 97.849113 292.000000
-20.306936 98.324921 292.000000
-20.306936 98.800735 292.000000
-20.237392 98.936554 291.000000
-20.167849 99.069115 290.000000
-20.167849 99.541664 290.000000
-20.217813 108.315285 290.718475
-20.217813 108.789009 290.718475
-20.217813 109.262726 290.718475
-20.217812 109.736435 290.718445
-20.217812 110.210159 290.718445
-20.217812 110.683884 290.718445
-20.217655 111.156738 290.716187
-20.217655 111.630447 290.716187
-20.217642 112.104095 290.716003
-20.217611 112.577644 290.715546
-20.217611 113.051361 290.715546
-20.217562 113.524803 290.714844
-20.217676 113.999161 290.716492
-20.217676 114.472885 290.716492
-20.217676 114.946594 290.716492
-20.217531 115.419495 290.714417
-20.217531 115.893211 290.714417
-20.217531 116.366920 290.714417
-20.217485 116.840378 290.713745
-20.217516 117.314270 290.714203
-20.217516 117.787987 290.714203
-20.217516 118.261703 290.714203
-20.217381 118.734619 290.712250
-20.217381 119.208328 290.712250
-20.210304 142.843918 290.610504
-20.210669 143.320053 290.615753
-20.210669 143.793610 290.615753
-20.210669 144.267166 290.615753
-20.210468 144.739273 290.612854
-20.210526 148.528091 290.613678
-20.210546 149.475357 290.613983
-20.210535 149.948822 290.613831
-20.210554 150.896072 290.614105
-20.210541 151.369507 290.613892
-20.210541 152.316620 290.613892
-20.210541 152.790161 290.613892
-20.210541 153.737274 290.613892
-20.210592 155.158340 290.614655
-29.135889 63.367256 429.001678
-29.135889 64.066307 429.001678
-29.271606 65.067039 431.000000
-29.271606 65.769348 431.000000
-29.271606 66.471657 431.000000
-29.271606 67.173965 431.000000
-29.203693 67.718796 430.000000
-29.203693 68.419472 430.000000
-29.135775 68.959412 429.000000
-28.999945 69.333710 427.000000
-28.999945 70.029503 427.000000
-28.932030 70.559662 426.000000
-28.864113 71.086555 425.000000
-28.864113 71.779091 425.000000
-28.796198 72.301102 424.000000
-28.728281 72.819855 423.000000
-28.728281 73.509125 423.000000
-28.592449 73.847580 421.000000
-28.904863 75.347977 425.600006
-28.904863 76.041489 425.600006
-28.904863 76.735001 425.600006
-28.868187 77.330261 425.059998
-28.868187 78.022888 425.059998
-28.720007 78.311478 422.878174
-28.611153 78.701118 421.275360
-28.611153 79.387589 421.275360
-28.466095 79.668068 419.139496
-28.430254 80.249893 418.611786
-28.430254 80.932007 418.611786
-28.396879 81.518326 418.120361
-28.366163 82.110733 417.668091
-28.366163 82.791321 417.668091
-28.338306 83.389931 417.257935
-28.318758 84.011856 416.970093
-28.302929 84.643959 416.737030
-28.302929 85.323029 416.737030
-27.573717 83.786301 406.000000
-27.505802 84.239868 405.000000
-27.505802 84.899811 405.000000
-28.008343 87.122963 412.399506
-28.008343 87.794968 412.399506
-28.008343 88.466965 412.399506
-27.234140 86.674988 401.000000
-27.526175 88.264854 405.299988
-27.526175 88.925278 405.299988
-27.526175 89.585716 405.299988
-27.487467 90.119232 404.730011
-27.487467 90.778732 404.730011
-27.518663 91.542015 405.189362
-27.518663 92.202271 405.189362
-27.518663 92.862518 405.189362
-27.438791 93.251328 404.013336
-27.288744 93.396118 401.803986
-27.288744 94.050850 401.803986
-27.073111 93.957237 398.628998
-26.769093 93.544411 394.152588
-26.769093 94.186676 394.152588
-26.483673 93.817848 389.950012
-26.352671 93.986046 388.021118
-26.352671 94.618332 388.021118
-26.275610 94.972069 386.886444
-26.251785 95.515808 386.535645
-26.251785 96.145660 386.535645
-25.998186 95.840645 382.801605
-25.700371 95.359390 378.416534
-25.700371 95.976013 378.416534
-24.789179 93.167999 365.000000
-24.789179 93.762764 365.000000
-24.789179 94.357529 365.000000
-24.789179 94.952293 365.000000
-24.789179 95.547050 365.000000
-24.653349 95.615013 363.000000
-24.653349 96.206520 363.000000
-24.585432 96.531357 362.000000
-24.517517 96.852951 361.000000
-24.517517 97.441193 361.000000
-24.449602 97.757889 360.000000
-24.381687 98.071320 359.000000
-24.381687 98.656303 359.000000
-24.313772 98.964859 358.000000
-24.313772 99.548218 358.000000
-24.313772 100.131569 358.000000
-24.313772 100.714928 358.000000
-24.245855 101.015327 357.000000
-24.245855 101.597054 357.000000
-24.110023 101.606346 355.000000
-23.434557 99.322006 345.054321
-23.434557 99.884270 345.054321
-23.161581 99.276482 341.034973
-22.739765 98.014069 334.824097
-22.739765 98.559654 334.824097
-22.591690 98.459900 332.643799
-22.285309 97.659309 328.132599
-22.285309 98.194000 328.132599
-21.987770 97.410522 323.751587
-21.712032 96.709885 319.691589
-21.712032 97.230820 319.691589
-21.389534 96.299797 314.943054
-21.168642 95.813194 311.690613
-21.168642 96.321091 311.690613
-21.132492 96.663628 311.158325
-20.958694 96.371513 308.599304
-20.958694 96.874367 308.599304
-20.103006 93.401566 296.000000
-20.035091 93.566727 295.000000
-20.035091 94.047424 295.000000
-20.035091 94.528122 295.000000
-20.035091 95.008820 295.000000
-20.035091 95.489517 295.000000
-20.035091 95.970215 295.000000
-19.967175 96.123962 294.000000
-19.967175 96.603035 294.000000
-19.967175 97.082100 294.000000
-19.899260 97.229324 293.000000
-19.899260 97.706764 293.000000
-19.899260 98.184204 293.000000
-19.831345 98.324921 292.000000
-19.831345 98.800735 292.000000
-19.831345 99.276543 292.000000
-19.763428 99.410736 291.000000
-19.763428 99.884911 291.000000
-19.695513 100.014214 290.000000
-19.743973 113.524300 290.713531
-19.743973 113.998009 290.713531
-19.743973 114.471718 290.713531
-19.743954 114.945320 290.713257
-19.743891 115.418663 290.712311
-19.743891 115.892372 290.712311
-19.743891 116.366081 290.712311
-19.743843 116.839523 290.711639
-19.743877 117.313438 290.712128
-19.743877 117.787148 290.712128
-19.743885 118.260910 290.712250
-19.743885 118.734619 290.712250
-19.743885 119.208328 290.712250
-19.737331 143.320053 290.615753
-19.737331 143.793610 290.615753
-19.737331 144.267166 290.615753
-19.737310 144.740555 290.615417
-19.737310 145.214111 290.615417
-19.737310 145.687668 290.615417
-28.569618 63.662422 431.000000
-28.569618 64.364731 431.000000
-28.569618 65.067039 431.000000
-28.569618 65.769348 431.000000
-28.569618 66.471657 431.000000
-28.503334 67.018120 430.000000
-28.437046 67.561310 429.000000
-28.437046 68.260361 429.000000
-28.370760 68.798660 428.000000
-28.304472 69.333710 427.000000
-28.304472 70.029503 427.000000
-28.171898 70.394028 425.000000
-28.171898 71.086555 425.000000
-28.171898 71.779091 425.000000
-28.039324 72.130585 423.000000
-27.973038 72.647705 422.000000
-27.973038 73.335342 422.000000
-27.906750 73.847580 421.000000
-27.774176 74.179512 419.000000
-27.774176 74.862274 419.000000
-27.774176 75.545029 419.000000
-27.575317 75.681999 416.000000
-27.575317 76.359863 416.000000
-27.575317 77.037735 416.000000
-27.509031 77.528778 415.000000
-27.509031 78.205017 415.000000
-27.442743 78.691177 414.000000
-27.376457 79.174088 413.000000
-27.376457 79.847061 413.000000
-27.310169 80.325073 412.000000
-27.243883 80.799828 411.000000
-27.243883 81.469551 411.000000
-27.177595 81.939415 410.000000
-27.045021 82.204544 408.000000
-26.912447 82.463158 406.000000
-26.912447 83.124725 406.000000
-26.912447 83.786301 406.000000
-26.846163 84.239868 405.000000
-26.846163 84.899811 405.000000
-26.779873 85.348495 404.000000
-26.647301 85.581032 402.000000
-26.647301 86.236084 402.000000
-26.581015 86.674988 401.000000
-26.866047 88.264854 405.299988
-26.866047 88.925278 405.299988
-26.866047 89.585716 405.299988
-26.828264 90.119232 404.730011
-26.828264 90.778732 404.730011
-26.858715 91.542015 405.189362
-26.858715 92.202271 405.189362
-26.858715 92.862518 405.189362
-26.780758 93.251328 404.013336
-25.984434 91.117264 392.000000
-25.984434 91.756020 392.000000
-25.918146 92.159073 391.000000
-25.851860 92.558876 390.000000
-25.851860 93.194374 390.000000
-25.848545 93.817848 389.950012
-25.720686 93.986046 388.021118
-25.720686 94.618332 388.021118
-25.645472 94.972069 386.886444
-25.641661 95.588287 386.828949
-25.641661 96.218620 386.828949
-25.431784 96.056244 383.662750
-25.084028 95.359390 378.416534
-25.084028 95.976013 378.416534
-24.707182 95.141495 372.731445
-24.194689 93.762764 365.000000
-24.194689 94.357529 365.000000
-24.194689 94.952293 365.000000
-24.194689 95.547050 365.000000
-24.062115 95.615013 363.000000
-24.062115 96.206520 363.000000
-23.995829 96.531357 362.000000
-23.929541 96.852951 361.000000
-23.929541 97.441193 361.000000
-23.863256 97.757889 360.000000
-23.796968 98.071320 359.000000
-23.796968 98.656303 359.000000
-23.730682 98.964859 358.000000
-23.730682 99.548218 358.000000
-23.730682 100.131569 358.000000
-23.730682 100.714928 358.000000
-23.664394 101.015327 357.000000
-23.664394 101.597054 357.000000
-23.531820 101.606346 355.000000
-22.872553 99.322006 345.054321
-22.872553 99.884270 345.054321
-22.809340 100.168922 344.100677
-22.430773 99.057823 338.389648
-22.430773 99.609222 338.389648
-22.049900 98.459900 332.643799
-21.750868 97.659309 328.132599
-21.750868 98.194000 328.132599
-21.460463 97.410522 323.751587
-21.425125 97.776802 323.218475
-21.425125 98.303482 323.218475
-21.107468 97.364876 318.426331
-20.886726 96.860077 315.096222
-20.886726 97.373520 315.096222
-20.625696 96.663628 311.158325
-20.456066 96.371513 308.599304
-20.456066 96.874367 308.599304
-19.620899 93.401566 296.000000
-19.554613 93.566727 295.000000
-19.554613 94.047424 295.000000
-19.554613 94.528122 295.000000
-19.554613 95.008820 295.000000
-19.554613 95.489517 295.000000
-19.554613 95.970215 295.000000
-19.488325 96.123962 294.000000
-19.488325 96.603035 294.000000
-19.488325 97.082100 294.000000
-19.422039 97.229324 293.000000
-19.422039 97.706764 293.000000
-19.422039 98.184204 293.000000
-19.355751 98.324921 292.000000
-19.355751 98.800735 292.000000
-19.355751 99.276543 292.000000
-19.289465 99.410736 291.000000
-19.289465 99.884911 291.000000
-19.223177 100.014214 290.000000
-19.270475 113.524300 290.713531
-19.270475 113.998009 290.713531
-19.270475 114.471718 290.713531
-19.270458 114.945320 290.713257
-19.270393 115.418663 290.712311
-19.270393 115.892372 290.712311
-19.270393 116.366081 290.712311
-19.270350 116.839523 290.711639
-19.270382 117.313438 290.712128
-19.270382 117.787148 290.712128
-19.270391 118.260910 290.712250
-19.270391 118.734619 290.712250
-19.270391 119.208328 290.712250
-19.263994 143.320053 290.615753
-19.263994 143.793610 290.615753
-19.263994 144.267166 290.615753
-19.263996 144.740723 290.615784
-19.263996 145.214279 290.615784
-19.263996 145.687851 290.615784
-19.263922 146.160828 290.614655
-19.263847 152.316422 290.613525
-19.263819 152.789749 290.613098
-19.263990 155.632446 290.615692
-27.867632 63.662422 431.000000
-27.867632 64.364731 431.000000
-27.867632 65.067039 431.000000
-27.867632 65.769348 431.000000
-27.867632 66.471657 431.000000
-27.802975 67.018120 430.000000
-27.738316 67.561310 429.000000
-27.738316 68.260361 429.000000
-27.673658 68.798660 428.000000
-27.608999 69.333710 427.000000
-27.608999 70.029503 427.000000
-27.479683 70.394028 425.000000
-27.479683 71.086555 425.000000
-27.479683 71.779091 425.000000
-27.350367 72.130585 423.000000
-27.221050 72.475548 421.000000
-27.221050 73.161560 421.000000
-27.156393 73.672173 420.000000
-27.091734 74.179512 419.000000
-27.091734 74.862274 419.000000
-27.027077 75.364723 418.000000
-26.897760 75.681999 416.000000
-26.897760 76.359863 416.000000
-26.897760 77.037735 416.000000
-26.833103 77.528778 415.000000
-26.833103 78.205017 415.000000
-26.768444 78.691177 414.000000
-26.703787 79.174088 413.000000
-26.703787 79.847061 413.000000
-26.639128 80.325073 412.000000
-26.574469 80.799828 411.000000
-26.574469 81.469551 411.000000
-26.445152 81.739571 409.000000
-26.380495 82.204544 408.000000
-26.251181 82.463158 406.000000
-26.251181 83.124725 406.000000
-26.186522 83.579926 405.000000
-26.186522 84.239868 405.000000
-26.186522 84.899811 405.000000
-26.057205 85.137238 403.000000
-25.992548 85.581032 402.000000
-25.992548 86.236084 402.000000
-25.927889 86.674988 401.000000
-25.863232 87.110634 400.000000
-25.863232 87.762436 400.000000
-25.798573 88.193199 399.000000
-26.129791 89.983994 404.122620
-26.129791 90.642502 404.122620
-26.129791 91.301010 404.122620
-26.088284 91.813446 403.480652
-26.088284 92.470909 403.480652
-26.017941 92.877274 402.392731
-25.281309 90.884819 391.000000
-25.281309 91.521950 391.000000
-25.281309 92.159073 391.000000
-25.216650 92.558876 390.000000
-25.216650 93.194374 390.000000
-25.151993 93.589287 389.000000
-25.022676 93.738716 387.000000
-25.022676 94.369331 387.000000
-25.011616 94.957947 386.828949
-25.011616 95.588287 386.828949
-25.011616 96.218620 386.828949
-24.806894 96.056244 383.662750
-24.445711 95.273743 378.076660
-24.445711 95.889809 378.076660
-24.100100 95.141495 372.731445
-23.600199 93.762764 365.000000
-23.600199 94.357529 365.000000
-23.600199 94.952293 365.000000
-23.600199 95.547050 365.000000
-23.470882 95.615013 363.000000
-23.470882 96.206520 363.000000
-23.406223 96.531357 362.000000
-23.341566 96.852951 361.000000
-23.341566 97.441193 361.000000
-23.276909 97.757889 360.000000
-23.212250 98.071320 359.000000
-23.212250 98.656303 359.000000
-23.147593 98.964859 358.000000
-23.147593 99.548218 358.000000
-23.147593 100.131569 358.000000
-23.147593 100.714928 358.000000
-23.082933 101.015327 357.000000
-23.082933 101.597054 357.000000
-22.953617 101.606346 355.000000
-22.888960 101.896973 354.000000
-22.888960 102.473816 354.000000
-22.248888 100.168922 344.100677
-22.097336 100.043488 341.756775
-22.097336 100.600380 341.756775
-21.745752 99.547783 336.319183
-21.447517 98.723038 331.706696
-21.447517 99.263550 331.706696
-21.162386 98.477219 327.296844
-20.898685 97.776802 323.218475
-20.898685 98.303482 323.218475
-20.588835 97.364876 318.426331
-20.541872 97.660477 317.700012
-20.541872 98.178169 317.700012
-20.387245 97.952934 315.308563
-20.387245 98.466728 315.308563
-20.387245 98.980515 315.308563
-20.176256 98.464630 312.045410
-19.074133 93.566727 295.000000
-19.074133 94.047424 295.000000
-19.074133 94.528122 295.000000
-19.074133 95.008820 295.000000
-19.074133 95.489517 295.000000
-19.074133 95.970215 295.000000
-19.074133 96.450912 295.000000
-19.074133 96.931618 295.000000
-19.009476 97.082100 294.000000
-19.009476 97.561172 294.000000
-19.009476 98.040237 294.000000
-18.944817 98.184204 293.000000
-18.944817 98.661644 293.000000
-18.944817 99.139084 293.000000
-18.880159 99.276543 292.000000
-18.815500 99.410736 291.000000
-18.815500 99.884911 291.000000
-18.750843 100.014214 290.000000
-18.796959 113.997894 290.713257
-18.796959 114.471611 290.713257
-18.796959 114.945320 290.713257
-18.796892 115.418617 290.712189
-18.796892 115.892326 290.712189
-18.796892 116.366035 290.712189
-18.796785 116.839096 290.710571
-18.790657 143.320053 290.615753
-18.790657 143.793610 290.615753
-18.790657 144.267166 290.615753
-18.790657 144.740723 290.615784
-18.790657 145.214279 290.615784
-18.790657 145.687851 290.615784
-18.790585 146.160828 290.614655
-18.790804 155.633698 290.618042
-27.165644 63.662422 431.000000
-27.165644 64.364731 431.000000
-27.165644 65.067039 431.000000
-27.165644 65.769348 431.000000
-27.165644 66.471657 431.000000
-27.102615 67.018120 430.000000
-27.039585 67.561310 429.000000
-27.039585 68.260361 429.000000
-26.976557 68.798660 428.000000
-26.913527 69.333710 427.000000
-26.913527 70.029503 427.000000
-26.787468 70.394028 425.000000
-26.724440 70.919296 424.000000
-26.724440 71.610199 424.000000
-26.661409 72.130585 423.000000
-26.535351 72.475548 421.000000
-26.535351 73.161560 421.000000
-26.472322 73.672173 420.000000
-26.409292 74.179512 419.000000
-26.409292 74.862274 419.000000
-26.346262 75.364723 418.000000
-26.220203 75.681999 416.000000
-26.220203 76.359863 416.000000
-26.220203 77.037735 416.000000
-26.157175 77.528778 415.000000
-26.157175 78.205017 415.000000
-26.094145 78.691177 414.000000
-26.031115 79.174088 413.000000
-26.031115 79.847061 413.000000
-25.905056 80.130112 411.000000
-25.905056 80.799828 411.000000
-25.905056 81.469551 411.000000
-25.778997 81.739571 409.000000
-25.715969 82.204544 408.000000
-25.589911 82.463158 406.000000
-25.589911 83.124725 406.000000
-25.526882 83.579926 405.000000
-25.526882 84.239868 405.000000
-25.526882 84.899811 405.000000
-25.400824 85.137238 403.000000
-25.274763 85.368141 401.000000
-25.274763 86.021568 401.000000
-25.211735 86.458839 400.000000
-25.148705 86.892868 399.000000
-25.148705 87.543030 399.000000
-25.085676 87.972160 398.000000
-25.022646 88.398026 397.000000
-25.022646 89.044937 397.000000
-24.896587 89.239998 395.000000
-24.833557 89.656090 394.000000
-24.833557 90.298103 394.000000
-24.770529 90.709312 393.000000
-24.644470 90.884819 391.000000
-24.644470 91.521950 391.000000
-24.644470 92.159073 391.000000
-24.581442 92.558876 390.000000
-24.581442 93.194374 390.000000
-24.518412 93.589287 389.000000
-24.392353 93.738716 387.000000
-24.392353 94.369331 387.000000
-24.381573 94.957947 386.828949
-24.381573 95.588287 386.828949
-24.381573 96.218620 386.828949
-24.182009 96.056244 383.662750
-23.829920 95.273743 378.076660
-23.829920 95.889809 378.076660
-23.493015 95.141495 372.731445
-23.005707 93.762764 365.000000
-23.005707 94.357529 365.000000
-23.005707 94.952293 365.000000
-23.005707 95.547050 365.000000
-22.879648 95.615013 363.000000
-22.879648 96.206520 363.000000
-22.816620 96.531357 362.000000
-22.753590 96.852951 361.000000
-22.753590 97.441193 361.000000
-22.690561 97.757889 360.000000
-22.627533 98.071320 359.000000
-22.627533 98.656303 359.000000
-22.564503 98.964859 358.000000
-22.564503 99.548218 358.000000
-22.564503 100.131569 358.000000
-22.564503 100.714928 358.000000
-22.438444 100.732368 356.000000
-22.438444 101.312469 356.000000
-22.312386 101.320137 354.000000
-22.312386 101.896973 354.000000
-22.312386 102.473816 354.000000
-22.249355 102.759544 353.000000
-21.540703 100.043488 341.756775
-21.540703 100.600380 341.756775
-21.197975 99.547783 336.319183
-21.091581 99.593430 334.631195
-21.091581 100.138710 334.631195
-20.808039 99.330452 330.132599
-20.545933 98.610413 325.974121
-20.545933 99.141579 325.974121
-20.241552 98.196152 321.144958
-20.024422 97.660477 317.700012
-20.024422 98.178169 317.700012
-19.873690 97.952934 315.308563
-19.873690 98.466728 315.308563
-19.873690 98.980515 315.308563
-19.722075 98.735268 312.903076
-18.593655 93.566727 295.000000
-18.593655 94.047424 295.000000
-18.656685 94.848549 296.000000
-18.656685 95.330879 296.000000
-18.656685 95.813210 296.000000
-18.593655 95.970215 295.000000
-18.593655 96.450912 295.000000
-18.593655 96.931618 295.000000
-18.530626 97.082100 294.000000
-18.530626 97.561172 294.000000
-18.530626 98.040237 294.000000
-18.530626 98.519310 294.000000
-18.467596 98.661644 293.000000
-18.467596 99.139084 293.000000
-18.404566 99.276543 292.000000
-18.404566 99.752350 292.000000
-18.404566 100.228165 292.000000
-18.341537 100.359093 291.000000
-18.278507 100.486771 290.000000
-18.323364 114.471001 290.711700
-18.323364 114.944710 290.711700
-18.323391 115.418579 290.712097
-18.323391 115.892288 290.712097
-18.323391 116.365997 290.712097
-18.317318 143.320053 290.615753
-18.317318 143.793610 290.615753
-18.317318 144.267166 290.615753
-18.317320 144.740723 290.615784
-18.317320 145.214279 290.615784
-18.317320 145.687851 290.615784
-18.317249 146.160828 290.614655
-18.317194 146.633942 290.613770
-26.463655 62.960114 431.000000
-26.463655 63.662422 431.000000
-26.463655 64.364731 431.000000
-26.402256 64.916077 430.000000
-26.402256 65.616760 430.000000
-26.402256 66.317436 430.000000
-26.340855 66.862259 429.000000
-26.279453 67.403824 428.000000
-26.279453 68.101242 428.000000
-26.279453 68.798660 428.000000
-26.156652 69.171341 426.000000
-26.156652 69.865501 426.000000
-26.095251 70.394028 425.000000
-25.972452 70.752037 423.000000
-25.972452 71.441307 423.000000
-25.911051 71.960060 422.000000
-25.849651 72.475548 421.000000
-25.849651 73.161560 421.000000
-25.726849 73.496758 419.000000
-25.665449 74.002472 418.000000
-25.665449 74.683601 418.000000
-25.604048 75.184425 417.000000
-25.542646 75.681999 416.000000
-25.542646 76.359863 416.000000
-25.542646 77.037735 416.000000
-25.481247 77.528778 415.000000
-25.481247 78.205017 415.000000
-25.419846 78.691177 414.000000
-25.358446 79.174088 413.000000
-25.358446 79.847061 413.000000
-25.235643 80.130112 411.000000
-25.235643 80.799828 411.000000
-25.235643 81.469551 411.000000
-25.112843 81.739571 409.000000
-25.051441 82.204544 408.000000
-24.928642 82.463158 406.000000
-24.928642 83.124725 406.000000
-24.867241 83.579926 405.000000
-24.867241 84.239868 405.000000
-24.867241 84.899811 405.000000
-24.744440 85.137238 403.000000
-24.621639 85.368141 401.000000
-24.621639 86.021568 401.000000
-24.560238 86.458839 400.000000
-24.498837 86.892868 399.000000
-24.498837 87.543030 399.000000
-24.376036 87.751122 397.000000
-24.314634 88.175369 396.000000
-24.314634 88.820641 396.000000
-24.253235 89.239998 395.000000
-24.191833 89.656090 394.000000
-24.191833 90.298103 394.000000
-24.069035 90.478500 392.000000
-24.007633 90.884819 391.000000
-24.007633 91.521950 391.000000
-23.946232 91.923370 390.000000
-23.946232 92.558876 390.000000
-23.946232 93.194374 390.000000
-23.823431 93.348694 388.000000
-23.762030 93.738716 387.000000
-23.762030 94.369331 387.000000
-23.700630 94.754463 386.000000
-23.700630 95.383446 386.000000
-23.700630 96.012428 386.000000
-23.393791 95.390244 381.002686
-23.214132 95.273743 378.076660
-23.214132 95.889809 378.076660
-22.889643 95.156921 372.791870
-22.756927 95.209137 370.630432
-22.756927 95.813072 370.630432
-22.411217 94.952293 365.000000
-22.411217 95.547050 365.000000
-22.349815 95.878418 364.000000
-22.349815 96.471550 364.000000
-22.227015 96.531357 362.000000
-22.227015 97.121231 362.000000
-22.227015 97.711105 362.000000
-22.165613 98.029434 361.000000
-22.042814 98.071320 359.000000
-22.042814 98.656303 359.000000
-21.981413 98.964859 358.000000
-21.981413 99.548218 358.000000
-21.981413 100.131569 358.000000
-21.920013 100.433601 357.000000
-21.858612 100.732368 356.000000
-21.858612 101.312469 356.000000
-21.735811 101.320137 354.000000
-21.735811 101.896973 354.000000
-21.735811 102.473816 354.000000
-21.674410 102.759544 353.000000
-20.984068 100.043488 341.756775
-20.984068 100.600380 341.756775
-20.650198 99.547783 336.319183
-20.546555 99.593430 334.631195
-20.546555 100.138710 334.631195
-20.270338 99.330452 330.132599
-20.015005 98.610413 325.974121
-20.015005 99.141579 325.974121
-19.844151 98.821922 323.191528
-19.630583 98.279335 319.713226
-19.630583 98.800308 319.713226
-19.409561 98.203018 316.113586
-19.409561 98.718117 316.113586
-19.409561 99.233223 316.113586
-19.212435 98.735268 312.903076
-18.235975 94.201073 297.000000
-18.235975 94.685028 297.000000
-18.235975 95.168983 297.000000
-18.174578 95.330879 296.000000
-18.174578 95.813210 296.000000
-18.113176 95.970215 295.000000
-18.113176 96.450912 295.000000
-18.113176 96.931618 295.000000
-18.051775 97.082100 294.000000
-18.051775 97.561172 294.000000
-18.051775 98.040237 294.000000
-18.051775 98.519310 294.000000
-17.990376 98.661644 293.000000
-17.990376 99.139084 293.000000
-17.928974 99.276543 292.000000
-17.928974 99.752350 292.000000
-17.928974 100.228165 292.000000
-17.867573 100.359093 291.000000
-17.806173 100.486771 290.000000
-17.806173 100.959320 290.000000
-17.806173 101.431870 290.000000
-17.806173 101.904419 290.000000
-17.849882 115.418488 290.711884
-17.849882 115.892212 290.711884
-17.849882 116.365921 290.711884
-17.843878 145.213440 290.614075
-17.843878 145.686996 290.614075
-17.843878 146.160538 290.614075
-17.843859 146.633942 290.613770
-17.843842 147.107346 290.613495
-25.761669 62.960114 431.000000
-25.761669 63.662422 431.000000
-25.761669 64.364731 431.000000
-25.701897 64.916077 430.000000
-25.701897 65.616760 430.000000
-25.701897 66.317436 430.000000
-25.642124 66.862259 429.000000
-25.582354 67.403824 428.000000
-25.582354 68.101242 428.000000
-25.582354 68.798660 428.000000
-25.462809 69.171341 426.000000
-25.462809 69.865501 426.000000
-25.403036 70.394028 425.000000
-25.283495 70.752037 423.000000
-25.283495 71.441307 423.000000
-25.223722 71.960060 422.000000
-25.163950 72.475548 421.000000
-25.163950 73.161560 421.000000
-25.044407 73.496758 419.000000
-24.984634 74.002472 418.000000
-24.984634 74.683601 418.000000
-24.924862 75.184425 417.000000
-24.865091 75.681999 416.000000
-24.865091 76.359863 416.000000
-24.805319 76.852547 415.000000
-24.805319 77.528778 415.000000
-24.805319 78.205017 415.000000
-24.745546 78.691177 414.000000
-24.626003 78.982376 412.000000
-24.626003 79.653725 412.000000
-24.566231 80.130112 411.000000
-24.506458 80.603233 410.000000
-24.506458 81.271324 410.000000
-24.446688 81.739571 409.000000
-24.386915 82.204544 408.000000
-24.267372 82.463158 406.000000
-24.267372 83.124725 406.000000
-24.207602 83.579926 405.000000
-24.147829 84.031868 404.000000
-24.147829 84.690178 404.000000
-24.088057 85.137238 403.000000
-23.968513 85.368141 401.000000
-23.968513 86.021568 401.000000
-23.908741 86.458839 400.000000
-23.848969 86.892868 399.000000
-23.848969 87.543030 399.000000
-23.729425 87.751122 397.000000
-23.669653 88.175369 396.000000
-23.669653 88.820641 396.000000
-23.609882 89.239998 395.000000
-23.550110 89.656090 394.000000
-23.550110 90.298103 394.000000
-23.430567 90.478500 392.000000
-23.370794 90.884819 391.000000
-23.370794 91.521950 391.000000
-23.311024 91.923370 390.000000
-23.251251 92.321548 389.000000
-23.251251 92.955414 389.000000
-23.191479 93.348694 388.000000
-23.071936 93.496498 386.000000
-23.071936 94.125481 386.000000
-23.071936 94.754463 386.000000
-23.071936 95.383446 386.000000
-23.071936 96.012428 386.000000
-22.795074 95.481720 381.368042
-22.610205 95.323753 378.275116
-22.610205 95.940147 378.275116
-22.282459 95.156921 372.791870
-22.153269 95.209137 370.630432
-22.153269 95.813072 370.630432
-21.876497 95.212433 366.000000
-21.876497 95.808830 366.000000
-21.756954 95.878418 364.000000
-21.756954 96.471550 364.000000
-21.697182 96.798019 363.000000
-21.637409 97.121231 362.000000
-21.637409 97.711105 362.000000
-21.577639 98.029434 361.000000
-21.458096 98.071320 359.000000
-21.458096 98.656303 359.000000
-21.458096 99.241295 359.000000
-21.398323 99.548218 358.000000
-21.398323 100.131569 358.000000
-21.338552 100.433601 357.000000
-21.278780 100.732368 356.000000
-21.278780 101.312469 356.000000
-21.159237 101.320137 354.000000
-21.159237 101.896973 354.000000
-21.159237 102.473816 354.000000
-21.099464 102.759544 353.000000
-20.325935 99.546394 340.058655
-20.325935 100.100517 340.058655
-20.099161 99.531639 336.264648
-20.001528 99.593430 334.631195
-20.001528 100.138710 334.631195
-19.845085 99.896484 332.013885
-19.598341 99.188705 327.885773
-19.598341 99.722992 327.885773
-19.317757 98.821922 323.191528
-19.109852 98.279335 319.713226
-19.109852 98.800308 319.713226
-19.073048 99.129982 319.097473
-18.927629 98.890190 316.664581
-18.927629 99.406189 316.664581
-18.702797 98.735268 312.903076
-18.440817 97.854958 308.520081
-18.440817 98.357689 308.520081
-17.812012 95.489426 298.000000
-17.752239 95.652946 297.000000
-17.752239 96.136902 297.000000
-17.752239 96.620857 297.000000
-17.632698 96.450912 295.000000
-17.632698 96.931618 295.000000
-17.632698 97.412315 295.000000
-17.632698 97.893013 295.000000
-17.632698 98.373711 295.000000
-17.572926 98.519310 294.000000
-17.572926 98.998375 294.000000
-17.572926 99.477448 294.000000
-17.513153 99.616524 293.000000
-17.453381 99.752350 292.000000
-17.453381 100.228165 292.000000
-17.393610 100.359093 291.000000
-17.333838 100.486771 290.000000
-17.333838 100.959320 290.000000
-17.333838 101.431870 290.000000
-17.333838 101.904419 290.000000
-17.376389 115.418488 290.711884
-17.376389 115.892212 290.711884
-17.376389 116.365921 290.711884
-17.370541 145.213440 290.614075
-17.370541 145.686996 290.614075
-17.370541 146.160538 290.614075
-17.370523 146.633942 290.613770
-17.370462 147.106964 290.612732
-25.059681 62.960114 431.000000
-25.059681 63.662422 431.000000
-25.059681 64.364731 431.000000
-25.001537 64.916077 430.000000
-25.001537 65.616760 430.000000
-25.001537 66.317436 430.000000
-24.943394 66.862259 429.000000
-24.885252 67.403824 428.000000
-24.885252 68.101242 428.000000
-24.827108 68.637924 427.000000
-24.768965 69.171341 426.000000
-24.768965 69.865501 426.000000
-24.710821 70.394028 425.000000
-24.594538 70.752037 423.000000
-24.594538 71.441307 423.000000
-24.536394 71.960060 422.000000
-24.478251 72.475548 421.000000
-24.478251 73.161560 421.000000
-24.361963 73.496758 419.000000
-24.303822 74.002472 418.000000
-24.303822 74.683601 418.000000
-24.245678 75.184425 417.000000
-24.187534 75.681999 416.000000
-24.187534 76.359863 416.000000
-24.129391 76.852547 415.000000
-24.129391 77.528778 415.000000
-24.129391 78.205017 415.000000
-24.071247 78.691177 414.000000
-23.954962 78.982376 412.000000
-23.954962 79.653725 412.000000
-23.896818 80.130112 411.000000
-23.838675 80.603233 410.000000
-23.838675 81.271324 410.000000
-23.780531 81.739571 409.000000
-23.664248 82.003059 407.000000
-23.606104 82.463158 406.000000
-23.606104 83.124725 406.000000
-23.547960 83.579926 405.000000
-23.489817 84.031868 404.000000
-23.489817 84.690178 404.000000
-23.373531 84.925980 402.000000
-23.315388 85.368141 401.000000
-23.315388 86.021568 401.000000
-23.257244 86.458839 400.000000
-23.140959 86.675087 398.000000
-23.140959 87.323624 398.000000
-23.024672 87.530090 396.000000
-23.024672 88.175369 396.000000
-23.024672 88.820641 396.000000
-22.908384 89.014069 394.000000
-22.908384 89.656090 394.000000
-22.908384 90.298103 394.000000
-22.792101 90.478500 392.000000
-22.733957 90.884819 391.000000
-22.733957 91.521950 391.000000
-22.675814 91.923370 390.000000
-22.617670 92.321548 389.000000
-22.617670 92.955414 389.000000
-22.559528 93.348694 388.000000
-22.443241 93.496498 386.000000
-22.443241 94.125481 386.000000
-22.443241 94.754463 386.000000
-22.443241 95.383446 386.000000
-22.443241 96.012428 386.000000
-22.173925 95.481720 381.368042
-21.994091 95.323753 378.275116
-21.994091 95.940147 378.275116
-21.675280 95.156921 372.791870
-21.565865 95.280968 370.910065
-21.565865 95.885361 370.910065
-21.280378 95.212433 366.000000
-21.280378 95.808830 366.000000
-21.164093 95.878418 364.000000
-21.164093 96.471550 364.000000
-21.105949 96.798019 363.000000
-21.047806 97.121231 362.000000
-21.047806 97.711105 362.000000
-20.989662 98.029434 361.000000
-20.873377 98.071320 359.000000
-20.873377 98.656303 359.000000
-20.873377 99.241295 359.000000
-20.815235 99.548218 358.000000
-20.815235 100.131569 358.000000
-20.757092 100.433601 357.000000
-20.698948 100.732368 356.000000
-20.698948 101.312469 356.000000
-20.582661 101.320137 354.000000
-20.582661 101.896973 354.000000
-20.582661 102.473816 354.000000
-20.524519 102.759544 353.000000
-19.772068 99.546394 340.058655
-19.772068 100.100517 340.058655
-19.551472 99.531639 336.264648
-19.478491 99.706001 335.009430
-19.478491 100.251900 335.009430
-19.304321 99.896484 332.013885
-19.266565 100.241066 331.364532
-19.266565 100.781021 331.364532
-18.991188 99.872803 326.628357
-18.782209 99.300186 323.034149
-18.782209 99.826561 323.034149
-18.553320 99.129982 319.097473
-18.411863 98.890190 316.664581
-18.411863 99.406189 316.664581
-18.191652 98.727097 312.877197
-18.096041 98.715347 311.232758
-18.096041 99.222504 311.232758
-17.326647 95.489426 298.000000
-17.268503 95.652946 297.000000
-17.268503 96.136902 297.000000
-17.268503 96.620857 297.000000
-17.210361 96.777863 296.000000
-17.210361 97.260193 296.000000
-17.152218 97.412315 295.000000
-17.152218 97.893013 295.000000
-17.152218 98.373711 295.000000
-17.152218 98.854408 295.000000
-17.094076 98.998375 294.000000
-17.094076 99.477448 294.000000
-17.094076 99.956512 294.000000
-17.035933 100.093964 293.000000
-16.977789 100.228165 292.000000
-16.977789 100.703972 292.000000
-16.919645 100.833275 291.000000
-16.861502 100.959320 290.000000
-16.861502 101.431870 290.000000
-16.861502 101.904419 290.000000
-16.861502 102.376976 290.000000
-16.861502 102.849525 290.000000
-16.861502 103.322075 290.000000
-16.902914 115.418640 290.712250
-16.902914 115.892349 290.712250
-16.902914 116.366058 290.712250
-16.897127 146.633423 290.612732
-24.301178 62.814037 430.000000
-24.301178 63.514717 430.000000
-24.301178 64.215401 430.000000
-24.301178 64.916077 430.000000
-24.301178 65.616760 430.000000
-24.301178 66.317436 430.000000
-24.188150 66.706398 428.000000
-24.131636 67.246338 427.000000
-24.131636 67.942131 427.000000
-24.131636 68.637924 427.000000
-24.075121 69.171341 426.000000
-24.075121 69.865501 426.000000
-23.962093 70.228394 424.000000
-23.905579 70.752037 423.000000
-23.905579 71.441307 423.000000
-23.849064 71.960060 422.000000
-23.792551 72.475548 421.000000
-23.792551 73.161560 421.000000
-23.736036 73.672173 420.000000
-23.623007 74.002472 418.000000
-23.623007 74.683601 418.000000
-23.509977 75.004135 416.000000
-23.509977 75.681999 416.000000
-23.509977 76.359863 416.000000
-23.453463 76.852547 415.000000
-23.453463 77.528778 415.000000
-23.453463 78.205017 415.000000
-23.396950 78.691177 414.000000
-23.283920 78.982376 412.000000
-23.283920 79.653725 412.000000
-23.227406 80.130112 411.000000
-23.170891 80.603233 410.000000
-23.170891 81.271324 410.000000
-23.114376 81.739571 409.000000
-23.001348 82.003059 407.000000
-22.944836 82.463158 406.000000
-22.944836 83.124725 406.000000
-22.888321 83.579926 405.000000
-22.888321 84.239868 405.000000
-22.888321 84.899811 405.000000
-22.775291 85.137238 403.000000
-22.662262 85.368141 401.000000
-22.662262 86.021568 401.000000
-22.605747 86.458839 400.000000
-22.549234 86.892868 399.000000
-22.549234 87.543030 399.000000
-22.379690 87.530090 396.000000
-22.323175 87.952698 395.000000
-22.323175 88.596352 395.000000
-22.266661 89.014069 394.000000
-22.210146 89.428535 393.000000
-22.210146 90.068924 393.000000
-22.153633 90.478500 392.000000
-22.097118 90.884819 391.000000
-22.097118 91.521950 391.000000
-22.040606 91.923370 390.000000
-21.984091 92.321548 389.000000
-21.984091 92.955414 389.000000
-21.871061 93.108109 387.000000
-21.814547 93.496498 386.000000
-21.814547 94.125481 386.000000
-21.814547 94.754463 386.000000
-21.814547 95.383446 386.000000
-21.814547 96.012428 386.000000
-21.552774 95.481720 381.368042
-21.377981 95.323753 378.275116
-21.377981 95.940147 378.275116
-21.080200 95.211586 373.006042
-20.969908 95.318062 371.054443
-20.969908 95.922691 371.054443
-20.684259 95.212433 366.000000
-20.684259 95.808830 366.000000
-20.571230 95.878418 364.000000
-20.571230 96.471550 364.000000
-20.514715 96.798019 363.000000
-20.458200 97.121231 362.000000
-20.458200 97.711105 362.000000
-20.458200 98.300980 362.000000
-20.345175 98.344498 360.000000
-20.345175 98.931114 360.000000
-20.288660 99.241295 359.000000
-20.232145 99.548218 358.000000
-20.232145 100.131569 358.000000
-20.175631 100.433601 357.000000
-20.119116 100.732368 356.000000
-20.119116 101.312469 356.000000
-20.006086 101.320137 354.000000
-20.006086 101.896973 354.000000
-20.006086 102.473816 354.000000
-19.949574 102.759544 353.000000
-19.218201 99.546394 340.058655
-19.218201 100.100517 340.058655
-19.127184 100.177940 338.448151
-18.932846 99.706001 335.009430
-18.932846 100.251900 335.009430
-18.763556 99.896484 332.013885
-18.726856 100.241066 331.364532
-18.726856 100.781021 331.364532
-18.459196 99.872803 326.628357
-18.392452 100.042000 325.447357
-18.392452 100.572311 325.447357
-18.174376 99.903854 321.588562
-18.036880 99.668121 319.155670
-18.036880 100.188187 319.155670
-17.829004 99.547577 315.477386
-17.589123 98.715347 311.232758
-17.589123 99.222504 311.232758
-16.841282 95.489426 298.000000
-16.841282 95.975014 298.000000
-16.841282 96.460594 298.000000
-16.784767 96.620857 297.000000
-16.728254 96.777863 296.000000
-16.728254 97.260193 296.000000
-16.671740 97.412315 295.000000
-16.671740 97.893013 295.000000
-16.671740 98.373711 295.000000
-16.671740 98.854408 295.000000
-16.615225 98.998375 294.000000
-16.615225 99.477448 294.000000
-16.615225 99.956512 294.000000
-16.558710 100.093964 293.000000
-16.502197 100.228165 292.000000
-16.502197 100.703972 292.000000
-16.445683 100.833275 291.000000
-16.445683 101.307457 291.000000
-16.445683 101.781639 291.000000
-16.389168 101.904419 290.000000
-16.389168 102.376976 290.000000
-16.389168 102.849525 290.000000
-16.389168 103.322075 290.000000
-16.429420 115.418640 290.712250
-16.429420 115.892349 290.712250
-16.429420 116.366058 290.712250
-23.600821 62.814037 430.000000
-23.600821 63.514717 430.000000
-23.600821 64.215401 430.000000
-23.600821 64.916077 430.000000
-23.600821 65.616760 430.000000
-23.600821 66.317436 430.000000
-23.491049 66.706398 428.000000
-23.436163 67.246338 427.000000
-23.436163 67.942131 427.000000
-23.436163 68.637924 427.000000
-23.381277 69.171341 426.000000
-23.381277 69.865501 426.000000
-23.271507 70.228394 424.000000
-23.216621 70.752037 423.000000
-23.216621 71.441307 423.000000
-23.161736 71.960060 422.000000
-23.106850 72.475548 421.000000
-23.106850 73.161560 421.000000
-23.051964 73.672173 420.000000
-22.942192 74.002472 418.000000
-22.942192 74.683601 418.000000
-22.832422 75.004135 416.000000
-22.832422 75.681999 416.000000
-22.832422 76.359863 416.000000
-22.777536 76.852547 415.000000
-22.722651 77.341965 414.000000
-22.722651 78.016571 414.000000
-22.667765 78.501106 413.000000
-22.612879 78.982376 412.000000
-22.612879 79.653725 412.000000
-22.557993 80.130112 411.000000
-22.503107 80.603233 410.000000
-22.503107 81.271324 410.000000
-22.448221 81.739571 409.000000
-22.338451 82.003059 407.000000
-22.283566 82.463158 406.000000
-22.283566 83.124725 406.000000
-22.283566 83.786301 406.000000
-22.228680 84.239868 405.000000
-22.228680 84.899811 405.000000
-22.118908 85.137238 403.000000
-22.009136 85.368141 401.000000
-22.009136 86.021568 401.000000
-21.954252 86.458839 400.000000
-21.899366 86.892868 399.000000
-21.899366 87.543030 399.000000
-21.734709 87.530090 396.000000
-21.679823 87.952698 395.000000
-21.679823 88.596352 395.000000
-21.624937 89.014069 394.000000
-21.570051 89.428535 393.000000
-21.570051 90.068924 393.000000
-21.515167 90.478500 392.000000
-21.460281 90.884819 391.000000
-21.460281 91.521950 391.000000
-21.405396 91.923370 390.000000
-21.350510 92.321548 389.000000
-21.350510 92.955414 389.000000
-21.240738 93.108109 387.000000
-21.185852 93.496498 386.000000
-21.185852 94.125481 386.000000
-21.185852 94.754463 386.000000
-21.185852 95.383446 386.000000
-21.185852 96.012428 386.000000
-20.927990 95.465149 381.301819
-20.759007 95.310616 378.222992
-20.759007 95.926926 378.222992
-20.472672 95.211586 373.006042
-20.365555 95.318062 371.054443
-20.365555 95.922691 371.054443
-20.143026 95.472580 367.000000
-20.143026 96.070602 367.000000
-20.033255 96.141815 365.000000
-20.033255 96.736580 365.000000
-19.978369 97.064682 364.000000
-19.923483 97.389526 363.000000
-19.923483 97.981033 363.000000
-19.868597 98.300980 362.000000
-19.813711 98.617683 361.000000
-19.813711 99.205925 361.000000
-19.703941 99.241295 359.000000
-19.649055 99.548218 358.000000
-19.649055 100.131569 358.000000
-19.594170 100.433601 357.000000
-19.539284 100.732368 356.000000
-19.539284 101.312469 356.000000
-19.429512 101.320137 354.000000
-19.429512 101.896973 354.000000
-19.429512 102.473816 354.000000
-19.374626 102.759544 353.000000
-19.264856 102.749290 351.000000
-19.264856 103.321243 351.000000
-18.575939 100.177940 338.448151
-18.504761 100.343468 337.151306
-18.504761 100.892853 337.151306
-18.319515 100.426735 333.776184
-18.187151 100.241066 331.364532
-18.187151 100.781021 331.364532
-18.057884 100.600822 329.009338
-17.862383 100.042000 325.447357
-17.862383 100.572311 325.447357
-17.650589 99.903854 321.588562
-17.645405 100.398384 321.494080
-17.645405 100.922249 321.494080
-17.445747 100.298264 317.856384
-17.218397 99.502388 313.714142
-17.218397 100.013580 313.714142
-16.355917 95.489426 298.000000
-16.355917 95.975014 298.000000
-16.355917 96.460594 298.000000
-16.301031 96.620857 297.000000
-16.246147 96.777863 296.000000
-16.246147 97.260193 296.000000
-16.191261 97.412315 295.000000
-16.191261 97.893013 295.000000
-16.191261 98.373711 295.000000
-16.191261 98.854408 295.000000
-16.191261 99.335106 295.000000
-16.191261 99.815811 295.000000
-16.136375 99.956512 294.000000
-16.081490 100.093964 293.000000
-16.026604 100.228165 292.000000
-16.026604 100.703972 292.000000
-15.971718 100.833275 291.000000
-15.971718 101.307457 291.000000
-15.971718 101.781639 291.000000
-15.916832 101.904419 290.000000
-15.916832 102.376976 290.000000
-15.916832 102.849525 290.000000
-15.916832 103.322075 290.000000
-15.955924 115.418640 290.712250
-15.955924 115.892349 290.712250
-15.955924 116.366058 290.712250
-22.900461 63.514717 430.000000
-22.900461 64.215401 430.000000
-22.900461 64.916077 430.000000
-22.900461 65.616760 430.000000
-22.900461 66.317436 430.000000
-22.793947 66.706398 428.000000
-22.740690 67.246338 427.000000
-22.740690 67.942131 427.000000
-22.687433 68.477173 426.000000
-22.687433 69.171341 426.000000
-22.687433 69.865501 426.000000
-22.580921 70.228394 424.000000
-22.527664 70.752037 423.000000
-22.527664 71.441307 423.000000
-22.474407 71.960060 422.000000
-22.421150 72.475548 421.000000
-22.421150 73.161560 421.000000
-22.367893 73.672173 420.000000
-22.261379 74.002472 418.000000
-22.261379 74.683601 418.000000
-22.154865 75.004135 416.000000
-22.154865 75.681999 416.000000
-22.154865 76.359863 416.000000
-22.101608 76.852547 415.000000
-22.048351 77.341965 414.000000
-22.048351 78.016571 414.000000
-21.995094 78.501106 413.000000
-21.888580 78.790672 411.000000
-21.888580 79.460388 411.000000
-21.888580 80.130112 411.000000
-21.835323 80.603233 410.000000
-21.835323 81.271324 410.000000
-21.835323 81.939415 410.000000
-21.728809 82.204544 408.000000
-21.622297 82.463158 406.000000
-21.622297 83.124725 406.000000
-21.622297 83.786301 406.000000
-21.569040 84.239868 405.000000
-21.569040 84.899811 405.000000
-21.515783 85.348495 404.000000
-21.409269 85.581032 402.000000
-21.409269 86.236084 402.000000
-21.302755 86.458839 400.000000
-21.249498 86.892868 399.000000
-21.249498 87.543030 399.000000
-21.142984 87.751122 397.000000
-21.036470 87.952698 395.000000
-21.036470 88.596352 395.000000
-20.983213 89.014069 394.000000
-20.929956 89.428535 393.000000
-20.929956 90.068924 393.000000
-20.876699 90.478500 392.000000
-20.823442 90.884819 391.000000
-20.823442 91.521950 391.000000
-20.770185 91.923370 390.000000
-20.716928 92.321548 389.000000
-20.716928 92.955414 389.000000
-20.610415 93.108109 387.000000
-20.557158 93.496498 386.000000
-20.557158 94.125481 386.000000
-20.557158 94.754463 386.000000
-20.557158 95.383446 386.000000
-20.557158 96.012428 386.000000
-20.300146 95.433167 381.174103
-20.138037 95.287231 378.130188
-20.138037 95.903389 378.130188
-19.877792 95.272224 373.243591
-19.761206 95.318062 371.054443
-19.761206 95.922691 371.054443
-19.598534 95.732727 368.000000
-19.545277 96.070602 367.000000
-19.438763 96.141815 365.000000
-19.438763 96.736580 365.000000
-19.385506 97.064682 364.000000
-19.332249 97.389526 363.000000
-19.332249 97.981033 363.000000
-19.278992 98.300980 362.000000
-19.225735 98.617683 361.000000
-19.225735 99.205925 361.000000
-19.119223 99.241295 359.000000
-19.065966 99.548218 358.000000
-19.065966 100.131569 358.000000
-19.012709 100.433601 357.000000
