16.498064 145.046875 304.167542
16.499147 145.552078 304.187500
16.499996 146.055252 304.203156
16.499996 146.550949 304.203156
16.500517 147.051285 304.212738
16.501156 147.552719 304.224548
16.501156 148.048447 304.224548
16.539316 148.887695 304.928101
16.539316 149.384583 304.928101
16.539316 149.881454 304.928101
16.496517 149.989197 304.139038
16.000816 159.422455 295.000000
16.000816 159.903152 295.000000
16.000816 160.383850 295.000000
16.000816 160.864548 295.000000
16.000816 161.345245 295.000000
16.000816 161.825943 295.000000
15.946576 161.756454 294.000000
15.946576 162.235535 294.000000
15.946576 162.714600 294.000000
15.946576 163.193665 294.000000
15.946576 163.672745 294.000000
15.892336 163.593460 293.000000
15.892336 164.070908 293.000000
15.892336 164.548340 293.000000
15.838096 164.462555 292.000000
15.729616 164.753754 290.000000
15.729616 165.226303 290.000000
15.729616 165.698853 290.000000
15.729616 166.171402 290.000000
21.341881 18.454386 382.000000
21.341881 19.076851 382.000000
21.341881 19.699314 382.000000
21.341881 20.321779 382.000000
21.341881 20.944242 382.000000
21.341881 21.566708 382.000000
21.341881 22.189171 382.000000
21.341881 22.811636 382.000000
21.341881 23.434099 382.000000
21.286013 23.993589 381.000000
21.286013 24.614424 381.000000
21.286013 25.235258 381.000000
21.286013 25.856092 381.000000
21.174274 26.337942 379.000000
21.174274 26.955517 379.000000
21.174274 27.573093 379.000000
21.174274 28.190670 379.000000
21.118406 28.732231 378.000000
21.118406 29.348179 378.000000
21.118406 29.964125 378.000000
21.062538 30.499172 377.000000
21.062538 31.113489 377.000000
21.108173 31.796549 377.816833
21.108173 32.412197 377.816833
21.108173 33.027843 377.816833
21.090389 33.615150 377.498535
21.079298 34.212273 377.299988
21.079298 34.827080 377.299988
21.079298 35.441883 377.299988
21.069799 36.040447 377.130005
21.069799 36.654976 377.130005
21.059351 37.251022 376.942993
21.047859 37.844582 376.737305
21.047859 38.458473 376.737305
21.040806 39.059265 376.611023
20.898594 39.404808 374.065582
20.898594 40.014339 374.065582
20.772890 40.379524 371.815582
20.656853 40.756451 369.738647
20.656853 41.358936 369.738647
20.549107 41.742550 367.810089
20.327471 41.885201 363.842987
20.327471 42.478081 363.842987
20.228392 42.861023 362.069550
20.135700 43.251907 360.410461
19.498211 42.451260 349.000000
19.498211 43.019951 349.000000
19.498211 43.588642 349.000000
19.498211 44.157330 349.000000
19.498211 44.726021 349.000000
19.498211 45.294712 349.000000
19.498211 45.863403 349.000000
19.498211 46.432095 349.000000
19.442343 46.866116 348.000000
19.442343 47.433178 348.000000
19.442343 48.000240 348.000000
19.386473 48.427738 347.000000
19.386473 48.993168 347.000000
19.386473 49.558601 347.000000
19.330605 49.979584 346.000000
19.330605 50.543388 346.000000
19.330605 51.107189 346.000000
19.330605 51.670994 346.000000
19.274736 52.083828 345.000000
19.274736 52.646004 345.000000
19.218868 53.053947 344.000000
19.218868 53.614494 344.000000
19.218868 54.175037 344.000000
19.162996 54.576466 343.000000
19.162996 55.135380 343.000000
19.162996 55.694294 343.000000
19.162996 56.253208 343.000000
19.336771 57.327301 346.110382
19.336771 57.891289 346.110382
19.336771 58.455269 346.110382
19.121805 58.363140 342.262695
19.044277 58.681957 340.875000
19.044277 59.237408 340.875000
18.970711 59.561886 339.558258
18.791935 59.548679 336.358307
18.791935 60.096767 336.358307
18.699724 60.347282 334.707825
18.478777 60.173206 330.753082
18.478777 60.712166 330.753082
18.399010 60.986721 329.325317
18.357437 61.384335 328.581207
18.357437 61.919754 328.581207
17.431067 59.303497 312.000000
17.431067 59.811901 312.000000
17.431067 60.320301 312.000000
17.431067 60.828701 312.000000
17.375195 61.140503 311.000000
17.375195 61.647274 311.000000
17.375195 62.154045 311.000000
17.319326 62.459332 310.000000
17.319326 62.964474 310.000000
17.263458 63.264877 309.000000
17.263458 63.768391 309.000000
17.263458 64.271904 309.000000
17.263458 64.775414 309.000000
17.263458 65.278923 309.000000
17.263458 65.782440 309.000000
17.263458 66.285950 309.000000
17.207590 66.573311 308.000000
17.207590 67.075195 308.000000
17.207590 67.577072 308.000000
17.207590 68.078957 308.000000
17.207590 68.580841 308.000000
17.207590 69.082718 308.000000
17.207590 69.584602 308.000000
17.207590 70.086487 308.000000
17.207590 70.588371 308.000000
17.207590 71.090248 308.000000
17.207590 71.592133 308.000000
17.207590 72.094017 308.000000
17.207590 72.595894 308.000000
17.207590 73.097778 308.000000
17.207590 73.599663 308.000000
17.207590 74.101540 308.000000
17.263458 74.845642 309.000000
17.263458 75.349159 309.000000
17.263458 75.852669 309.000000
17.263458 76.356178 309.000000
17.263458 76.859688 309.000000
17.263458 77.363205 309.000000
17.263458 77.866714 309.000000
17.263458 78.370224 309.000000
17.319326 79.128990 310.000000
17.319326 79.634132 310.000000
17.319326 80.139267 310.000000
17.319326 80.644409 310.000000
17.319326 81.149551 310.000000
17.319326 81.654694 310.000000
17.319326 82.159836 310.000000
17.319326 82.664978 310.000000
17.319326 83.170120 310.000000
17.319326 83.675255 310.000000
17.319326 84.180397 310.000000
17.319326 84.685539 310.000000
17.319326 85.190681 310.000000
17.319326 85.695824 310.000000
17.319326 86.200966 310.000000
17.319326 86.706108 310.000000
17.319326 87.211243 310.000000
17.319326 87.716385 310.000000
17.319326 88.221527 310.000000
17.375195 89.012886 311.000000
17.375195 89.519653 311.000000
17.375195 90.026428 311.000000
17.375195 90.533195 311.000000
17.319326 90.747231 310.000000
17.319326 91.252373 310.000000
17.319326 91.757515 310.000000
17.319326 92.262657 310.000000
17.319326 92.767799 310.000000
17.319326 93.272942 310.000000
17.319326 93.778076 310.000000
17.319326 94.283218 310.000000
17.319326 94.788361 310.000000
17.263458 94.986107 309.000000
17.263458 95.489624 309.000000
17.263458 95.993134 309.000000
17.263458 96.496643 309.000000
17.263458 97.000153 309.000000
17.263458 97.503670 309.000000
17.263458 98.007179 309.000000
17.263458 98.510689 309.000000
17.207590 98.693764 308.000000
17.207590 99.195648 308.000000
17.207590 99.697533 308.000000
17.207590 100.199409 308.000000
17.207590 100.701294 308.000000
17.207590 101.203178 308.000000
17.207590 101.705055 308.000000
17.263458 102.538780 309.000000
17.319326 103.375763 310.000000
17.319326 103.880898 310.000000
17.319326 104.386040 310.000000
17.319326 104.891182 310.000000
17.319326 105.396324 310.000000
17.207590 105.218231 308.000000
17.207590 105.720116 308.000000
17.207590 106.222000 308.000000
17.151720 106.377373 307.000000
17.123787 106.703552 306.500000
17.123787 107.202995 306.500000
17.123787 107.702431 306.500000
17.114010 108.140099 306.325012
17.114010 108.639244 306.325012
17.103743 109.072929 306.141235
17.090870 109.489319 305.910828
17.090870 109.987785 305.910828
17.070124 110.352158 305.539490
17.054159 110.746353 305.253723
17.054159 111.243752 305.253723
17.037500 111.632019 304.955566
17.023066 112.033936 304.697205
17.023066 112.530449 304.697205
17.013166 112.961205 304.519989
17.032297 113.585007 304.862427
17.032297 114.081772 304.862427
17.032297 114.578537 304.862427
17.025942 115.032364 304.748657
17.027359 115.538574 304.774048
17.027359 116.035194 304.774048
17.027359 116.531822 304.774048
17.021009 116.984802 304.660370
17.021009 117.481239 304.660370
17.016098 117.943642 304.572479
17.012291 118.413445 304.504333
17.012291 118.909622 304.504333
17.009771 119.388130 304.459229
17.008440 119.874870 304.435425
17.008440 120.370941 304.435425
17.008198 120.865280 304.431061
17.008684 121.364815 304.439758
17.008684 121.860893 304.439758
17.010164 122.367638 304.466278
17.012999 122.884224 304.516998
17.012999 123.380432 304.516998
17.012999 123.876648 304.516998
17.011562 124.362350 304.491302
17.011562 124.858513 304.491302
17.010618 125.347717 304.474396
17.036755 126.037209 304.942200
17.036755 126.534111 304.942200
17.036978 127.032684 304.946228
17.037210 127.531334 304.950378
17.037371 128.029434 304.953217
17.037371 128.526352 304.953217
17.037371 129.023270 304.953217
17.037357 129.520096 304.953003
17.037357 130.017014 304.953003
17.037094 130.511917 304.948303
17.036970 131.007874 304.946075
17.036970 131.504776 304.946075
16.997189 131.693451 304.234009
17.021875 132.381180 304.675873
17.021875 132.877655 304.675873
17.021875 133.374115 304.675873
17.020403 133.859009 304.649536
17.020403 134.355438 304.649536
16.992880 134.633789 304.156891
16.991182 135.115906 304.126495
16.991182 135.611481 304.126495
16.989302 136.091980 304.092834
16.987211 136.570679 304.055420
16.987211 137.066147 304.055420
16.984892 137.542831 304.013916
16.985838 138.045883 304.030823
16.985838 138.541290 304.030823
16.990108 139.071671 304.107269
16.991518 139.578812 304.132538
16.991518 140.074387 304.132538
17.003996 140.673172 304.355835
17.029631 141.381943 304.814697
17.029631 141.878647 304.814697
17.029631 142.375336 304.814697
17.029678 142.872437 304.815552
17.029678 143.369125 304.815552
17.029678 143.865829 304.815552
16.993366 144.054703 304.165619
16.996572 144.577576 304.222961
16.996572 145.073303 304.222961
17.000395 145.601776 304.291382
17.002216 146.113281 304.324005
17.002216 146.609161 304.324005
17.003605 147.117081 304.348877
17.003605 147.613022 304.348877
17.003605 148.108963 304.348877
16.996660 148.544189 304.224548
16.481295 160.383850 295.000000
16.481295 160.864548 295.000000
16.481295 161.345245 295.000000
16.481295 161.825943 295.000000
16.481295 162.306641 295.000000
16.481295 162.787338 295.000000
16.425426 162.714600 294.000000
16.425426 163.193665 294.000000
16.425426 163.672745 294.000000
16.369556 163.593460 293.000000
16.369556 164.070908 293.000000
16.369556 164.548340 293.000000
16.313688 164.462555 292.000000
16.201952 164.753754 290.000000
16.201952 165.226303 290.000000
16.201952 165.698853 290.000000
16.201952 166.171402 290.000000
21.964060 18.454386 382.000000
21.964060 19.076851 382.000000
21.964060 19.699314 382.000000
21.964060 20.321779 382.000000
21.964060 20.944242 382.000000
21.964060 21.566708 382.000000
21.964060 22.189171 382.000000
21.964060 22.811636 382.000000
21.964060 23.434099 382.000000
21.906563 23.993589 381.000000
21.906563 24.614424 381.000000
21.906563 25.235258 381.000000
21.849066 25.788231 380.000000
21.791569 26.337942 379.000000
21.791569 26.955517 379.000000
21.791569 27.573093 379.000000
21.734070 28.116285 378.000000
21.734070 28.732231 378.000000
21.734070 29.348179 378.000000
21.523245 29.673471 374.333344
21.639786 30.447414 376.360199
21.639786 31.060686 376.360199
21.723537 31.796549 377.816833
21.723537 32.412197 377.816833
21.723537 33.027843 377.816833
21.705236 33.615150 377.498535
21.685102 34.198528 377.148376
21.685102 34.813084 377.148376
21.668707 35.400856 376.863220
21.656422 35.994534 376.649536
21.656422 36.608276 376.649536
21.642908 37.198795 376.414490
21.633791 37.796230 376.255951
21.633791 38.409332 376.255951
21.482206 38.749012 373.619568
21.360821 39.135433 371.508453
21.360821 39.740799 371.508453
21.250174 40.137177 369.584045
21.148249 40.544006 367.811371
21.148249 41.143349 367.811371
20.920076 41.292328 363.842987
20.920076 41.885201 363.842987
20.920076 42.478081 363.842987
20.818110 42.861023 362.069550
20.722713 43.251907 360.410461
20.066641 42.451260 349.000000
20.066641 43.019951 349.000000
20.066641 43.588642 349.000000
20.066641 44.157330 349.000000
20.066641 44.726021 349.000000
20.009144 45.164932 348.000000
20.009144 45.731991 348.000000
20.009144 46.299053 348.000000
19.951647 46.731441 347.000000
19.951647 47.296871 347.000000
19.951647 47.862305 347.000000
19.951647 48.427738 347.000000
19.894150 48.851978 346.000000
19.894150 49.415783 346.000000
19.894150 49.979584 346.000000
19.894150 50.543388 346.000000
19.894150 51.107189 346.000000
19.836653 51.521656 345.000000
19.779154 51.932861 344.000000
19.779154 52.493404 344.000000
19.779154 53.053947 344.000000
19.721655 53.458637 343.000000
19.721655 54.017551 343.000000
19.721655 54.576466 343.000000
19.721655 55.135380 343.000000
19.721655 55.694294 343.000000
19.664158 56.089203 342.000000
19.900496 57.327301 346.110382
19.900496 57.891289 346.110382
19.900496 58.455269 346.110382
19.679264 58.363140 342.262695
19.599474 58.681957 340.875000
19.599474 59.237408 340.875000
19.523766 59.561886 339.558258
19.339775 59.548679 336.358307
19.339775 60.096767 336.358307
19.048874 59.732666 331.298950
18.845795 59.629951 327.766968
18.845795 60.164040 327.766968
18.766590 60.443031 326.389435
18.610712 60.468418 323.678406
18.610712 60.995842 323.678406
17.939234 59.303497 312.000000
17.939234 59.811901 312.000000
17.939234 60.320301 312.000000
17.881735 60.633732 311.000000
17.824236 60.943909 310.000000
17.824236 61.449051 310.000000
17.824236 61.954193 310.000000
17.766739 62.257854 309.000000
17.766739 62.761368 309.000000
17.766739 63.264877 309.000000
17.709242 63.562019 308.000000
17.709242 64.063904 308.000000
17.709242 64.565781 308.000000
17.709242 65.067665 308.000000
17.709242 65.569550 308.000000
17.709242 66.071426 308.000000
17.709242 66.573311 308.000000
17.709242 67.075195 308.000000
17.709242 67.577072 308.000000
17.709242 68.078957 308.000000
17.709242 68.580841 308.000000
17.709242 69.082718 308.000000
17.709242 69.584602 308.000000
17.709242 70.086487 308.000000
17.709242 70.588371 308.000000
17.709242 71.090248 308.000000
17.709242 71.592133 308.000000
17.709242 72.094017 308.000000
17.709242 72.595894 308.000000
17.709242 73.097778 308.000000
17.709242 73.599663 308.000000
17.709242 74.101540 308.000000
17.709242 74.603424 308.000000
17.709242 75.105309 308.000000
17.709242 75.607185 308.000000
17.766739 76.356178 309.000000
17.766739 76.859688 309.000000
17.766739 77.363205 309.000000
17.766739 77.866714 309.000000
17.766739 78.370224 309.000000
17.766739 78.873741 309.000000
17.766739 79.377251 309.000000
17.766739 79.880760 309.000000
17.824236 80.644409 310.000000
17.824236 81.149551 310.000000
17.824236 81.654694 310.000000
17.824236 82.159836 310.000000
17.824236 82.664978 310.000000
17.824236 83.170120 310.000000
17.824236 83.675255 310.000000
17.824236 84.180397 310.000000
17.824236 84.685539 310.000000
17.824236 85.190681 310.000000
17.824236 85.695824 310.000000
17.824236 86.200966 310.000000
17.824236 86.706108 310.000000
17.881735 87.492577 311.000000
17.881735 87.999344 311.000000
17.881735 88.506111 311.000000
17.881735 89.012886 311.000000
17.881735 89.519653 311.000000
17.881735 90.026428 311.000000
17.881735 90.533195 311.000000
17.881735 91.039970 311.000000
17.881735 91.546738 311.000000
17.881735 92.053513 311.000000
17.824236 92.262657 310.000000
17.824236 92.767799 310.000000
17.824236 93.272942 310.000000
17.824236 93.778076 310.000000
17.824236 94.283218 310.000000
17.824236 94.788361 310.000000
17.824236 95.293503 310.000000
17.824236 95.798645 310.000000
17.766739 95.993134 309.000000
17.766739 96.496643 309.000000
17.766739 97.000153 309.000000
17.766739 97.503670 309.000000
17.766739 98.007179 309.000000
17.766739 98.510689 309.000000
17.766739 99.014198 309.000000
17.766739 99.517715 309.000000
17.766739 100.021225 309.000000
17.766739 100.524734 309.000000
17.766739 101.028252 309.000000
17.824236 101.860336 310.000000
17.824236 102.365479 310.000000
17.881735 103.202461 311.000000
17.881735 103.709229 311.000000
17.881735 104.216003 311.000000
17.881735 104.722771 311.000000
17.824236 104.891182 310.000000
17.824236 105.396324 310.000000
17.709242 105.218231 308.000000
17.709242 105.720116 308.000000
17.709242 106.222000 308.000000
17.662392 106.441536 307.185181
17.647013 106.848976 306.917694
17.647013 107.349083 306.917694
17.638763 107.798798 306.774231
17.624706 108.212372 306.529755
17.624706 108.711861 306.529755
17.613035 109.139030 306.326752
17.591780 109.505867 305.957092
17.591780 110.004425 305.957092
17.567768 110.352158 305.539490
17.551338 110.746353 305.253723
17.551338 111.243752 305.253723
17.536312 111.645500 304.992401
17.529467 112.098701 304.873322
17.529467 112.595490 304.873322
17.521191 113.038887 304.729401
17.513166 113.483444 304.589844
17.553675 114.243408 305.294373
17.553675 114.740891 305.294373
17.553675 115.238350 305.294373
17.546574 115.688995 305.170837
17.546574 116.186264 305.170837
17.539927 116.639343 305.055237
17.534740 117.101799 304.965057
17.534740 117.598724 304.965057
17.532150 118.078232 304.920013
17.531578 118.571228 304.910065
17.531578 119.068069 304.910065
17.531269 119.562805 304.904694
17.532276 120.066551 304.922211
17.532276 120.563416 304.922211
17.534187 121.073471 304.955444
17.536747 121.588142 304.999969
17.536747 122.085136 304.999969
17.536747 122.582130 304.999969
17.535055 123.067245 304.970551
17.535055 123.564201 304.970551
17.533903 124.052986 304.950500
17.533300 124.545624 304.940033
17.533300 125.042519 304.940033
17.533258 125.539108 304.939270
17.533426 126.037209 304.942200
17.533426 126.534111 304.942200
17.533657 127.032684 304.946228
17.533895 127.531334 304.950378
17.534060 128.029434 304.953217
17.534060 128.526352 304.953217
17.534060 129.023270 304.953217
17.534046 129.520096 304.953003
17.534046 130.017014 304.953003
17.533777 130.511917 304.948303
17.533649 131.007874 304.946075
17.533649 131.504776 304.946075
17.492706 131.693451 304.234009
17.518112 132.381180 304.675873
17.518112 132.877655 304.675873
17.518112 133.374115 304.675873
17.516598 133.859009 304.649536
17.516598 134.355438 304.649536
17.488272 134.633789 304.156891
17.486526 135.115906 304.126495
17.486526 135.611481 304.126495
17.484591 136.091980 304.092834
17.482437 136.570679 304.055420
17.482437 137.066147 304.055420
17.480053 137.542831 304.013916
17.481024 138.045883 304.030823
17.481024 138.541290 304.030823
17.485420 139.071671 304.107269
17.486872 139.578812 304.132538
17.486872 140.074387 304.132538
17.499712 140.673172 304.355835
17.526096 141.381943 304.814697
17.526096 141.878647 304.814697
17.526096 142.375336 304.814697
17.526144 142.872437 304.815552
17.526144 143.369125 304.815552
17.526144 143.865829 304.815552
17.488775 144.054703 304.165619
17.492071 144.577576 304.222961
17.492071 145.073303 304.222961
17.496006 145.601776 304.291382
17.497881 146.113281 304.324005
17.497881 146.609161 304.324005
17.499311 147.117081 304.348877
17.499311 147.613022 304.348877
17.499311 148.108963 304.348877
17.492163 148.544189 304.224548
16.961773 160.383850 295.000000
16.961773 160.864548 295.000000
16.961773 161.345245 295.000000
16.961773 161.825943 295.000000
16.961773 162.306641 295.000000
16.961773 162.787338 295.000000
16.904276 162.714600 294.000000
16.904276 163.193665 294.000000
16.904276 163.672745 294.000000
16.904276 164.151810 294.000000
16.846779 164.070908 293.000000
16.846779 164.548340 293.000000
16.789282 164.462555 292.000000
16.789282 164.938370 292.000000
16.789282 165.414169 292.000000
16.731783 165.321869 291.000000
16.674286 165.226303 290.000000
16.674286 165.698853 290.000000
16.674286 166.171402 290.000000
16.674286 166.643951 290.000000
16.674286 167.116501 290.000000
22.586239 18.454386 382.000000
22.586239 19.076851 382.000000
22.586239 19.699314 382.000000
22.586239 20.321779 382.000000
22.586239 20.944242 382.000000
22.586239 21.566708 382.000000
22.586239 22.189171 382.000000
22.586239 22.811636 382.000000
22.586239 23.434099 382.000000
22.527113 23.993589 381.000000
22.527113 24.614424 381.000000
22.527113 25.235258 381.000000
22.467987 25.788231 380.000000
22.408861 26.337942 379.000000
22.408861 26.955517 379.000000
22.408861 27.573093 379.000000
22.349735 28.116285 378.000000
22.349735 28.732231 378.000000
22.349735 29.348179 378.000000
21.945267 29.421858 371.159241
22.273825 30.476210 376.716156
22.273825 31.090065 376.716156
22.338905 31.796549 377.816833
22.338905 32.412197 377.816833
22.338905 33.027843 377.816833
22.320086 33.615150 377.498535
22.299381 34.198528 377.148376
22.299381 34.813084 377.148376
22.282520 35.400856 376.863220
22.269886 35.994534 376.649536
22.269886 36.608276 376.649536
22.255989 37.198795 376.414490
21.959080 37.307716 371.392883
21.959080 37.912899 371.392883
21.839771 38.308804 369.375031
21.738987 38.731133 367.670471
21.738987 39.330246 367.670471
21.580477 39.638214 364.989594
21.446255 39.982723 362.719482
21.446255 40.573772 362.719482
21.382004 41.041492 361.632813
21.307642 41.485992 360.375153
21.307642 42.073215 360.375153
21.269321 42.583717 359.727020
21.145884 42.919346 357.639313
20.635073 42.451260 349.000000
20.575947 42.896683 348.000000
20.516821 43.338848 347.000000
20.516821 43.904282 347.000000
20.516821 44.469711 347.000000
20.516821 45.035145 347.000000
20.516821 45.600578 347.000000
20.516821 46.166008 347.000000
20.516821 46.731441 347.000000
20.516821 47.296871 347.000000
20.516821 47.862305 347.000000
20.457693 48.288177 346.000000
20.457693 48.851978 346.000000
20.457693 49.415783 346.000000
20.457693 49.979584 346.000000
20.398567 50.397308 345.000000
20.398567 50.959484 345.000000
20.339441 51.372318 344.000000
20.280313 51.781895 343.000000
20.280313 52.340809 343.000000
20.280313 52.899723 343.000000
20.280313 53.458637 343.000000
20.280313 54.017551 343.000000
20.280313 54.576466 343.000000
20.221188 54.974632 342.000000
20.221188 55.531918 342.000000
20.309877 56.335209 343.500000
20.309877 56.894939 343.500000
20.309877 57.454666 343.500000
20.200544 57.702095 341.650879
20.009640 57.708233 338.422089
20.009640 58.259686 338.422089
19.917414 58.540073 336.862274
19.847101 58.880386 335.673065
19.678768 58.923332 332.826050
19.678768 59.465664 332.826050
19.588476 59.732666 331.298950
19.264614 59.276012 325.821503
19.264614 59.806934 325.821503
19.186008 60.091656 324.492035
19.073774 60.265800 322.593842
19.073774 60.791462 322.593842
18.447401 59.303497 312.000000
18.447401 59.811901 312.000000
18.447401 60.320301 312.000000
18.388273 60.633732 311.000000
18.329147 60.943909 310.000000
18.329147 61.449051 310.000000
18.329147 61.954193 310.000000
18.270020 62.257854 309.000000
18.270020 62.761368 309.000000
18.270020 63.264877 309.000000
18.210894 63.562019 308.000000
18.210894 64.063904 308.000000
18.210894 64.565781 308.000000
18.210894 65.067665 308.000000
18.210894 65.569550 308.000000
18.151768 65.856911 307.000000
18.151768 66.357162 307.000000
18.151768 66.857414 307.000000
18.151768 67.357666 307.000000
18.151768 67.857918 307.000000
18.151768 68.358170 307.000000
18.151768 68.858421 307.000000
18.151768 69.358681 307.000000
18.151768 69.858932 307.000000
18.151768 70.359184 307.000000
18.210894 71.090248 308.000000
18.210894 71.592133 308.000000
18.210894 72.094017 308.000000
18.210894 72.595894 308.000000
18.210894 73.097778 308.000000
18.210894 73.599663 308.000000
18.210894 74.101540 308.000000
18.210894 74.603424 308.000000
18.210894 75.105309 308.000000
18.210894 75.607185 308.000000
18.210894 76.109070 308.000000
18.210894 76.610954 308.000000
18.210894 77.112831 308.000000
18.210894 77.614716 308.000000
18.210894 78.116600 308.000000
18.270020 78.873741 309.000000
18.270020 79.377251 309.000000
18.270020 79.880760 309.000000
18.329147 80.644409 310.000000
18.329147 81.149551 310.000000
18.329147 81.654694 310.000000
18.329147 82.159836 310.000000
18.329147 82.664978 310.000000
18.329147 83.170120 310.000000
18.329147 83.675255 310.000000
18.329147 84.180397 310.000000
18.329147 84.685539 310.000000
18.329147 85.190681 310.000000
18.329147 85.695824 310.000000
18.329147 86.200966 310.000000
18.329147 86.706108 310.000000
18.388273 87.492577 311.000000
18.388273 87.999344 311.000000
18.388273 88.506111 311.000000
18.388273 89.012886 311.000000
18.388273 89.519653 311.000000
18.388273 90.026428 311.000000
18.388273 90.533195 311.000000
18.388273 91.039970 311.000000
18.388273 91.546738 311.000000
18.388273 92.053513 311.000000
18.329147 92.262657 310.000000
18.329147 92.767799 310.000000
18.329147 93.272942 310.000000
18.329147 93.778076 310.000000
18.329147 94.283218 310.000000
18.329147 94.788361 310.000000
18.329147 95.293503 310.000000
18.329147 95.798645 310.000000
18.329147 96.303787 310.000000
18.329147 96.808929 310.000000
18.329147 97.314064 310.000000
18.329147 97.819206 310.000000
18.270020 98.007179 309.000000
18.270020 98.510689 309.000000
18.270020 99.014198 309.000000
18.270020 99.517715 309.000000
18.270020 100.021225 309.000000
18.270020 100.524734 309.000000
18.270020 101.028252 309.000000
18.329147 101.860336 310.000000
18.329147 102.365479 310.000000
18.388273 103.202461 311.000000
18.388273 103.709229 311.000000
18.388273 104.216003 311.000000
18.388273 104.722771 311.000000
18.171478 104.990494 307.333344
18.171478 105.491287 307.333344
18.171478 105.992081 307.333344
18.162718 106.441536 307.185181
18.146902 106.848976 306.917694
18.146902 107.349083 306.917694
18.138420 107.798798 306.774231
18.123964 108.212372 306.529755
18.123964 108.711861 306.529755
18.111961 109.139030 306.326752
18.090105 109.505867 305.957092
18.090105 110.004425 305.957092
18.058075 110.307320 305.415344
18.034668 110.661377 305.019501
18.034668 111.158394 305.019501
18.033068 111.645500 304.992401
18.026026 112.098701 304.873322
18.026026 112.595490 304.873322
18.017515 113.038887 304.729401
18.019596 113.548546 304.764587
18.050920 114.243408 305.294373
18.050920 114.740891 305.294373
18.050920 115.238350 305.294373
18.043617 115.688995 305.170837
18.043617 116.186264 305.170837
18.036781 116.639343 305.055237
18.031450 117.101799 304.965057
18.031450 117.598724 304.965057
18.028788 118.078232 304.920013
18.028198 118.571228 304.910065
18.028198 119.068069 304.910065
18.027880 119.562805 304.904694
18.028915 120.066551 304.922211
18.028915 120.563416 304.922211
18.030882 121.073471 304.955444
18.033514 121.588142 304.999969
18.033514 122.085136 304.999969
18.033514 122.582130 304.999969
18.031775 123.067245 304.970551
18.031775 123.564201 304.970551
18.030588 124.052986 304.950500
18.029970 124.545624 304.940033
18.029970 125.042519 304.940033
18.029926 125.539108 304.939270
18.030098 126.037209 304.942200
18.030098 126.534111 304.942200
18.030336 127.032684 304.946228
18.030581 127.531334 304.950378
18.030750 128.029434 304.953217
18.030750 128.526352 304.953217
18.030750 129.023270 304.953217
18.030737 129.520096 304.953003
18.030737 130.017014 304.953003
18.030458 130.511917 304.948303
18.030329 131.007874 304.946075
18.030329 131.504776 304.946075
17.952154 131.429367 303.623932
18.014351 132.381180 304.675873
18.014351 132.877655 304.675873
18.014351 133.374115 304.675873
18.012794 133.859009 304.649536
18.012794 134.355438 304.649536
17.953045 134.404541 303.638977
17.950573 134.880753 303.597198
17.950573 135.375458 303.597198
17.947378 135.845978 303.543152
17.950279 136.362640 303.592224
17.950279 136.857330 303.592224
17.950279 137.352036 303.592224
17.972340 138.016159 303.965332
17.972340 138.511459 303.965332
17.978836 139.057007 304.075226
17.982225 139.578812 304.132538
17.982225 140.074387 304.132538
17.995428 140.673172 304.355835
18.007961 141.267441 304.567810
18.007961 141.763733 304.567810
18.007961 142.260010 304.567810
18.022612 142.872437 304.815552
18.059214 143.660294 305.434601
18.059214 144.157990 305.434601
18.059214 144.655685 305.434601
18.056946 145.135178 305.396271
18.056946 145.632828 305.396271
18.055191 146.116272 305.366608
18.036520 146.462234 305.050812
18.036520 146.959320 305.050812
18.030100 147.403900 304.942230
18.074167 148.262283 305.687531
18.074167 148.760391 305.687531
18.074167 149.258514 305.687531
17.442253 160.383850 295.000000
17.442253 160.864548 295.000000
17.442253 161.345245 295.000000
17.442253 161.825943 295.000000
17.442253 162.306641 295.000000
17.442253 162.787338 295.000000
17.383125 162.714600 294.000000
17.383125 163.193665 294.000000
17.383125 163.672745 294.000000
17.383125 164.151810 294.000000
17.383125 164.630875 294.000000
17.383125 165.109940 294.000000
17.323999 165.025787 293.000000
17.264874 164.938370 292.000000
17.264874 165.414169 292.000000
17.264874 165.889984 292.000000
17.205748 165.796051 291.000000
17.205748 166.270233 291.000000
17.146622 166.171402 290.000000
17.146622 166.643951 290.000000
17.146622 167.116501 290.000000
23.208420 17.209457 382.000000
23.208420 17.831923 382.000000
23.208420 18.454386 382.000000
23.208420 19.076851 382.000000
23.208420 19.699314 382.000000
23.208420 20.321779 382.000000
23.208420 20.944242 382.000000
23.208420 21.566708 382.000000
23.208420 22.189171 382.000000
23.147663 22.751919 381.000000
23.147663 23.372753 381.000000
23.147663 23.993589 381.000000
23.147663 24.614424 381.000000
23.147663 25.235258 381.000000
22.674643 26.544024 373.214294
22.674643 27.152170 373.214294
22.674643 27.760319 373.214294
22.956450 28.721035 377.852692
22.956450 29.336742 377.852692
22.956450 29.952448 377.852692
22.924580 30.525719 377.328125
22.924580 31.140570 377.328125
22.887400 31.703917 376.716156
22.844019 32.256519 376.002167
22.844019 32.869209 376.002167
22.803539 33.422569 375.335876
22.803539 34.034176 375.335876
22.803539 34.645782 375.335876
22.700031 35.097347 373.632172
22.700031 35.706177 373.632172
22.700031 36.315006 373.632172
22.700031 36.923832 373.632172
22.563982 37.307716 371.392883
22.563982 37.912899 371.392883
22.441389 38.308804 369.375031
22.337828 38.731133 367.670471
22.337828 39.330246 367.670471
21.965231 39.263336 361.537689
21.864931 39.670483 359.886810
21.864931 40.256912 359.886810
21.829620 40.777382 359.305603
21.203503 40.176495 349.000000
21.203503 40.745186 349.000000
21.203503 41.313877 349.000000
21.203503 41.882568 349.000000
21.203503 42.451260 349.000000
21.142748 42.896683 348.000000
21.081993 43.338848 347.000000
21.081993 43.904282 347.000000
21.081993 44.469711 347.000000
21.081993 45.035145 347.000000
21.081993 45.600578 347.000000
21.081993 46.166008 347.000000
21.081993 46.731441 347.000000
21.081993 47.296871 347.000000
21.081993 47.862305 347.000000
21.021238 48.288177 346.000000
21.021238 48.851978 346.000000
21.021238 49.415783 346.000000
21.021238 49.979584 346.000000
20.960484 50.397308 345.000000
20.960484 50.959484 345.000000
20.899729 51.372318 344.000000
20.838972 51.781895 343.000000
20.838972 52.340809 343.000000
20.838972 52.899723 343.000000
20.838972 53.458637 343.000000
20.838972 54.017551 343.000000
20.838972 54.576466 343.000000
20.778217 54.974632 342.000000
20.778217 55.531918 342.000000
20.869350 56.335209 343.500000
20.869350 56.894939 343.500000
20.869350 57.454666 343.500000
20.741678 57.659485 341.398590
20.432585 57.348248 336.311035
20.432585 57.896263 336.311035
20.335176 58.165665 334.707764
20.251850 58.470486 333.336243
20.092533 58.549404 330.713928
20.092533 59.088291 330.713928
19.999996 59.352573 329.190826
19.795292 59.276012 325.821503
19.795292 59.806934 325.821503
19.714521 60.091656 324.492035
19.599195 60.265800 322.593842
19.599195 60.791462 322.593842
18.894812 59.113422 311.000000
18.894812 59.620193 311.000000
18.894812 60.126965 311.000000
18.834057 60.438766 310.000000
18.773302 60.747322 309.000000
18.773302 61.250832 309.000000
18.773302 61.754345 309.000000
18.712547 62.056370 308.000000
18.712547 62.558254 308.000000
18.712547 63.060135 308.000000
18.712547 63.562019 308.000000
18.712547 64.063904 308.000000
18.712547 64.565781 308.000000
18.712547 65.067665 308.000000
18.712547 65.569550 308.000000
18.651793 65.856911 307.000000
18.651793 66.357162 307.000000
18.651793 66.857414 307.000000
18.651793 67.357666 307.000000
18.651793 67.857918 307.000000
18.651793 68.358170 307.000000
18.651793 68.858421 307.000000
18.651793 69.358681 307.000000
18.651793 69.858932 307.000000
18.651793 70.359184 307.000000
18.712547 71.090248 308.000000
18.712547 71.592133 308.000000
18.712547 72.094017 308.000000
18.712547 72.595894 308.000000
18.712547 73.097778 308.000000
18.712547 73.599663 308.000000
18.712547 74.101540 308.000000
18.712547 74.603424 308.000000
18.712547 75.105309 308.000000
18.712547 75.607185 308.000000
18.712547 76.109070 308.000000
18.712547 76.610954 308.000000
18.712547 77.112831 308.000000
18.712547 77.614716 308.000000
18.712547 78.116600 308.000000
18.773302 78.873741 309.000000
18.773302 79.377251 309.000000
18.773302 79.880760 309.000000
18.773302 80.384270 309.000000
18.834057 81.149551 310.000000
18.834057 81.654694 310.000000
18.834057 82.159836 310.000000
18.834057 82.664978 310.000000
18.834057 83.170120 310.000000
18.834057 83.675255 310.000000
18.834057 84.180397 310.000000
18.834057 84.685539 310.000000
18.834057 85.190681 310.000000
18.894812 85.972260 311.000000
18.894812 86.479034 311.000000
18.894812 86.985802 311.000000
18.894812 87.492577 311.000000
18.894812 87.999344 311.000000
18.894812 88.506111 311.000000
18.894812 89.012886 311.000000
18.894812 89.519653 311.000000
18.894812 90.026428 311.000000
18.894812 90.533195 311.000000
18.894812 91.039970 311.000000
18.894812 91.546738 311.000000
18.894812 92.053513 311.000000
18.894812 92.560280 311.000000
18.894812 93.067047 311.000000
18.894812 93.573822 311.000000
18.834057 93.778076 310.000000
18.834057 94.283218 310.000000
18.834057 94.788361 310.000000
18.834057 95.293503 310.000000
18.834057 95.798645 310.000000
18.834057 96.303787 310.000000
18.834057 96.808929 310.000000
18.834057 97.314064 310.000000
18.834057 97.819206 310.000000
18.773302 98.007179 309.000000
18.773302 98.510689 309.000000
18.773302 99.014198 309.000000
18.773302 99.517715 309.000000
18.773302 100.021225 309.000000
18.773302 100.524734 309.000000
18.773302 101.028252 309.000000
18.834057 101.860336 310.000000
18.834057 102.365479 310.000000
18.894812 103.202461 311.000000
18.894812 103.709229 311.000000
18.894812 104.216003 311.000000
18.894812 104.722771 311.000000
18.672045 104.990494 307.333344
18.672045 105.491287 307.333344
18.672045 105.992081 307.333344
18.663044 106.441536 307.185181
18.646791 106.848976 306.917694
18.646791 107.349083 306.917694
18.638075 107.798798 306.774231
18.623222 108.212372 306.529755
18.623222 108.711861 306.529755
18.610889 109.139030 306.326752
18.588430 109.505867 305.957092
18.588430 110.004425 305.957092
18.555515 110.307320 305.415344
18.531467 110.661377 305.019501
18.531467 111.158394 305.019501
18.529821 111.645500 304.992401
18.522585 112.098701 304.873322
18.522585 112.595490 304.873322
18.514637 113.043739 304.742493
18.515980 113.548546 304.764587
18.548166 114.243408 305.294373
18.548166 114.740891 305.294373
18.548166 115.238350 305.294373
18.540663 115.688995 305.170837
18.540663 116.186264 305.170837
18.533638 116.639343 305.055237
18.528158 117.101799 304.965057
18.528158 117.598724 304.965057
18.525423 118.078232 304.920013
18.524818 118.571228 304.910065
18.524818 119.068069 304.910065
18.524492 119.562805 304.904694
18.525557 120.066551 304.922211
18.525557 120.563416 304.922211
18.527575 121.073471 304.955444
18.530281 121.588142 304.999969
18.530281 122.085136 304.999969
18.530281 122.582130 304.999969
18.528492 123.067245 304.970551
18.528492 123.564201 304.970551
18.527273 124.052986 304.950500
18.526638 124.545624 304.940033
18.526638 125.042519 304.940033
18.526592 125.539108 304.939270
18.526592 126.035995 304.939270
18.526592 126.532890 304.939270
18.511410 126.925682 304.689362
18.511410 127.422165 304.689362
18.511410 127.918655 304.689362
18.511318 128.414520 304.687866
18.511244 128.910492 304.686646
18.511189 129.406586 304.685730
18.511189 129.903061 304.685730
18.505386 130.358673 304.590240
18.451372 130.473053 303.701172
18.451372 130.967926 303.701172
18.442873 131.402237 303.561279
18.441675 131.888321 303.541565
18.441675 132.382950 303.541565
18.441675 132.877563 303.541565
18.437452 133.341644 303.472076
18.437452 133.836151 303.472076
18.432165 134.292130 303.385040
18.556686 143.660294 305.434601
18.556686 144.157990 305.434601
18.556686 144.655685 305.434601
18.554358 145.135178 305.396271
18.554358 145.632828 305.396271
18.552555 146.116272 305.366608
18.533369 146.462234 305.050812
18.533369 146.959320 305.050812
18.526772 147.403900 304.942230
18.572054 148.262283 305.687531
18.572054 148.760391 305.687531
18.572054 149.258514 305.687531
18.584599 149.857773 305.894012
18.584599 150.356232 305.894012
18.605921 151.027771 306.244995
18.605921 151.526794 306.244995
18.605921 152.025818 306.244995
17.922731 160.864548 295.000000
17.922731 161.345245 295.000000
17.922731 161.825943 295.000000
17.922731 162.306641 295.000000
17.922731 162.787338 295.000000
17.922731 163.268036 295.000000
17.861977 163.193665 294.000000
17.861977 163.672745 294.000000
17.861977 164.151810 294.000000
17.861977 164.630875 294.000000
17.861977 165.109940 294.000000
17.801222 165.025787 293.000000
17.740467 164.938370 292.000000
17.740467 165.414169 292.000000
17.740467 165.889984 292.000000
17.679710 165.796051 291.000000
17.679710 166.270233 291.000000
17.618956 166.171402 290.000000
17.618956 166.643951 290.000000
17.618956 167.116501 290.000000
23.892982 15.382229 383.000000
23.892982 16.006323 383.000000
23.892982 16.630415 383.000000
23.830599 17.209457 382.000000
23.830599 17.831923 382.000000
23.830599 18.454386 382.000000
23.830599 19.076851 382.000000
23.830599 19.699314 382.000000
23.830599 20.321779 382.000000
23.768215 20.889416 381.000000
23.768215 21.510250 381.000000
23.768215 22.131084 381.000000
23.768215 22.751919 381.000000
23.768215 23.372753 381.000000
23.705832 23.930614 380.000000
23.282513 26.544024 373.214294
23.282513 27.152170 373.214294
23.282513 27.760319 373.214294
23.571873 28.721035 377.852692
23.571873 29.336742 377.852692
23.571873 29.952448 377.852692
23.539148 30.525719 377.328125
23.539148 31.140570 377.328125
23.500973 31.703917 376.716156
23.456430 32.256519 376.002167
23.456430 32.869209 376.002167
23.414865 33.422569 375.335876
23.414865 34.034176 375.335876
23.414865 34.645782 375.335876
23.232317 34.982510 372.409668
23.099556 35.385971 370.281525
23.099556 35.989342 370.281525
22.997431 36.430931 368.644470
22.885075 36.850712 366.843445
22.885075 37.448479 366.843445
22.785669 37.880985 365.250000
22.665377 38.273026 363.321716
22.665377 38.865051 363.321716
22.554081 39.263336 361.537689
22.451094 39.670483 359.886810
22.451094 40.256912 359.886810
21.709551 39.494316 348.000000
21.709551 40.061375 348.000000
21.709551 40.628437 348.000000
21.647167 41.077118 347.000000
21.647167 41.642551 347.000000
21.647167 42.207985 347.000000
21.647167 42.773415 347.000000
21.647167 43.338848 347.000000
21.647167 43.904282 347.000000
21.647167 44.469711 347.000000
21.647167 45.035145 347.000000
21.584784 45.469166 346.000000
21.584784 46.032967 346.000000
21.584784 46.596771 346.000000
21.584784 47.160572 346.000000
21.584784 47.724373 346.000000
21.584784 48.288177 346.000000
21.522400 48.710793 345.000000
21.522400 49.272964 345.000000
21.522400 49.835136 345.000000
21.522400 50.397308 345.000000
21.522400 50.959484 345.000000
21.460016 51.372318 344.000000
21.522400 52.083828 345.000000
21.522400 52.646004 345.000000
21.522400 53.208176 345.000000
21.516159 53.754765 344.899994
21.516159 54.316772 344.899994
21.509298 54.861282 344.790009
21.501751 55.403660 344.669006
21.501751 55.965298 344.669006
21.493446 56.505096 344.535889
21.490551 57.058830 344.489502
21.490551 57.620174 344.489502
21.297728 57.659485 341.398590
20.980349 57.348248 336.311035
20.980349 57.896263 336.311035
20.939625 58.330833 335.658234
20.774889 58.414581 333.017548
20.631180 58.549404 330.713928
20.631180 59.088291 330.713928
20.486917 59.210251 328.401428
20.254595 59.067860 324.677338
20.254595 59.596916 324.677338
20.218618 60.019180 324.100647
20.098223 60.186752 322.170715
20.098223 60.711727 322.170715
19.214199 58.543198 308.000000
19.214199 59.045078 308.000000
19.214199 59.546963 308.000000
19.214199 60.048843 308.000000
19.214199 60.550724 308.000000
19.214199 61.052608 308.000000
19.214199 61.554489 308.000000
19.214199 62.056370 308.000000
19.214199 62.558254 308.000000
19.214199 63.060135 308.000000
19.151815 63.355644 307.000000
19.151815 63.855900 307.000000
19.151815 64.356148 307.000000
19.151815 64.856407 307.000000
19.151815 65.356659 307.000000
19.151815 65.856911 307.000000
19.151815 66.357162 307.000000
19.151815 66.857414 307.000000
19.151815 67.357666 307.000000
19.151815 67.857918 307.000000
19.151815 68.358170 307.000000
19.151815 68.858421 307.000000
19.151815 69.358681 307.000000
19.151815 69.858932 307.000000
19.151815 70.359184 307.000000
19.151815 70.859436 307.000000
19.151815 71.359688 307.000000
19.151815 71.859940 307.000000
19.151815 72.360191 307.000000
19.151815 72.860443 307.000000
19.151815 73.360695 307.000000
19.214199 74.101540 308.000000
19.214199 74.603424 308.000000
19.214199 75.105309 308.000000
19.214199 75.607185 308.000000
19.214199 76.109070 308.000000
19.214199 76.610954 308.000000
19.214199 77.112831 308.000000
19.214199 77.614716 308.000000
19.214199 78.116600 308.000000
19.214199 78.618484 308.000000
19.276583 79.377251 309.000000
19.276583 79.880760 309.000000
19.276583 80.384270 309.000000
19.276583 80.887787 309.000000
19.276583 81.391296 309.000000
19.338966 82.159836 310.000000
19.338966 82.664978 310.000000
19.338966 83.170120 310.000000
19.338966 83.675255 310.000000
19.338966 84.180397 310.000000
19.401350 84.958717 311.000000
19.401350 85.465492 311.000000
19.401350 85.972260 311.000000
19.401350 86.479034 311.000000
19.401350 86.985802 311.000000
19.401350 87.492577 311.000000
19.401350 87.999344 311.000000
19.401350 88.506111 311.000000
19.401350 89.012886 311.000000
19.401350 89.519653 311.000000
19.401350 90.026428 311.000000
19.401350 90.533195 311.000000
19.401350 91.039970 311.000000
19.401350 91.546738 311.000000
19.401350 92.053513 311.000000
19.401350 92.560280 311.000000
19.401350 93.067047 311.000000
19.401350 93.573822 311.000000
19.401350 94.080589 311.000000
19.401350 94.587364 311.000000
19.401350 95.094131 311.000000
19.338966 95.293503 310.000000
19.338966 95.798645 310.000000
19.338966 96.303787 310.000000
19.338966 96.808929 310.000000
19.338966 97.314064 310.000000
19.338966 97.819206 310.000000
19.338966 98.324348 310.000000
19.338966 98.829491 310.000000
19.282822 99.046242 309.100006
19.282822 99.549919 309.100006
19.282822 100.053589 309.100006
19.276583 100.524734 309.000000
19.262873 100.956398 308.780243
19.245743 101.369324 308.505646
19.245743 101.872032 308.505646
19.145239 104.840591 306.894562
19.145239 105.340675 306.894562
19.145239 105.840752 306.894562
19.121691 106.210052 306.517120
19.062527 107.375183 305.568726
19.062527 107.873108 305.568726
19.062527 108.371033 305.568726
19.042873 108.756706 305.253693
19.033995 109.203178 305.111359
19.033995 109.700348 305.111359
19.010565 110.061874 304.735779
19.003016 110.514534 304.614777
19.003016 111.010902 304.614777
19.001026 111.495598 304.582886
19.010983 112.050591 304.742493
19.010983 112.547165 304.742493
19.010983 113.043739 304.742493
19.012362 113.548546 304.764587
19.012362 114.045158 304.764587
19.012362 114.541771 304.764587
19.012362 115.038383 304.764587
19.010983 115.526619 304.742493
19.010983 116.023193 304.742493
19.007895 116.500824 304.692963
19.005283 116.981255 304.651123
19.005283 117.477676 304.651123
19.005816 117.977394 304.659637
19.006842 118.480232 304.676086
19.006842 118.976700 304.676086
19.008585 119.484131 304.704041
19.008585 119.980644 304.704041
19.008585 120.477150 304.704041
19.008345 120.972137 304.700195
19.008081 121.466965 304.695984
19.008081 121.963463 304.695984
19.007792 122.458076 304.691315
19.007473 122.952507 304.686218
19.007473 123.448997 304.686218
19.007122 123.943184 304.680573
19.007219 124.440308 304.682159
19.007219 124.936783 304.682159
19.007431 125.434654 304.685547
19.007593 125.932205 304.688141
19.007593 126.428688 304.688141
19.007669 126.925682 304.689362
19.007669 127.422165 304.689362
19.007669 127.918655 304.689362
19.007576 128.414520 304.687866
19.007500 128.910492 304.686646
19.007442 129.406586 304.685730
19.007442 129.903061 304.685730
19.001486 130.358673 304.590240
18.946022 130.473053 303.701172
18.946022 130.967926 303.701172
18.937296 131.402237 303.561279
18.936066 131.888321 303.541565
18.936066 132.382950 303.541565
18.936066 132.877563 303.541565
18.931730 133.341644 303.472076
18.931730 133.836151 303.472076
18.926302 134.292130 303.385040
19.054161 143.660294 305.434601
19.054161 144.157990 305.434601
19.054161 144.655685 305.434601
19.051769 145.135178 305.396271
19.051769 145.632828 305.396271
19.049919 146.116272 305.366608
19.030218 146.462234 305.050812
19.030218 146.959320 305.050812
19.023443 147.403900 304.942230
19.069939 148.262283 305.687531
19.069939 148.760391 305.687531
19.172462 150.060959 307.330963
19.172462 150.561737 307.330963
19.172462 151.062531 307.330963
19.104715 151.027771 306.244995
19.104715 151.526794 306.244995
19.104715 152.025818 306.244995
18.403210 161.825943 295.000000
18.465593 162.856842 296.000000
18.465593 163.339157 296.000000
18.465593 163.821487 296.000000
18.465593 164.303818 296.000000
18.465593 164.786148 296.000000
18.403210 164.710129 295.000000
18.340826 164.630875 294.000000
18.340826 165.109940 294.000000
18.340826 165.589020 294.000000
18.216059 164.938370 292.000000
18.216059 165.414169 292.000000
18.216059 165.889984 292.000000
18.216059 166.365799 292.000000
18.216059 166.841614 292.000000
18.153675 166.744415 291.000000
18.091291 166.643951 290.000000
18.091291 167.116501 290.000000
24.516790 15.382229 383.000000
24.516790 16.006323 383.000000
24.516790 16.630415 383.000000
24.452778 17.209457 382.000000
24.452778 17.831923 382.000000
24.452778 18.454386 382.000000
24.452778 19.076851 382.000000
24.452778 19.699314 382.000000
24.452778 20.321779 382.000000
24.388765 20.889416 381.000000
24.388765 21.510250 381.000000
24.388765 22.131084 381.000000
24.388765 22.751919 381.000000
24.388765 23.372753 381.000000
24.324753 23.930614 380.000000
23.646290 26.272816 369.401093
23.646290 26.874750 369.401093
23.646290 27.476686 369.401093
24.187298 28.721035 377.852692
24.187298 29.336742 377.852692
24.187298 29.952448 377.852692
24.153719 30.525719 377.328125
24.153719 31.140570 377.328125
23.661457 31.108231 369.638031
23.661457 31.710552 369.638031
23.661457 32.312874 369.638031
23.661457 32.915192 369.638031
23.480316 33.260925 366.808289
23.480316 33.858635 366.808289
23.359921 34.279667 364.927460
23.264290 34.731541 363.433502
23.264290 35.323750 363.433502
23.189150 35.799957 362.259674
23.093554 36.240238 360.766266
23.093554 36.828102 360.766266
23.013397 37.286102 359.514099
22.917461 37.714046 358.015381
22.917461 38.297428 358.015381
22.836956 38.744225 356.757721
22.757317 39.188419 355.513611
22.757317 39.767723 355.513611
22.212339 39.380825 347.000000
22.212339 39.946255 347.000000
22.212339 40.511688 347.000000
22.212339 41.077118 347.000000
22.148327 41.522545 346.000000
22.148327 42.086349 346.000000
22.148327 42.650150 346.000000
22.148327 43.213955 346.000000
22.148327 43.777756 346.000000
22.148327 44.341560 346.000000
22.148327 44.905361 346.000000
22.148327 45.469166 346.000000
22.148327 46.032967 346.000000
22.148327 46.596771 346.000000
22.148327 47.160572 346.000000
22.148327 47.724373 346.000000
22.098068 48.178604 345.214874
22.093498 48.731049 345.143494
22.093498 49.293457 345.143494
22.084314 49.835136 345.000000
22.082535 50.393246 344.972198
22.082535 50.955376 344.972198
22.082357 51.517090 344.969421
22.084314 52.083828 345.000000
22.084314 52.646004 345.000000
22.084314 53.208176 345.000000
22.081709 53.764000 344.959290
22.081709 54.326111 344.959290
22.081450 54.887569 344.955231
22.081161 55.448948 344.950745
22.081161 56.011044 344.950745
22.078520 56.566360 344.909454
22.076563 57.123329 344.878906
22.076563 57.685303 344.878906
21.860415 57.676983 341.502228
21.486326 57.236935 335.658234
21.486326 57.783886 335.658234
21.486326 58.330833 335.658234
