21.946033 22.638309 311.169983
21.964081 23.164391 311.425903
21.964081 23.671856 311.425903
21.969002 24.184736 311.495667
21.977180 24.701509 311.611633
21.982313 25.215162 311.684418
21.982313 25.723049 311.684418
21.983572 26.232435 311.702240
21.983572 26.740349 311.702240
21.983572 27.248266 311.702240
21.982117 27.754341 311.681610
21.940720 28.209002 311.094666
21.940720 28.715927 311.094666
21.948151 29.232748 311.200012
21.963200 29.760235 311.413391
21.963200 30.267679 311.413391
21.971939 30.787369 311.537292
21.971939 31.295015 311.537292
21.971939 31.802660 311.537292
21.990002 32.336872 311.793427
21.990002 32.844933 311.793427
21.990002 33.352997 311.793427
21.478994 167.559830 304.547913
21.478994 168.056076 304.547913
21.478994 168.552338 304.547913
21.473101 169.002197 304.464325
21.473101 169.498322 304.464325
21.460192 169.892258 304.281311
21.416639 170.042282 303.663788
21.416639 170.537109 303.663788
21.416639 171.031921 303.663788
21.294434 170.547974 301.931030
21.214525 170.398148 300.798035
21.214525 170.888290 300.798035
21.145580 170.821472 299.820465
21.089027 170.851868 299.018616
21.089027 171.339111 299.018616
21.045525 171.471909 298.401794
21.045525 171.958160 298.401794
21.045525 172.444397 298.401794
20.911169 171.826660 296.496796
20.873478 171.999207 295.962372
20.873478 172.481476 295.962372
20.830261 172.605637 295.349609
20.805603 172.882019 295.000000
20.805603 173.362717 295.000000
20.735077 173.254120 294.000000
20.594021 172.551331 292.000000
20.594021 173.027145 292.000000
20.523495 172.908768 291.000000
20.523495 173.382935 291.000000
20.523495 173.857117 291.000000
22.440582 -0.178734 311.000000
22.440582 0.328037 311.000000
22.440582 0.834807 311.000000
22.440582 1.341578 311.000000
22.440582 1.848348 311.000000
22.440582 2.355119 311.000000
22.441887 2.862056 311.018066
22.441887 3.368856 311.018066
22.446157 3.876394 311.077271
22.489674 4.391788 311.680328
22.489674 4.899667 311.680328
22.522810 5.415514 312.139557
22.522810 5.924141 312.139557
22.522810 6.432768 312.139557
22.471815 6.925680 311.432861
22.459412 7.429053 311.260956
22.459412 7.936249 311.260956
22.459412 8.443445 311.260956
22.462387 8.951826 311.302185
22.464567 9.460007 311.332397
22.464567 9.967319 311.332397
22.467079 10.475803 311.367218
22.469599 10.984404 311.402130
22.469599 11.491829 311.402130
22.471941 12.000506 311.434601
22.471941 12.507985 311.434601
22.471941 13.015464 311.434601
22.470169 13.521876 311.410034
22.441921 14.011679 311.018555
22.441921 14.518479 311.018555
22.459410 15.036989 311.260925
22.459410 15.544185 311.260925
22.459410 16.051380 311.260925
22.459969 16.558987 311.268677
22.459969 17.066196 311.268677
22.459969 17.573406 311.268677
22.459728 18.080418 311.265320
22.459242 18.587219 311.258606
22.459242 19.094412 311.258606
22.458462 19.600922 311.247772
22.457346 20.107100 311.232330
22.457346 20.614248 311.232330
22.455887 21.120024 311.212097
22.454458 21.625763 311.192291
22.454458 22.132847 311.192291
22.452848 22.638309 311.169983
22.471315 23.164391 311.425903
22.471315 23.671856 311.425903
22.476347 24.184736 311.495667
22.484715 24.701509 311.611633
22.489967 25.215162 311.684418
22.489967 25.723049 311.684418
22.491255 26.232435 311.702240
22.491255 26.740349 311.702240
22.491255 27.248266 311.702240
22.489765 27.754341 311.681610
21.975023 167.559830 304.547913
21.975023 168.056076 304.547913
21.975023 168.552338 304.547913
21.968992 169.002197 304.464325
21.968992 169.498322 304.464325
21.955788 169.892258 304.281311
21.911230 170.042282 303.663788
21.911230 170.537109 303.663788
21.911230 171.031921 303.663788
21.786200 170.547974 301.931030
21.704449 170.398148 300.798035
21.704449 170.888290 300.798035
21.633909 170.821472 299.820465
21.576052 170.851868 299.018616
21.576052 171.339111 299.018616
21.531544 171.471909 298.401794
21.531544 171.958160 298.401794
21.531544 172.444397 298.401794
21.451429 172.287201 297.291504
21.451429 172.771622 297.291504
21.451429 173.256073 297.291504
21.311308 172.605637 295.349609
21.286083 172.882019 295.000000
21.286083 173.362717 295.000000
21.213926 173.254120 294.000000
21.141769 173.142258 293.000000
21.141769 173.619705 293.000000
20.997458 172.908768 291.000000
20.997458 173.382935 291.000000
20.997458 173.857117 291.000000
22.947121 -0.178734 311.000000
22.947121 0.328037 311.000000
22.947121 0.834807 311.000000
22.947121 1.341578 311.000000
22.947121 1.848348 311.000000
22.947121 2.355119 311.000000
22.948456 2.862056 311.018066
22.948456 3.368856 311.018066
22.952822 3.876394 311.077271
22.997318 4.391788 311.680328
22.997318 4.899667 311.680328
23.031202 5.415514 312.139557
23.031202 5.924141 312.139557
23.031202 6.432768 312.139557
22.979059 6.925680 311.432861
22.966375 7.429053 311.260956
22.966375 7.936249 311.260956
22.966375 8.443445 311.260956
22.969419 8.951826 311.302185
22.971647 9.460007 311.332397
22.971647 9.967319 311.332397
22.974216 10.475803 311.367218
22.976793 10.984404 311.402130
22.976793 11.491829 311.402130
22.979187 12.000506 311.434601
22.979187 12.507985 311.434601
22.979187 13.015464 311.434601
22.977377 13.521876 311.410034
22.948490 14.011679 311.018555
22.948490 14.518479 311.018555
22.966373 15.036989 311.260925
22.966373 15.544185 311.260925
22.966373 16.051380 311.260925
22.966946 16.558987 311.268677
22.966946 17.066196 311.268677
22.966946 17.573406 311.268677
22.966698 18.080418 311.265320
22.966202 18.587219 311.258606
22.966202 19.094412 311.258606
22.965403 19.600922 311.247772
22.964264 20.107100 311.232330
22.964264 20.614248 311.232330
22.962770 21.120024 311.212097
22.961309 21.625763 311.192291
22.961309 22.132847 311.192291
22.959663 22.638309 311.169983
22.978546 23.164391 311.425903
22.978546 23.671856 311.425903
22.983694 24.184736 311.495667
22.992250 24.701509 311.611633
22.997622 25.215162 311.684418
22.997622 25.723049 311.684418
22.998936 26.232435 311.702240
22.998936 26.740349 311.702240
22.998936 27.248266 311.702240
22.997414 27.754341 311.681610
22.464888 168.506088 304.464325
22.464888 169.002197 304.464325
22.464888 169.498322 304.464325
22.451384 169.892258 304.281311
22.405819 170.042282 303.663788
22.405819 170.537109 303.663788
22.405819 171.031921 303.663788
22.277967 170.547974 301.931030
22.194370 170.398148 300.798035
22.194370 170.888290 300.798035
22.122240 170.821472 299.820465
22.063074 170.851868 299.018616
22.063074 171.339111 299.018616
22.017563 171.471909 298.401794
22.017563 171.958160 298.401794
22.017563 172.444397 298.401794
21.935640 172.287201 297.291504
21.935640 172.771622 297.291504
21.935640 173.256073 297.291504
21.782570 172.528107 295.216949
21.761274 172.840027 294.928345
21.761274 173.320618 294.928345
21.692776 173.254120 294.000000
21.618992 173.142258 293.000000
21.618992 173.619705 293.000000
23.453659 -0.178734 311.000000
23.453659 0.328037 311.000000
23.453659 0.834807 311.000000
23.453659 1.341578 311.000000
23.453659 1.848348 311.000000
23.453659 2.355119 311.000000
23.455023 2.862056 311.018066
23.455023 3.368856 311.018066
23.459486 3.876394 311.077271
23.506372 4.392050 311.698975
23.506372 4.899960 311.698975
23.509632 5.408620 311.742218
23.509632 5.916600 311.742218
23.509632 6.424580 311.742218
23.486225 6.925657 311.431824
23.469305 7.427776 311.207458
23.469305 7.934885 311.207458
23.461990 8.439363 311.110474
23.461990 8.946314 311.110474
23.471470 9.457083 311.236176
23.471470 9.964239 311.236176
23.473370 10.472241 311.261353
23.475206 10.980296 311.285706
23.475206 11.487533 311.285706
23.476778 11.995572 311.306549
23.476778 12.502843 311.306549
23.476778 13.010113 311.306549
23.454044 13.504292 311.005096
23.446074 14.006311 310.899414
23.446074 14.512918 310.899414
23.461315 15.029288 311.101532
23.461424 15.536296 311.102966
23.461424 16.043234 311.102966
23.461424 16.550173 311.102966
23.461370 17.057072 311.102234
23.461370 17.564009 311.102234
23.451283 18.063175 310.968475
23.453529 18.571672 310.998260
23.453529 19.078440 310.998260
23.453529 19.585209 310.998260
23.446705 20.086130 310.907776
23.446705 20.592751 310.907776
23.447081 21.099709 310.912750
23.447081 21.606337 310.912750
23.447081 22.112967 310.912750
22.698795 168.545242 300.990356
22.698795 169.035706 300.990356
22.698795 169.526169 300.990356
22.631863 169.515305 300.102814
22.527874 169.223175 298.723907
22.527874 169.709946 298.723907
22.419851 169.380600 297.291504
22.437798 170.001022 297.529480
22.437798 170.485825 297.529480
22.437798 170.970657 297.529480
22.437798 171.455475 297.529480
22.437798 171.940292 297.529480
22.437798 172.425125 297.529480
22.437798 172.909927 297.529480
22.437798 173.394760 297.529480
22.437798 173.879578 297.529480
22.241636 172.840027 294.928345
22.241636 173.320618 294.928345
22.171627 173.254120 294.000000
22.096212 173.142258 293.000000
22.096212 173.619705 293.000000
23.960197 -0.178734 311.000000
23.960197 0.328037 311.000000
23.960197 0.834807 311.000000
23.960197 1.341578 311.000000
23.960197 1.848348 311.000000
23.960197 2.355119 311.000000
23.961554 2.862052 311.017609
23.961554 3.368851 311.017609
23.966118 3.876389 311.076843
24.014050 4.392050 311.698975
24.014050 4.899960 311.698975
24.017380 5.408620 311.742218
24.017380 5.916600 311.742218
24.017380 6.424580 311.742218
23.993467 6.925657 311.431824
23.977436 7.428165 311.223755
23.977436 7.935300 311.223755
23.968313 8.439222 311.105316
23.964529 8.944753 311.056213
23.965429 9.451970 311.067902
23.965429 9.958852 311.067902
23.965874 10.465927 311.073669
23.966169 10.972953 311.077515
23.966169 11.479850 311.077515
23.966169 11.986747 311.077515
23.962355 12.491654 311.027985
23.962355 12.998470 311.027985
23.947889 13.497134 310.840240
23.947889 14.003644 310.840240
23.947889 14.510156 310.840240
23.936357 15.009434 310.690552
23.933050 15.513556 310.647614
23.933050 16.019753 310.647614
23.940310 16.530962 310.741852
23.940310 17.037312 310.741852
23.940310 17.543663 310.741852
23.014420 168.736404 298.723907
23.014420 169.223175 298.723907
23.014420 169.709946 298.723907
22.898300 169.337997 297.216705
22.922396 170.001022 297.529480
22.922396 170.485825 297.529480
22.922396 170.970657 297.529480
22.922396 171.455475 297.529480
22.922396 171.940292 297.529480
22.922396 172.425125 297.529480
22.922396 172.909927 297.529480
22.922396 173.394760 297.529480
22.922396 173.879578 297.529480
22.719662 172.822250 294.898010
22.719662 173.302780 294.898010
22.607290 172.923782 293.439453
22.650742 175.172455 294.003448
22.650742 175.651520 294.003448
22.650742 176.130600 294.003448
24.466736 -0.178734 311.000000
24.466736 0.328037 311.000000
24.466736 0.834807 311.000000
24.466736 1.341578 311.000000
24.466736 1.848348 311.000000
24.466736 2.355119 311.000000
24.468122 2.862052 311.017609
24.468122 3.368851 311.017609
24.472782 3.876389 311.076843
24.521725 4.392050 311.698975
24.521725 4.899960 311.698975
24.525127 5.408620 311.742218
24.525127 5.916600 311.742218
24.525127 6.424580 311.742218
24.500710 6.925657 311.431824
24.484341 7.428165 311.223755
24.484341 7.935300 311.223755
24.475021 8.439222 311.105316
24.471159 8.944753 311.056213
24.472078 9.451970 311.067902
24.472078 9.958852 311.067902
24.472532 10.465927 311.073669
24.472834 10.972953 311.077515
24.472834 11.479850 311.077515
24.472834 11.986747 311.077515
24.468939 12.491654 311.027985
24.468939 12.998470 311.027985
24.454168 13.497134 310.840240
24.454168 14.003644 310.840240
24.454168 14.510156 310.840240
24.442392 15.009434 310.690552
24.439014 15.513556 310.647614
24.439014 16.019753 310.647614
24.446428 16.530962 310.741852
24.446428 17.037312 310.741852
24.446428 17.543663 310.741852
23.500963 168.736404 298.723907
23.500963 169.223175 298.723907
23.500963 169.709946 298.723907
23.382389 169.337997 297.216705
23.406996 170.001022 297.529480
23.406996 170.485825 297.529480
23.406996 170.970657 297.529480
23.406996 171.455475 297.529480
23.406996 171.940292 297.529480
23.406996 172.425125 297.529480
23.406996 172.909927 297.529480
23.406996 173.394760 297.529480
23.406996 173.879578 297.529480
23.136299 172.347916 294.088623
23.136299 172.827133 294.088623
23.085228 172.923782 293.439453
22.955870 172.430283 291.795166
22.955870 172.905762 291.795166
22.930019 173.186005 291.466583
23.129599 175.172455 294.003448
23.129599 175.651520 294.003448
23.129599 176.130600 294.003448
22.998135 175.605865 292.332397
22.998135 176.082214 292.332397
22.814642 175.149872 290.000000
22.814642 175.622437 290.000000
22.814642 176.094986 290.000000
22.814642 176.567535 290.000000
24.973274 -0.178734 311.000000
24.973274 0.328037 311.000000
24.973274 0.834807 311.000000
24.973274 1.341578 311.000000
24.973274 1.848348 311.000000
24.973274 2.355119 311.000000
24.974689 2.862052 311.017609
24.974689 3.368851 311.017609
24.976885 3.875991 311.044952
25.022713 4.390876 311.615662
25.022713 4.898650 311.615662
25.026392 5.407218 311.661469
25.026392 5.915067 311.661469
25.026392 6.422915 311.661469
25.005648 6.925019 311.403137
24.993040 7.428699 311.246124
24.993040 7.935871 311.246124
24.982578 8.439508 311.115845
24.976749 8.944381 311.043274
24.977684 9.451575 311.054901
24.977684 9.958435 311.054901
24.978119 10.465477 311.060303
24.978119 10.972345 311.060303
24.978119 11.479215 311.060303
24.942448 13.993547 310.616089
24.942448 14.499691 310.616089
24.942448 15.005836 310.616089
24.937662 15.509006 310.556488
24.937662 16.015053 310.556488
23.779392 169.202652 296.132202
23.779392 169.685196 296.132202
23.779392 170.167740 296.132202
23.767368 170.563980 295.982452
23.767368 171.046280 295.982452
23.767368 171.528580 295.982452
23.767368 172.010880 295.982452
23.767368 172.493179 295.982452
23.654211 172.151947 294.573273
23.615294 172.347916 294.088623
23.615294 172.827133 294.088623
23.563166 172.923782 293.439453
23.431129 172.430283 291.795166
23.431129 172.905762 291.795166
23.404745 173.186005 291.466583
23.608454 175.172455 294.003448
23.608454 175.651520 294.003448
23.608454 176.130600 294.003448
23.474268 175.605865 292.332397
23.474268 176.082214 292.332397
23.313877 175.352203 290.334991
23.313877 175.825302 290.334991
23.313877 176.298401 290.334991
23.286978 176.567535 290.000000
23.286978 177.040085 290.000000
23.286978 177.512634 290.000000
23.286978 177.985184 290.000000
23.286978 178.457733 290.000000
23.286978 178.930283 290.000000
25.479813 -0.178734 311.000000
25.479813 0.328037 311.000000
25.479813 0.834807 311.000000
25.479813 1.341578 311.000000
25.479813 1.848348 311.000000
25.479813 2.355119 311.000000
25.480106 2.861923 311.003571
25.480106 3.368699 311.003571
25.482273 3.875804 311.029999
25.528139 4.390513 311.589844
25.528139 4.898244 311.589844
25.532110 5.406817 311.638306
25.532110 5.914628 311.638306
25.532110 6.422438 311.638306
25.516146 6.925916 311.443451
25.501997 7.429287 311.270752
25.501997 7.936499 311.270752
25.490255 8.439823 311.127441
25.483446 8.944411 311.044342
25.485100 9.451868 311.064514
25.485100 9.958743 311.064514
25.485683 10.465859 311.071655
25.485683 10.972747 311.071655
25.485683 11.479633 311.071655
24.215599 170.325912 295.569336
24.215599 170.807541 295.569336
24.215599 171.289169 295.569336
24.186348 171.563293 295.212280
24.186348 172.044327 295.212280
23.968679 171.449432 292.555481
23.968679 171.926147 292.555481
23.968679 172.402863 292.555481
23.906387 172.430283 291.795166
23.906387 172.905762 291.795166
23.879467 173.186005 291.466583
23.928104 174.014648 292.060242
23.928104 174.490555 292.060242
23.950403 175.129517 292.332397
23.950403 175.605865 292.332397
23.950403 176.082214 292.332397
23.786757 175.352203 290.334991
23.786757 175.825302 290.334991
23.786757 176.298401 290.334991
23.759312 176.567535 290.000000
23.759312 177.040085 290.000000
23.759312 177.512634 290.000000
23.759312 177.985184 290.000000
23.759312 178.457733 290.000000
23.759312 178.930283 290.000000
25.986353 -0.178734 311.000000
25.986353 0.328037 311.000000
25.986353 0.834807 311.000000
25.986353 1.341578 311.000000
25.986353 1.848348 311.000000
25.986353 2.355119 311.000000
25.986650 2.861923 311.003571
25.986650 3.368699 311.003571
25.988859 3.875804 311.029999
26.035639 4.390513 311.589844
26.035639 4.898244 311.589844
26.039688 5.406817 311.638306
26.039688 5.914628 311.638306
26.039688 6.422438 311.638306
26.023405 6.925916 311.443451
26.008976 7.429287 311.270752
26.008976 7.936499 311.270752
25.997002 8.439823 311.127441
25.990059 8.944411 311.044342
25.991745 9.451868 311.064514
25.991745 9.958743 311.064514
25.992340 10.465859 311.071655
25.992340 10.972747 311.071655
25.992340 11.479633 311.071655
24.321245 171.528824 291.072296
24.321245 172.003128 291.072296
24.321245 172.477417 291.072296
24.262581 172.534546 290.370209
24.291142 173.211349 290.712006
24.291142 173.685059 290.712006
24.291142 174.158768 290.712006
24.276327 174.525986 290.534729
24.276327 174.999420 290.534729
24.259638 175.352203 290.334991
24.259638 175.825302 290.334991
24.259638 176.298401 290.334991
24.231647 176.567535 290.000000
24.231647 177.040085 290.000000
24.231647 177.512634 290.000000
24.231647 177.985184 290.000000
24.231647 178.457733 290.000000
24.231647 178.930283 290.000000
24.231647 179.402847 290.000000
26.492891 -0.178734 311.000000
26.492891 0.328037 311.000000
26.492891 0.834807 311.000000
26.492891 1.341578 311.000000
26.492891 1.848348 311.000000
26.492891 2.355119 311.000000
26.493013 2.861903 311.001434
26.493013 3.368676 311.001434
26.496271 3.875925 311.039673
26.540253 4.390036 311.555969
26.540253 4.897712 311.555969
26.544434 5.406240 311.605042
26.544434 5.913996 311.605042
26.544434 6.421753 311.605042
26.530666 6.925916 311.443451
26.518261 7.429933 311.297821
26.518261 7.937189 311.297821
26.506134 8.440583 311.155457
26.501598 8.946075 311.102203
26.501598 9.453012 311.102203
26.498388 9.958743 311.064514
26.498995 10.465859 311.071655
26.498995 10.972747 311.071655
26.498995 11.479633 311.071655
24.723806 172.452835 290.232697
24.792686 173.407532 291.041290
24.792686 173.881790 291.041290
24.792686 174.356033 291.041290
24.781967 174.754700 290.915466
24.781967 175.228745 290.915466
24.774355 175.648819 290.826111
24.774355 176.122726 290.826111
24.774355 176.596619 290.826111
24.789167 177.176392 291.000000
24.789167 177.650574 291.000000
24.789167 178.124756 291.000000
24.789167 178.598938 291.000000
24.789167 179.073105 291.000000
24.789167 179.547287 291.000000
24.703981 179.402847 290.000000
26.999430 -0.178734 311.000000
26.999430 0.328037 311.000000
26.999430 0.834807 311.000000
26.999430 1.341578 311.000000
26.999430 1.848348 311.000000
26.999430 2.355119 311.000000
26.999350 2.861881 310.999084
26.999350 3.368650 310.999084
27.002874 3.875925 311.039673
27.066423 4.393075 311.771698
27.066423 4.901103 311.771698
27.066423 5.409131 311.771698
27.048965 5.913342 311.570587
27.048965 6.421042 311.570587
27.026056 6.922874 311.306702
27.025286 7.429933 311.297821
27.025286 7.937189 311.297821
27.014339 8.441026 311.171753
27.008301 8.946075 311.102203
27.008301 9.453012 311.102203
27.003216 9.958073 311.043579
25.196520 172.452835 290.232697
25.266718 173.407532 291.041290
25.266718 173.881790 291.041290
25.266718 174.356033 291.041290
25.255793 174.754700 290.915466
25.255793 175.228745 290.915466
25.248035 175.648819 290.826111
25.248035 176.122726 290.826111
25.248035 176.596619 290.826111
25.263132 177.176392 291.000000
25.263132 177.650574 291.000000
25.263132 178.124756 291.000000
25.263132 178.598938 291.000000
25.263132 179.073105 291.000000
25.263132 179.547287 291.000000
25.176317 179.402847 290.000000
27.505968 -0.178734 311.000000
27.505968 0.328037 311.000000
27.505968 0.834807 311.000000
27.505968 1.341578 311.000000
27.505968 1.848348 311.000000
27.505968 2.355119 311.000000
27.505888 2.861881 310.999084
27.505888 3.368650 310.999084
27.509478 3.875925 311.039673
27.574219 4.393075 311.771698
27.574219 4.901103 311.771698
27.574219 5.409131 311.771698
27.556433 5.913342 311.570587
27.556433 6.421042 311.570587
27.533094 6.922874 311.306702
27.532309 7.429933 311.297821
27.532309 7.937189 311.297821
27.521158 8.441026 311.171753
27.515009 8.946075 311.102203
27.515009 9.453012 311.102203
27.509823 9.958073 311.043579
25.740747 173.407532 291.041290
25.740747 173.881790 291.041290
25.740747 174.356033 291.041290
25.729620 174.754700 290.915466
25.729620 175.228745 290.915466
25.725098 175.671906 290.864349
25.721716 176.122726 290.826111
25.721716 176.596619 290.826111
25.737095 177.176392 291.000000
25.825539 178.261047 292.000000
25.825539 178.736862 292.000000
25.825539 179.212677 292.000000
25.737095 179.073105 291.000000
25.737095 179.547287 291.000000
25.648653 179.402847 290.000000
28.012506 -0.178734 311.000000
28.012506 0.328037 311.000000
28.012506 0.834807 311.000000
28.012506 1.341578 311.000000
28.012506 1.848348 311.000000
28.012506 2.355119 311.000000
28.012169 2.861855 310.996246
28.012169 3.368619 310.996246
28.015818 3.875889 311.036743
28.082014 4.393075 311.771698
28.082014 4.901103 311.771698
28.082014 5.409131 311.771698
28.062046 5.912951 311.549988
28.062046 6.420618 311.549988
28.040133 6.922874 311.306702
28.034546 7.428665 311.244690
28.034546 7.935834 311.244690
28.027977 8.441026 311.171753
26.198841 174.723999 290.864349
26.198841 175.197968 290.864349
26.198841 175.671906 290.864349
26.187719 176.071106 290.740875
26.187719 176.544861 290.740875
26.191423 177.043655 290.781982
26.301132 178.261047 292.000000
26.301132 178.736862 292.000000
26.301132 179.212677 292.000000
26.211060 179.073105 291.000000
26.211060 179.547287 291.000000
26.120987 180.347946 290.000000
26.120987 180.820496 290.000000
26.120987 181.293045 290.000000
28.519045 0.834807 311.000000
28.519045 1.341578 311.000000
28.519045 1.848348 311.000000
28.519045 2.355119 311.000000
28.519526 2.861938 311.005219
28.519526 3.368717 311.005219
28.522612 3.875915 311.038879
28.564030 4.389113 311.490540
28.564030 4.896683 311.490540
28.567450 5.404900 311.527832
28.567450 5.912531 311.527832
28.567450 6.420161 311.527832
28.546124 6.922621 311.295288
26.672585 174.723999 290.864349
26.672585 175.197968 290.864349
26.672585 175.671906 290.864349
26.661263 176.071106 290.740875
26.661263 176.544861 290.740875
26.665031 177.043655 290.781982
26.776724 178.261047 292.000000
26.776724 178.736862 292.000000
26.776724 179.212677 292.000000
26.685024 179.073105 291.000000
26.685024 179.547287 291.000000
26.593323 180.347946 290.000000
26.593323 180.820496 290.000000
26.593323 181.293045 290.000000
29.025583 0.834807 311.000000
29.025583 1.341578 311.000000
29.025583 1.848348 311.000000
29.025583 2.355119 311.000000
29.026072 2.861938 311.005219
29.026072 3.368717 311.005219
29.029213 3.875915 311.038879
29.071367 4.389113 311.490540
29.071367 4.896683 311.490540
29.074846 5.404900 311.527832
29.074846 5.912531 311.527832
29.074846 6.420161 311.527832
29.053144 6.922621 311.295288
27.085127 175.748749 290.208588
27.085127 176.221634 290.208588
27.096619 176.769531 290.331757
27.120188 177.396790 290.584290
27.120188 177.870285 290.584290
27.120188 178.343796 290.584290
27.105190 178.718399 290.423584
27.105190 179.191650 290.423584
27.084471 179.527542 290.201569
27.065657 180.347946 290.000000
27.065657 180.820496 290.000000
27.065657 181.293045 290.000000
29.532122 1.341578 311.000000
29.532122 1.848348 311.000000
29.532122 2.355119 311.000000
29.532619 2.861938 311.005219
29.532619 3.368717 311.005219
29.535816 3.875915 311.038879
29.577929 4.388999 311.482361
29.577929 4.896554 311.482361
29.577929 5.404111 311.482361
27.593475 177.396790 290.584290
27.593475 177.870285 290.584290
27.593475 178.343796 290.584290
27.578215 178.718399 290.423584
27.578215 179.191650 290.423584
27.557133 179.527542 290.201569
27.544374 179.917068 290.067200
27.537992 180.347946 290.000000
27.537992 180.820496 290.000000
27.537992 181.293045 290.000000
28.066765 177.396790 290.584290
28.066765 177.870285 290.584290
28.066765 178.343796 290.584290
28.051241 178.718399 290.423584
28.051241 179.191650 290.423584
28.029797 179.527542 290.201569
28.016817 179.917068 290.067200
28.010328 180.347946 290.000000
28.010328 180.820496 290.000000
28.010328 181.293045 290.000000
28.489264 178.499084 290.067200
28.489264 178.971756 290.067200
28.489264 179.444412 290.067200
28.489264 179.917068 290.067200
28.489264 180.389740 290.067200
28.489264 180.862396 290.067200
28.961706 178.971756 290.067200
28.961706 179.444412 290.067200
28.961706 179.917068 290.067200
28.961706 180.389740 290.067200
28.961706 180.862396 290.067200
28.959471 181.321060 290.044800
28.959471 181.793686 290.044800
28.959471 182.266312 290.044800
29.434153 178.971756 290.067200
29.434153 179.444412 290.067200
29.434153 179.917068 290.067200
29.434153 180.389740 290.067200
29.434153 180.862396 290.067200
29.431879 181.321060 290.044800
29.431879 181.793686 290.044800
29.431879 182.266312 290.044800
29.906597 179.917068 290.067200
29.906597 180.389740 290.067200
29.906597 180.862396 290.067200
29.904287 181.321060 290.044800
29.904287 181.793686 290.044800
29.904287 182.266312 290.044800
29.904287 182.738922 290.044800
29.904287 183.211548 290.044800
29.904287 183.684174 290.044800
30.376696 181.321060 290.044800
30.376696 181.793686 290.044800
30.376696 182.266312 290.044800
30.376696 182.738922 290.044800
30.376696 183.211548 290.044800
30.376696 183.684174 290.044800
30.376696 184.156799 290.044800
30.849104 181.321060 290.044800
30.849104 181.793686 290.044800
30.849104 182.266312 290.044800
30.849104 182.738922 290.044800
30.849104 183.211548 290.044800
30.849104 183.684174 290.044800
30.849104 184.156799 290.044800
31.321512 182.738922 290.044800
31.321512 183.211548 290.044800
31.321512 183.684174 290.044800
31.321512 184.156799 290.044800
31.321512 184.629425 290.044800
31.321512 185.102051 290.044800
31.793921 183.211548 290.044800
31.793921 183.684174 290.044800
31.793921 184.156799 290.044800
31.793921 184.629425 290.044800
31.793921 185.102051 290.044800
31.793921 185.574677 290.044800
31.793921 186.047287 290.044800
31.793921 186.519913 290.044800
31.793921 186.992554 290.044800
32.266327 183.211548 290.044800
32.266327 183.684174 290.044800
32.266327 184.156799 290.044800
32.266327 184.629425 290.044800
32.266327 185.102051 290.044800
32.266327 185.574677 290.044800
32.266327 186.047287 290.044800
32.266327 186.519913 290.044800
32.266327 186.992554 290.044800
32.266327 187.465179 290.044800
32.266327 187.937790 290.044800
32.738735 184.156799 290.044800
32.738735 184.629425 290.044800
32.738735 185.102051 290.044800
32.738735 185.574677 290.044800
32.738735 186.047287 290.044800
32.738735 186.519913 290.044800
32.738735 186.992554 290.044800
32.738735 187.465179 290.044800
32.738735 187.937790 290.044800
33.211143 186.047287 290.044800
33.211143 186.519913 290.044800
33.211143 186.992554 290.044800
33.211143 187.465179 290.044800
33.211143 187.937790 290.044800
33.211143 188.410416 290.044800
33.211143 188.883041 290.044800
33.211143 189.355667 290.044800
33.683552 186.992554 290.044800
33.683552 187.465179 290.044800
33.683552 187.937790 290.044800
33.683552 188.410416 290.044800
33.683552 188.883041 290.044800
33.683552 189.355667 290.044800
33.683552 189.828293 290.044800
34.155956 186.992554 290.044800
34.155956 187.465179 290.044800
34.155956 187.937790 290.044800
34.155956 188.410416 290.044800
34.155956 188.883041 290.044800
34.155956 189.355667 290.044800
34.155956 189.828293 290.044800
34.628365 188.410416 290.044800
34.628365 188.883041 290.044800
34.628365 189.355667 290.044800
34.628365 189.828293 290.044800
34.628365 190.300919 290.044800
34.628365 190.773544 290.044800
35.100773 188.883041 290.044800
35.100773 189.355667 290.044800
35.100773 189.828293 290.044800
35.100773 190.300919 290.044800
35.100773 190.773544 290.044800
35.573181 188.883041 290.044800
35.573181 189.355667 290.044800
35.573181 189.828293 290.044800
35.573181 190.300919 290.044800
35.573181 190.773544 290.044800
42.106865 216.016281 326.000000
42.106865 216.547485 326.000000
42.106865 217.078705 326.000000
42.637836 216.016281 326.000000
42.637836 216.547485 326.000000
42.637836 217.078705 326.000000
42.637836 217.609909 326.000000
42.637836 218.141129 326.000000
42.637836 218.672333 326.000000
43.168804 216.016281 326.000000
43.168804 216.547485 326.000000
43.168804 217.078705 326.000000
43.168804 217.609909 326.000000
43.168804 218.141129 326.000000
43.168804 218.672333 326.000000
43.699776 216.016281 326.000000
43.699776 216.547485 326.000000
43.699776 217.078705 326.000000
43.699776 217.609909 326.000000
43.699776 218.141129 326.000000
43.699776 218.672333 326.000000
43.699776 219.203552 326.000000
44.230743 216.016281 326.000000
44.230743 216.547485 326.000000
44.230743 217.078705 326.000000
44.230743 217.609909 326.000000
44.230743 218.141129 326.000000
44.230743 218.672333 326.000000
44.230743 219.203552 326.000000
44.230743 219.734772 326.000000
44.230743 220.265976 326.000000
44.230743 220.797195 326.000000
44.761715 216.016281 326.000000
44.761715 216.547485 326.000000
44.761715 217.078705 326.000000
44.761715 217.609909 326.000000
44.761715 218.141129 326.000000
44.761715 218.672333 326.000000
44.761715 219.203552 326.000000
44.761715 219.734772 326.000000
44.761715 220.265976 326.000000
44.761715 220.797195 326.000000
44.761715 221.328400 326.000000
44.761715 221.859619 326.000000
45.292686 216.016281 326.000000
45.292686 216.547485 326.000000
45.292686 217.078705 326.000000
45.292686 217.609909 326.000000
45.292686 218.141129 326.000000
45.292686 219.203552 326.000000
45.292686 219.734772 326.000000
45.292686 220.265976 326.000000
45.292686 220.797195 326.000000
45.292686 221.328400 326.000000
45.292686 221.859619 326.000000
45.823654 219.734772 326.000000
45.823654 220.265976 326.000000
45.823654 220.797195 326.000000
45.823654 221.328400 326.000000
45.823654 221.859619 326.000000
45.823654 222.390823 326.000000
45.823654 222.922043 326.000000
45.823654 223.453262 326.000000
45.823654 223.984467 326.000000
46.354626 220.797195 326.000000
46.354626 221.328400 326.000000
46.354626 221.859619 326.000000
46.354626 222.390823 326.000000
46.354626 222.922043 326.000000
46.354626 223.453262 326.000000
46.354626 223.984467 326.000000
46.354626 224.515686 326.000000
46.354626 225.046890 326.000000
46.885593 220.797195 326.000000
46.885593 221.328400 326.000000
46.885593 221.859619 326.000000
46.885593 222.390823 326.000000
46.885593 222.922043 326.000000
46.885593 223.453262 326.000000
46.885593 223.984467 326.000000
46.885593 224.515686 326.000000
46.885593 225.046890 326.000000
47.416565 222.922043 326.000000
47.416565 223.453262 326.000000
47.416565 223.984467 326.000000
47.416565 224.515686 326.000000
47.416565 225.046890 326.000000
47.416565 225.578110 326.000000
47.416565 226.109314 326.000000
47.416565 226.640533 326.000000
47.947533 223.984467 326.000000
47.947533 224.515686 326.000000
47.947533 225.046890 326.000000
47.947533 225.578110 326.000000
47.947533 226.109314 326.000000
47.947533 226.640533 326.000000
47.947533 227.171753 326.000000
48.478504 223.984467 326.000000
48.478504 224.515686 326.000000
48.478504 225.046890 326.000000
48.478504 225.578110 326.000000
48.478504 226.109314 326.000000
48.478504 226.640533 326.000000
48.478504 227.171753 326.000000
49.009472 225.578110 326.000000
49.009472 226.109314 326.000000
49.009472 226.640533 326.000000
49.009472 227.171753 326.000000
49.009472 227.702957 326.000000
49.009472 228.234177 326.000000
49.009472 228.765381 326.000000
49.540443 226.109314 326.000000
49.540443 226.640533 326.000000
49.540443 227.171753 326.000000
49.540443 227.702957 326.000000
49.540443 228.234177 326.000000
49.540443 228.765381 326.000000
50.071411 226.109314 326.000000
50.071411 226.640533 326.000000
50.071411 227.171753 326.000000
50.071411 227.702957 326.000000
50.071411 228.234177 326.000000
50.071411 228.765381 326.000000
77.887665 -25.327835 367.000000
77.887665 -24.729813 367.000000
77.887665 -24.131792 367.000000
78.029152 29.145000 367.666656
78.029152 29.744108 367.666656
78.029152 30.343216 367.666656
77.871956 30.879986 366.925934
78.559723 31.755901 370.166656
78.559723 32.359085 370.166656
78.559723 32.962265 370.166656
78.559723 33.565449 370.166656
78.559723 34.168633 370.166656
78.559723 34.771812 370.166656
78.499596 35.347919 369.883331
78.499596 35.950638 369.883331
78.433449 36.522556 369.571655
78.360687 37.090332 369.228821
78.360687 37.691982 369.228821
78.280663 38.254528 368.851715
78.208969 38.819984 368.513916
78.208969 39.420471 368.513916
78.352715 40.094517 369.191223
78.400787 40.721081 369.417755
78.400787 41.323040 369.417755
78.400787 41.925003 369.417755
78.384895 42.518345 369.342865
78.384895 43.120182 369.342865
78.367416 43.712273 369.260498
78.348175 44.303101 369.169861
78.348175 44.904659 369.169861
78.333031 45.497417 369.098511
78.322998 46.092953 369.051208
78.323074 46.694366 369.051605
78.323074 47.295734 369.051605
78.336136 47.905079 369.113098
78.348846 48.514416 369.173004
78.348846 49.115978 369.173004
78.348846 49.717541 369.173004
78.348457 50.318855 369.171173
78.348457 50.920414 369.171173
78.343224 51.518536 369.146515
78.339058 52.117283 369.126892
78.339058 52.718769 369.126892
78.336220 53.318325 369.113525
78.335220 53.919106 369.108826
78.335220 54.520565 369.108826
78.336449 55.122883 369.114594
78.605911 55.916031 370.384277
78.605911 56.519569 370.384277
78.631622 57.141792 370.505432
78.631622 57.745525 370.505432
78.631622 58.349255 370.505432
78.400719 58.779873 369.417419
78.405937 59.385796 369.442047
78.405937 59.987793 369.442047
78.405937 60.589794 369.442047
78.485420 -25.327835 367.000000
78.485420 -24.729813 367.000000
78.485420 -24.131792 367.000000
79.768562 25.313185 373.000000
79.768562 25.920982 373.000000
79.768562 26.528782 373.000000
79.768562 27.136580 373.000000
79.768562 27.744377 373.000000
79.768562 28.352177 373.000000
79.768562 28.959974 373.000000
79.768562 29.567774 373.000000
78.627991 29.744108 367.666656
78.627991 30.343216 367.666656
78.469582 30.879986 366.925934
79.162628 31.755901 370.166656
79.162628 32.359085 370.166656
79.162628 32.962265 370.166656
79.162628 33.565449 370.166656
79.162628 34.168633 370.166656
79.162628 34.771812 370.166656
79.102043 35.347919 369.883331
79.102043 35.950638 369.883331
79.035385 36.522556 369.571655
78.962067 37.090332 369.228821
78.962067 37.691982 369.228821
78.881424 38.254528 368.851715
78.809181 38.819984 368.513916
78.809181 39.420471 368.513916
78.954033 40.094517 369.191223
79.002472 40.721081 369.417755
79.002472 41.323040 369.417755
79.002472 41.925003 369.417755
78.986458 42.518345 369.342865
78.986458 43.120182 369.342865
78.968842 43.712273 369.260498
78.949463 44.303101 369.169861
78.949463 44.904659 369.169861
78.934196 45.497417 369.098511
78.924080 46.092953 369.051208
78.924171 46.694366 369.051605
78.924171 47.295734 369.051605
78.937325 47.905079 369.113098
78.950127 48.514416 369.173004
78.950127 49.115978 369.173004
78.950127 49.717541 369.173004
78.949745 50.318855 369.171173
78.949745 50.920414 369.171173
78.944466 51.518536 369.146515
78.940269 52.117283 369.126892
78.940269 52.718769 369.126892
78.937408 53.318325 369.113525
78.936409 53.919106 369.108826
78.936409 54.520565 369.108826
78.937637 55.122883 369.114594
79.209167 55.916031 370.384277
79.209167 56.519569 370.384277
79.235085 57.141792 370.505432
79.235085 57.745525 370.505432
79.235085 58.349255 370.505432
79.002403 58.779873 369.417419
79.007668 59.385796 369.442047
79.007668 59.987793 369.442047
79.007668 60.589794 369.442047
79.083168 -25.327835 367.000000
79.083168 -24.729813 367.000000
79.083168 -24.131792 367.000000
80.376083 25.313185 373.000000
80.376083 25.920982 373.000000
80.376083 26.528782 373.000000
80.376083 27.136580 373.000000
80.376083 27.744377 373.000000
80.376083 28.352177 373.000000
80.376083 28.959974 373.000000
80.376083 29.567774 373.000000
79.226822 29.744108 367.666656
79.226822 30.343216 367.666656
79.067207 30.879986 366.925934
79.765541 31.755901 370.166656
79.765541 32.359085 370.166656
79.765541 32.962265 370.166656
79.765541 33.565449 370.166656
79.765541 34.168633 370.166656
79.765541 34.771812 370.166656
79.704483 35.347919 369.883331
79.704483 35.950638 369.883331
79.637321 36.522556 369.571655
79.563446 37.090332 369.228821
79.563446 37.691982 369.228821
79.482185 38.254528 368.851715
79.409393 38.819984 368.513916
79.409393 39.420471 368.513916
79.555344 40.094517 369.191223
79.604156 40.721081 369.417755
79.604156 41.323040 369.417755
79.604156 41.925003 369.417755
79.588020 42.518345 369.342865
79.588020 43.120182 369.342865
79.570274 43.712273 369.260498
79.550743 44.303101 369.169861
79.550743 44.904659 369.169861
79.535370 45.497417 369.098511
79.525169 46.092953 369.051208
79.525261 46.694366 369.051605
79.525261 47.295734 369.051605
79.538513 47.905079 369.113098
79.551422 48.514416 369.173004
79.551422 49.115978 369.173004
79.551422 49.717541 369.173004
79.551025 50.318855 369.171173
79.551025 50.920414 369.171173
79.545708 51.518536 369.146515
79.541481 52.117283 369.126892
79.541481 52.718769 369.126892
79.538605 53.318325 369.113525
79.537590 53.919106 369.108826
79.537590 54.520565 369.108826
79.538834 55.122883 369.114594
79.812424 55.916031 370.384277
79.812424 56.519569 370.384277
79.838539 57.141792 370.505432
79.838539 57.745525 370.505432
79.838539 58.349255 370.505432
79.604088 58.779873 369.417419
79.609398 59.385796 369.442047
79.609398 59.987793 369.442047
79.609398 60.589794 369.442047
82.315445 67.629059 382.000000
82.315445 68.251526 382.000000
82.459106 68.994179 382.666656
82.459106 69.617737 382.666656
82.459106 70.241280 382.666656
82.387276 70.803101 382.333313
82.387276 71.426109 382.333313
82.387276 72.049118 382.333313
82.387276 72.672127 382.333313
82.387276 73.295128 382.333313
82.387276 73.918144 382.333313
82.387276 74.541145 382.333313
82.387276 75.164154 382.333313
82.387276 75.787163 382.333313
82.387276 76.410172 382.333313
82.387276 77.033173 382.333313
82.394455 77.662949 382.366638
82.394455 78.286018 382.366638
82.394455 78.909081 382.366638
82.388069 79.525963 382.336975
82.388069 80.148979 382.336975
82.388145 80.772072 382.337341
82.388222 81.395164 382.337738
82.388222 82.018181 382.337738
82.388329 82.641296 382.338196
82.388428 83.264420 382.338684
82.388428 83.887436 382.338684
82.388428 84.510452 382.338684
80.983604 25.313185 373.000000
80.983604 25.920982 373.000000
80.983604 26.528782 373.000000
80.983604 27.136580 373.000000
80.983604 27.744377 373.000000
80.983604 28.352177 373.000000
80.983604 28.959974 373.000000
80.983604 29.567774 373.000000
82.937630 67.629059 382.000000
82.937630 68.251526 382.000000
83.082367 68.994179 382.666656
83.082367 69.617737 382.666656
83.082367 70.241280 382.666656
83.009995 70.803101 382.333313
83.009995 71.426109 382.333313
83.009995 72.049118 382.333313
83.009995 72.672127 382.333313
83.009995 73.295128 382.333313
83.009995 73.918144 382.333313
83.009995 74.541145 382.333313
83.009995 75.164154 382.333313
83.009995 75.787163 382.333313
83.009995 76.410172 382.333313
83.009995 77.033173 382.333313
83.017235 77.662949 382.366638
83.017235 78.286018 382.366638
83.017235 78.909081 382.366638
83.010796 79.525963 382.336975
83.010796 80.148979 382.336975
83.010872 80.772072 382.337341
83.010956 81.395164 382.337738
83.010956 82.018181 382.337738
83.011055 82.641296 382.338196
83.011162 83.264420 382.338684
83.011162 83.887436 382.338684
83.011162 84.510452 382.338684
83.559807 67.629059 382.000000
83.559807 68.251526 382.000000
83.705635 68.994179 382.666656
83.705635 69.617737 382.666656
83.705635 70.241280 382.666656
83.632721 70.803101 382.333313
83.632721 71.426109 382.333313
83.632721 72.049118 382.333313
83.632721 72.672127 382.333313
83.632721 73.295128 382.333313
83.632721 73.918144 382.333313
83.632721 74.541145 382.333313
83.632721 75.164154 382.333313
83.632721 75.787163 382.333313
83.632721 76.410172 382.333313
83.632721 77.033173 382.333313
83.640007 77.662949 382.366638
83.640007 78.286018 382.366638
83.640007 78.909081 382.366638
83.633522 79.525963 382.336975
83.633522 80.148979 382.336975
83.633598 80.772072 382.337341
83.633682 81.395164 382.337738
83.633682 82.018181 382.337738
83.633789 82.641296 382.338196
83.633896 83.264420 382.338684
83.633896 83.887436 382.338684
83.633896 84.510452 382.338684
82.198639 25.920982 373.000000
82.198639 26.528782 373.000000
82.198639 27.136580 373.000000
84.256516 82.641296 382.338196
84.256592 83.264389 382.338562
84.256592 83.887413 382.338562
84.256592 84.510422 382.338562
84.256592 85.133438 382.338562
84.256592 85.756454 382.338562
82.806160 25.313185 373.000000
82.806160 25.920982 373.000000
82.806160 26.528782 373.000000
82.806160 27.136580 373.000000
84.879242 82.641296 382.338196
84.879326 83.264389 382.338562
84.879326 83.887413 382.338562
84.879326 84.510422 382.338562
84.879326 85.133438 382.338562
84.879326 85.756454 382.338562
83.413681 25.313185 373.000000
83.413681 25.920982 373.000000
83.413681 26.528782 373.000000
83.413681 27.136580 373.000000
85.502060 83.264389 382.338562
85.502060 83.887413 382.338562
85.502060 84.510422 382.338562
85.502060 85.133438 382.338562
85.502060 85.756454 382.338562
82.669655 -28.915966 367.000000
82.669655 -28.317944 367.000000
82.669655 -27.719923 367.000000
82.669655 -25.327835 367.000000
82.669655 -24.729813 367.000000
82.669655 -24.131792 367.000000
84.021202 25.313185 373.000000
84.021202 25.920982 373.000000
84.021202 26.528782 373.000000
84.021202 27.136580 373.000000
76.812950 27.586784 341.000000
76.812950 28.142441 341.000000
76.812950 28.698095 341.000000
86.124786 84.510422 382.338562
86.124786 85.133438 382.338562
86.124786 85.756454 382.338562
86.124786 86.379471 382.338562
83.267403 -28.915966 367.000000
83.267403 -28.317944 367.000000
83.267403 -27.719923 367.000000
83.267403 -25.327835 367.000000
83.267403 -24.729813 367.000000
83.267403 -24.131792 367.000000
77.368355 27.031130 341.000000
77.368355 27.586784 341.000000
77.368355 28.142441 341.000000
77.368355 28.698095 341.000000
77.368355 29.253750 341.000000
77.368355 29.809406 341.000000
86.747520 84.510422 382.338562
86.747520 85.133438 382.338562
86.747520 85.756454 382.338562
86.747520 86.379471 382.338562
83.865150 -28.915966 367.000000
83.865150 -28.317944 367.000000
83.865150 -27.719923 367.000000
83.865150 -25.327835 367.000000
83.865150 -24.729813 367.000000
83.865150 -24.131792 367.000000
77.923752 27.031130 341.000000
77.923752 27.586784 341.000000
77.923752 28.142441 341.000000
77.923752 28.698095 341.000000
77.923752 29.253750 341.000000
77.923752 29.809406 341.000000
87.370255 84.510422 382.338562
87.370255 85.133438 382.338562
87.370255 85.756454 382.338562
87.370255 86.379471 382.338562
87.370255 87.002487 382.338562
87.370255 87.625504 382.338562
84.462898 -28.915966 367.000000
84.462898 -28.317944 367.000000
84.462898 -27.719923 367.000000
78.479156 27.031130 341.000000
78.479156 27.586784 341.000000
78.479156 28.142441 341.000000
78.479156 28.698095 341.000000
78.479156 29.253750 341.000000
78.479156 29.809406 341.000000
87.992981 85.133438 382.338562
87.992981 85.756454 382.338562
87.992981 86.379471 382.338562
87.992981 87.002487 382.338562
87.992981 87.625504 382.338562
79.034554 27.586784 341.000000
79.034554 28.142441 341.000000
79.034554 28.698095 341.000000
88.615715 85.133438 382.338562
88.615715 85.756454 382.338562
88.615715 86.379471 382.338562
88.615715 87.002487 382.338562
88.615715 87.625504 382.338562
87.121658 86.760651 375.892365
89.238441 86.379471 382.338562
89.238441 87.002487 382.338562
89.238441 87.625504 382.338562
87.733887 86.760651 375.892365
85.302010 84.951286 365.473083
85.302010 85.546829 365.473083
90.016632 57.820595 383.000000
90.016632 58.444691 383.000000
90.016632 59.068783 383.000000
90.016632 59.692875 383.000000
90.016632 60.316971 383.000000
90.016632 67.806091 383.000000
90.016632 68.430191 383.000000
90.251663 69.234581 384.000000
90.251663 69.860306 384.000000
90.251663 70.486031 384.000000
88.346123 84.923119 375.892365
88.346123 85.535629 375.892365
88.346123 86.148148 375.892365
88.346123 86.760651 375.892365
85.897270 84.951286 365.473083
85.897270 85.546829 365.473083
89.457138 55.217922 378.000000
89.457138 55.833870 378.000000
89.457138 56.449814 378.000000
90.640442 57.820595 383.000000
90.640442 58.444691 383.000000
90.640442 59.068783 383.000000
90.640442 59.692875 383.000000
90.640442 60.316971 383.000000
90.640442 67.806091 383.000000
90.640442 68.430191 383.000000
90.877098 69.234581 384.000000
90.877098 69.860306 384.000000
90.877098 70.486031 384.000000
87.314476 83.955002 368.946167
87.314476 84.556190 368.946167
87.314476 85.157387 368.946167
86.492531 84.951286 365.473083
86.492531 85.546829 365.473083
90.787674 3.506045 381.000000
90.787674 4.126880 381.000000
91.025955 4.760175 382.000000
91.025955 5.382639 382.000000
91.025955 6.005104 382.000000
90.072807 55.217922 378.000000
90.072807 55.833870 378.000000
90.787674 56.897827 381.000000
91.264252 57.820595 383.000000
91.264252 58.444691 383.000000
91.264252 59.068783 383.000000
91.264252 59.692875 383.000000
91.264252 60.316971 383.000000
91.264252 67.806091 383.000000
91.264252 68.430191 383.000000
91.502533 69.234581 384.000000
91.502533 69.860306 384.000000
91.502533 70.486031 384.000000
86.536064 83.821335 363.157684
86.536064 84.413094 363.157684
86.536064 85.004852 363.157684
86.315376 85.378319 362.231537
90.928391 1.634913 379.000000
90.928391 2.252489 379.000000
91.168304 2.877637 380.000000
91.408218 3.506045 381.000000
91.408218 4.126880 381.000000
91.648140 4.760175 382.000000
91.648140 5.382639 382.000000
91.648140 6.005104 382.000000
91.648140 6.627568 382.000000
90.928391 46.100365 379.000000
90.928391 46.717941 379.000000
90.928391 47.335518 379.000000
90.688469 47.826565 378.000000
90.688469 48.442513 378.000000
90.688469 55.217922 378.000000
90.688469 55.833870 378.000000
91.408218 56.897827 381.000000
91.648140 57.669632 382.000000
91.648140 58.292095 382.000000
91.648140 58.914562 382.000000
91.648140 59.537025 382.000000
91.648140 60.159489 382.000000
90.928391 60.304604 379.000000
90.688469 66.304955 378.000000
91.408218 67.452019 381.000000
91.408218 68.072853 381.000000
91.648140 68.873985 382.000000
91.648140 69.496452 382.000000
91.648140 70.118919 382.000000
90.688469 70.000633 378.000000
87.127556 83.821335 363.157684
87.127556 84.413094 363.157684
87.127556 85.004852 363.157684
86.905357 85.378319 362.231537
91.545685 1.634913 379.000000
91.545685 2.252489 379.000000
91.787231 2.877637 380.000000
92.028770 3.506045 381.000000
92.028770 4.126880 381.000000
92.270317 4.760175 382.000000
92.270317 5.382639 382.000000
92.270317 6.005104 382.000000
92.270317 6.627568 382.000000
91.545685 46.100365 379.000000
91.545685 46.717941 379.000000
91.545685 47.335518 379.000000
91.304138 47.826565 378.000000
91.304138 48.442513 378.000000
90.821045 48.798893 376.000000
90.579506 49.280163 375.000000
90.579506 49.891220 375.000000
90.579506 50.502277 375.000000
91.062592 55.071842 377.000000
91.062592 55.686157 377.000000
92.028770 56.897827 381.000000
92.270317 57.669632 382.000000
92.270317 58.292095 382.000000
92.270317 58.914562 382.000000
92.270317 59.537025 382.000000
92.270317 60.159489 382.000000
91.545685 60.304604 379.000000
90.337952 60.118458 374.000000
90.337952 60.727886 374.000000
91.304138 66.304955 378.000000
92.028770 67.452019 381.000000
92.028770 68.072853 381.000000
92.270317 68.873985 382.000000
92.270317 69.496452 382.000000
92.270317 70.118919 382.000000
91.304138 70.000633 378.000000
87.663124 83.767891 362.926147
87.663124 84.359276 362.926147
87.663124 84.950653 362.926147
87.495338 85.378319 362.231537
92.162979 1.634913 379.000000
92.162979 2.252489 379.000000
92.406151 2.877637 380.000000
92.649323 3.506045 381.000000
92.649323 4.126880 381.000000
