-45.608459 106.667252 347.000000
-45.608459 107.232681 347.000000
-45.477020 107.487450 346.000000
-45.214149 107.426682 344.000000
-45.214149 107.987221 344.000000
-45.082714 108.232216 343.000000
-45.082714 108.791130 343.000000
-45.082714 109.350044 343.000000
-44.951275 109.588539 342.000000
-44.951275 110.145821 342.000000
-44.819839 110.379410 341.000000
-44.819839 110.935066 341.000000
-44.688404 111.163765 340.000000
-44.688404 111.717796 340.000000
-44.688404 112.271820 340.000000
-44.556969 112.494003 339.000000
-44.556969 113.046402 339.000000
-44.556969 113.598793 339.000000
-44.425529 113.814461 338.000000
-44.294094 114.026863 337.000000
-44.294094 114.576004 337.000000
-44.162659 114.783524 336.000000
-44.162659 115.331032 336.000000
-44.162659 115.878540 336.000000
-44.162659 116.426041 336.000000
-44.031219 116.625427 335.000000
-44.031219 117.171303 335.000000
-43.899788 117.365784 334.000000
-43.768349 117.557007 333.000000
-43.768349 118.099632 333.000000
-43.768349 118.642250 333.000000
-43.768349 119.184868 333.000000
-43.768349 119.727486 333.000000
-43.768349 120.270103 333.000000
-43.636913 120.449921 332.000000
-43.636913 120.990913 332.000000
-43.636913 121.531906 332.000000
-43.374039 121.337509 330.000000
-43.374039 121.875244 330.000000
-43.374039 122.412971 330.000000
-43.242603 122.578125 329.000000
-43.242603 123.114227 329.000000
-43.242603 123.650322 329.000000
-43.242603 124.186424 329.000000
-43.242603 124.722527 329.000000
-43.242603 125.258629 329.000000
-43.111168 125.412384 328.000000
-43.111168 125.946861 328.000000
-43.111168 126.481331 328.000000
-42.979729 126.628555 327.000000
-42.979729 127.161400 327.000000
-42.979729 127.694244 327.000000
-42.848293 127.834953 326.000000
-42.848293 128.366165 326.000000
-42.848293 128.897369 326.000000
-42.848293 129.428589 326.000000
-42.716854 129.561157 325.000000
-42.716854 130.090729 325.000000
-42.716854 130.620316 325.000000
-42.585419 130.746368 324.000000
-42.585419 131.274307 324.000000
-42.585419 131.802261 324.000000
-42.585419 132.330215 324.000000
-42.585419 132.858170 324.000000
-42.585419 133.386124 324.000000
-42.453983 133.500763 323.000000
-42.453983 134.027084 323.000000
-42.453983 134.553421 323.000000
-42.453983 135.079742 323.000000
-42.453983 135.606064 323.000000
-42.453983 136.132385 323.000000
-42.453983 136.658707 323.000000
-42.453983 137.185043 323.000000
-42.453983 137.711365 323.000000
-42.453983 138.237686 323.000000
-42.453983 138.764008 323.000000
-42.453983 139.290329 323.000000
-42.322548 139.383789 322.000000
-42.322548 139.908478 322.000000
-42.322548 140.433182 322.000000
-42.322548 140.957870 322.000000
-42.322548 141.482574 322.000000
-42.322548 142.007263 322.000000
-42.322548 142.531952 322.000000
-42.322548 143.056656 322.000000
-42.322548 143.581345 322.000000
-42.322548 144.106049 322.000000
-42.322548 144.630737 322.000000
-42.322548 145.155441 322.000000
-42.322548 145.680130 322.000000
-42.322548 146.204819 322.000000
-42.322548 146.729523 322.000000
-42.322548 147.254211 322.000000
-42.322548 147.778915 322.000000
-42.322548 148.303604 322.000000
-42.322548 148.828293 322.000000
-42.322548 149.352997 322.000000
-42.322548 149.877686 322.000000
-42.322548 150.402390 322.000000
-42.322548 150.927078 322.000000
-42.322548 151.451767 322.000000
-42.453983 152.448441 323.000000
-42.453983 152.974777 323.000000
-42.453983 153.501099 323.000000
-42.453983 154.027420 323.000000
-42.453983 154.553741 323.000000
-42.453983 155.080063 323.000000
-42.453983 155.606400 323.000000
-42.254353 155.398544 321.481171
-42.278423 156.011215 321.664307
-42.278423 156.535370 321.664307
-42.329575 157.249527 322.053467
-42.358089 157.880600 322.270416
-42.358089 158.405731 322.270416
-42.358089 158.930862 322.270416
-42.308945 159.270996 321.896515
-42.308945 159.795532 321.896515
-51.721447 77.682640 398.446533
-52.312519 79.227089 403.000000
-52.312519 79.883774 403.000000
-52.312519 80.540459 403.000000
-52.182709 80.995651 402.000000
-52.182709 81.650711 402.000000
-52.052902 82.101021 401.000000
-51.923100 82.548073 400.000000
-51.793289 82.991875 399.000000
-51.793289 83.642036 399.000000
-51.533672 83.869682 397.000000
-51.403866 84.303703 396.000000
-51.403866 84.948982 396.000000
-51.274055 85.378113 395.000000
-51.144249 85.803978 394.000000
-51.144249 86.445999 394.000000
-51.014442 86.866982 393.000000
-50.884636 87.284706 392.000000
-50.884636 87.923462 392.000000
-50.754826 88.336296 391.000000
-50.625019 88.745872 390.000000
-50.625019 89.381371 390.000000
-50.625019 90.016876 390.000000
-50.365402 90.187492 388.000000
-50.365402 90.819733 388.000000
-50.235596 91.216270 387.000000
-50.105789 91.609550 386.000000
-50.105789 92.238533 386.000000
-50.105789 92.867516 386.000000
-49.975979 93.254280 385.000000
-49.975979 93.881638 385.000000
-49.716366 94.018028 383.000000
-49.586555 94.395020 382.000000
-49.586555 95.017487 382.000000
-49.586555 95.639946 382.000000
-49.456749 96.010414 381.000000
-49.456749 96.631248 381.000000
-49.326942 96.996826 380.000000
-49.197136 97.359146 379.000000
-49.197136 97.976723 379.000000
-49.197136 98.594299 379.000000
-49.067326 98.950104 378.000000
-49.067326 99.566048 378.000000
-49.067326 100.181999 378.000000
-48.937519 100.531281 377.000000
-48.548096 100.340729 374.000000
-48.548096 100.950157 374.000000
-48.548096 101.559578 374.000000
-48.418289 101.895828 373.000000
-48.418289 102.503624 373.000000
-48.038853 102.303375 370.076935
-47.851349 102.504761 368.632477
-47.851349 103.105446 368.632477
-47.653378 103.277069 367.107361
-47.381264 103.282112 365.011078
-47.381264 103.876892 365.011078
-47.230644 104.139572 363.850769
-46.779148 103.731277 360.372559
-46.779148 104.318504 360.372559
-46.530090 104.347191 358.453888
-46.306919 104.428009 356.734650
-46.306919 105.009300 356.734650
-45.302902 103.301201 349.000000
-45.302902 103.869896 349.000000
-45.302902 104.438583 349.000000
-45.173092 104.706398 348.000000
-45.043285 104.970955 347.000000
-45.043285 105.536385 347.000000
-45.043285 106.101814 347.000000
-45.043285 106.667252 347.000000
-45.043285 107.232681 347.000000
-44.913479 107.487450 346.000000
-44.653862 107.426682 344.000000
-44.653862 107.987221 344.000000
-44.524055 108.232216 343.000000
-44.524055 108.791130 343.000000
-44.524055 109.350044 343.000000
-44.394245 109.588539 342.000000
-44.394245 110.145821 342.000000
-44.264439 110.379410 341.000000
-44.264439 110.935066 341.000000
-44.134632 111.163765 340.000000
-44.134632 111.717796 340.000000
-44.134632 112.271820 340.000000
-44.004826 112.494003 339.000000
-43.875015 112.712929 338.000000
-43.875015 113.263695 338.000000
-43.745209 113.477730 337.000000
-43.745209 114.026863 337.000000
-43.745209 114.576004 337.000000
-43.615402 114.783524 336.000000
-43.615402 115.331032 336.000000
-43.615402 115.878540 336.000000
-43.615402 116.426041 336.000000
-43.355785 116.277290 334.000000
-43.355785 116.821541 334.000000
-43.225979 117.014389 333.000000
-43.225979 117.557007 333.000000
-43.225979 118.099632 333.000000
-43.225979 118.642250 333.000000
-43.225979 119.184868 333.000000
-43.225979 119.727486 333.000000
-43.096172 119.908936 332.000000
-43.096172 120.449921 332.000000
-43.096172 120.990913 332.000000
-42.966362 121.165840 331.000000
-42.836555 121.337509 330.000000
-42.836555 121.875244 330.000000
-42.706745 122.042023 329.000000
-42.706745 122.578125 329.000000
-42.706745 123.114227 329.000000
-42.706745 123.650322 329.000000
-42.576939 123.808968 328.000000
-42.576939 124.343445 328.000000
-42.576939 124.877914 328.000000
-42.576939 125.412384 328.000000
-42.447128 125.562874 327.000000
-42.447128 126.095718 327.000000
-42.447128 126.628555 327.000000
-42.447128 127.161400 327.000000
-42.447128 127.694244 327.000000
-42.317326 127.834953 326.000000
-42.317326 128.366165 326.000000
-42.317326 128.897369 326.000000
-42.317326 129.428589 326.000000
-42.187515 129.561157 325.000000
-42.187515 130.090729 325.000000
-42.187515 130.620316 325.000000
-42.057709 130.746368 324.000000
-42.057709 131.274307 324.000000
-42.057709 131.802261 324.000000
-42.057709 132.330215 324.000000
-42.057709 132.858170 324.000000
-42.057709 133.386124 324.000000
-41.927898 133.500763 323.000000
-41.927898 134.027084 323.000000
-41.927898 134.553421 323.000000
-41.927898 135.079742 323.000000
-41.927898 135.606064 323.000000
-41.927898 136.132385 323.000000
-41.927898 136.658707 323.000000
-41.927898 137.185043 323.000000
-41.927898 137.711365 323.000000
-41.927898 138.237686 323.000000
-41.927898 138.764008 323.000000
-41.927898 139.290329 323.000000
-41.798092 139.383789 322.000000
-41.798092 139.908478 322.000000
-41.798092 140.433182 322.000000
-41.798092 140.957870 322.000000
-41.798092 141.482574 322.000000
-41.798092 142.007263 322.000000
-41.798092 142.531952 322.000000
-41.798092 143.056656 322.000000
-41.798092 143.581345 322.000000
-41.798092 144.106049 322.000000
-41.798092 144.630737 322.000000
-41.798092 145.155441 322.000000
-41.798092 145.680130 322.000000
-41.798092 146.204819 322.000000
-41.798092 146.729523 322.000000
-41.798092 147.254211 322.000000
-41.798092 147.778915 322.000000
-41.798092 148.303604 322.000000
-41.798092 148.828293 322.000000
-41.798092 149.352997 322.000000
-41.798092 149.877686 322.000000
-41.798092 150.402390 322.000000
-41.798092 150.927078 322.000000
-41.798092 151.451767 322.000000
-41.927898 152.448441 323.000000
-41.927898 152.974777 323.000000
-41.927898 153.501099 323.000000
-41.927898 154.027420 323.000000
-41.927898 154.553741 323.000000
-41.927898 155.080063 323.000000
-41.927898 155.606400 323.000000
-41.730743 155.398544 321.481171
-41.754517 156.011215 321.664307
-41.754517 156.535370 321.664307
-41.805035 157.249527 322.053467
-41.833195 157.880600 322.270416
-41.833195 158.405731 322.270416
-41.833195 158.930862 322.270416
-41.784660 159.270996 321.896515
-41.784660 159.795532 321.896515
-51.072479 77.682640 398.446533
-51.656136 79.227089 403.000000
-51.656136 79.883774 403.000000
-51.656136 80.540459 403.000000
-51.527958 80.995651 402.000000
-51.527958 81.650711 402.000000
-51.399780 82.101021 401.000000
-51.271603 82.548073 400.000000
-51.271603 83.199867 400.000000
-51.271603 83.851662 400.000000
-50.887062 83.869682 397.000000
-50.758884 84.303703 396.000000
-50.758884 84.948982 396.000000
-50.630703 85.378113 395.000000
-50.502525 85.803978 394.000000
-50.502525 86.445999 394.000000
-50.246170 86.645950 392.000000
-50.246170 87.284706 392.000000
-50.246170 87.923462 392.000000
-50.117989 88.336296 391.000000
-50.117989 88.973427 391.000000
-50.117989 89.610558 391.000000
-49.989811 90.016876 390.000000
-49.733452 90.187492 388.000000
-49.733452 90.819733 388.000000
-49.605270 91.216270 387.000000
-49.477093 91.609550 386.000000
-49.477093 92.238533 386.000000
-49.477093 92.867516 386.000000
-49.348911 93.254280 385.000000
-49.348911 93.881638 385.000000
-49.092560 94.018028 383.000000
-48.964378 94.395020 382.000000
-48.964378 95.017487 382.000000
-48.964378 95.639946 382.000000
-48.836201 96.010414 381.000000
-48.836201 96.631248 381.000000
-48.836201 97.252083 381.000000
-48.708019 97.616028 380.000000
-48.579842 97.976723 379.000000
-48.579842 98.594299 379.000000
-48.451660 98.950104 378.000000
-48.451660 99.566048 378.000000
-48.451660 100.181999 378.000000
-48.323483 100.531281 377.000000
-46.780758 97.916534 364.964294
-46.780758 98.511230 364.964294
-47.074753 99.728775 367.257935
-47.233006 100.664490 368.492554
-47.233006 101.264946 368.492554
-47.233006 101.865395 368.492554
-47.043282 102.054268 367.012390
-47.043282 102.652306 367.012390
-46.838951 102.801895 365.418304
-46.568966 102.801338 363.311981
-46.568966 103.393356 363.311981
-46.424248 103.662216 362.182953
-46.192192 103.731277 360.372559
-46.192192 104.318504 360.372559
-45.946262 104.347191 358.453888
-45.725887 104.428009 356.734650
-45.725887 105.009300 356.734650
-44.606293 103.005211 348.000000
-44.606293 103.572273 348.000000
-44.606293 104.139336 348.000000
-44.478115 104.405518 347.000000
-44.478115 104.970955 347.000000
-44.478115 105.536385 347.000000
-44.478115 106.101814 347.000000
-44.349934 106.359848 346.000000
-44.349934 106.923653 346.000000
-44.093575 106.866135 344.000000
-44.093575 107.426682 344.000000
-44.093575 107.987221 344.000000
-43.965397 108.232216 343.000000
-43.965397 108.791130 343.000000
-43.965397 109.350044 343.000000
-43.837215 109.588539 342.000000
-43.837215 110.145821 342.000000
-43.709038 110.379410 341.000000
-43.709038 110.935066 341.000000
-43.580860 111.163765 340.000000
-43.452682 111.389206 339.000000
-43.452682 111.941605 339.000000
-43.452682 112.494003 339.000000
-43.324501 112.712929 338.000000
-43.324501 113.263695 338.000000
-43.196323 113.477730 337.000000
-43.196323 114.026863 337.000000
-43.196323 114.576004 337.000000
-43.068146 114.783524 336.000000
-43.068146 115.331032 336.000000
-43.068146 115.878540 336.000000
-43.068146 116.426041 336.000000
-42.811787 116.277290 334.000000
-42.811787 116.821541 334.000000
-42.683605 117.014389 333.000000
-42.683605 117.557007 333.000000
-42.683605 118.099632 333.000000
-42.683605 118.642250 333.000000
-42.555428 118.826950 332.000000
-42.555428 119.367943 332.000000
-42.555428 119.908936 332.000000
-42.427250 120.087120 331.000000
-42.427250 120.626480 331.000000
-42.299072 120.799782 330.000000
-42.170891 120.969818 329.000000
-42.170891 121.505920 329.000000
-42.170891 122.042023 329.000000
-42.170891 122.578125 329.000000
-42.170891 123.114227 329.000000
-42.042713 123.274498 328.000000
-42.042713 123.808968 328.000000
-41.914532 123.964348 327.000000
-41.914532 124.497185 327.000000
-41.914532 125.030029 327.000000
-41.914532 125.562874 327.000000
-41.914532 126.095718 327.000000
-41.914532 126.628555 327.000000
-41.786354 126.772522 326.000000
-41.786354 127.303741 326.000000
-41.786354 127.834953 326.000000
-41.786354 128.366165 326.000000
-41.786354 128.897369 326.000000
-41.658173 129.031570 325.000000
-41.658173 129.561157 325.000000
-41.658173 130.090729 325.000000
-41.529995 130.218414 324.000000
-41.529995 130.746368 324.000000
-41.529995 131.274307 324.000000
-41.529995 131.802261 324.000000
-41.529995 132.330215 324.000000
-41.529995 132.858170 324.000000
-41.401814 132.974442 323.000000
-41.401814 133.500763 323.000000
-41.401814 134.027084 323.000000
-41.401814 134.553421 323.000000
-41.401814 135.079742 323.000000
-41.401814 135.606064 323.000000
-41.401814 136.132385 323.000000
-41.401814 136.658707 323.000000
-41.401814 137.185043 323.000000
-41.401814 137.711365 323.000000
-41.273636 137.809708 322.000000
-41.273636 138.334396 322.000000
-41.273636 138.859100 322.000000
-41.273636 139.383789 322.000000
-41.273636 139.908478 322.000000
-41.273636 140.433182 322.000000
-41.145458 140.520126 321.000000
-41.145458 141.043198 321.000000
-41.145458 141.566254 321.000000
-41.145458 142.089325 321.000000
-41.145458 142.612396 321.000000
-41.145458 143.135452 321.000000
-41.145458 143.658524 321.000000
-41.145458 144.181580 321.000000
-41.145458 144.704651 321.000000
-41.273636 145.680130 322.000000
-41.273636 146.204819 322.000000
-41.273636 146.729523 322.000000
-41.273636 147.254211 322.000000
-41.273636 147.778915 322.000000
-41.273636 148.303604 322.000000
-41.273636 148.828293 322.000000
-41.273636 149.352997 322.000000
-41.273636 149.877686 322.000000
-41.145458 149.935303 321.000000
-41.273636 150.927078 322.000000
-41.273636 151.451767 322.000000
-41.273636 151.976471 322.000000
-41.273636 152.501160 322.000000
-41.273636 153.025864 322.000000
-41.273636 153.550552 322.000000
-41.273636 154.075241 322.000000
-41.273636 154.599945 322.000000
-41.273636 155.124634 322.000000
-41.401814 156.132721 323.000000
-41.401814 156.659042 323.000000
-41.401814 157.185364 323.000000
-41.215599 157.002335 321.547211
-41.251278 157.662659 321.825562
-41.251278 158.187073 321.825562
-41.260372 158.746475 321.896515
-41.260372 159.270996 321.896515
-41.260372 159.795532 321.896515
-41.235336 160.222778 321.701202
-50.364941 77.592415 397.983734
-50.999752 79.227089 403.000000
-50.999752 79.883774 403.000000
-50.999752 80.540459 403.000000
-50.873203 80.995651 402.000000
-50.873203 81.650711 402.000000
-50.746655 82.101021 401.000000
-50.620106 82.548073 400.000000
-50.620106 83.199867 400.000000
-50.620106 83.851662 400.000000
-50.240452 83.869682 397.000000
-49.987350 84.090813 395.000000
-49.987350 84.734467 395.000000
-49.987350 85.378113 395.000000
-49.860802 85.803978 394.000000
-49.860802 86.445999 394.000000
-49.734249 86.866982 393.000000
-49.607700 87.284706 392.000000
-49.607700 87.923462 392.000000
-49.481148 88.336296 391.000000
-49.481148 88.973427 391.000000
-49.481148 89.610558 391.000000
-49.354599 90.016876 390.000000
-49.228050 90.419937 389.000000
-49.228050 91.053802 389.000000
-48.974949 91.216270 387.000000
-48.974949 91.846886 387.000000
-48.974949 92.477493 387.000000
-48.848400 92.867516 386.000000
-48.721848 93.254280 385.000000
-48.721848 93.881638 385.000000
-48.468750 94.018028 383.000000
-48.468750 94.642120 383.000000
-48.468750 95.266212 383.000000
-48.342197 95.639946 382.000000
-48.342197 96.262413 382.000000
-48.342197 96.884872 382.000000
-48.215649 97.252083 381.000000
-48.089096 97.616028 380.000000
-47.962547 97.976723 379.000000
-47.962547 98.594299 379.000000
-47.835995 98.950104 378.000000
-47.835995 99.566048 378.000000
-47.835995 100.181999 378.000000
-47.709446 100.531281 377.000000
-45.823700 97.147743 362.098816
-45.823700 97.737785 362.098816
-46.070213 98.856789 364.046783
-46.202694 99.735977 365.093628
-46.202694 100.330894 365.093628
-46.202694 100.925804 365.093628
-46.017403 101.113579 363.629456
-46.017403 101.706108 363.629456
-45.818092 101.855576 362.054535
-45.564846 101.879295 360.053375
-45.564846 102.465996 360.053375
-45.426170 102.739059 358.957550
-45.211254 102.835136 357.259277
-45.211254 103.417290 357.259277
-44.985199 103.479439 355.472992
-44.166042 102.163826 349.000000
-44.166042 102.732513 349.000000
-44.039490 103.005211 348.000000
-44.039490 103.572273 348.000000
-44.039490 104.139336 348.000000
-43.912941 104.405518 347.000000
-43.786388 104.668442 346.000000
-43.786388 105.232239 346.000000
-43.786388 105.796043 346.000000
-43.659840 106.052444 345.000000
-43.659840 106.614624 345.000000
-43.533287 106.866135 344.000000
-43.406738 107.114388 343.000000
-43.406738 107.673302 343.000000
-43.406738 108.232216 343.000000
-43.280186 108.473969 342.000000
-43.280186 109.031250 342.000000
-43.280186 109.588539 342.000000
-43.153637 109.823753 341.000000
-43.027084 110.055717 340.000000
-43.027084 110.609741 340.000000
-43.027084 111.163765 340.000000
-42.900536 111.389206 339.000000
-42.900536 111.941605 339.000000
-42.900536 112.494003 339.000000
-42.773987 112.712929 338.000000
-42.773987 113.263695 338.000000
-42.647438 113.477730 337.000000
-42.520889 113.688507 336.000000
-42.520889 114.236015 336.000000
-42.520889 114.783524 336.000000
-42.520889 115.331032 336.000000
-42.520889 115.878540 336.000000
-42.394337 116.079552 335.000000
-42.267788 116.277290 334.000000
-42.267788 116.821541 334.000000
-42.141235 117.014389 333.000000
-42.141235 117.557007 333.000000
-42.141235 118.099632 333.000000
-42.141235 118.642250 333.000000
-42.014687 118.826950 332.000000
-42.014687 119.367943 332.000000
-42.014687 119.908936 332.000000
-41.888134 120.087120 331.000000
-41.888134 120.626480 331.000000
-41.761585 120.799782 330.000000
-41.635033 120.969818 329.000000
-41.635033 121.505920 329.000000
-41.635033 122.042023 329.000000
-41.635033 122.578125 329.000000
-41.635033 123.114227 329.000000
-41.508484 123.274498 328.000000
-41.508484 123.808968 328.000000
-41.381931 123.964348 327.000000
-41.381931 124.497185 327.000000
-41.381931 125.030029 327.000000
-41.381931 125.562874 327.000000
-41.381931 126.095718 327.000000
-41.381931 126.628555 327.000000
-41.255383 126.772522 326.000000
-41.255383 127.303741 326.000000
-41.255383 127.834953 326.000000
-41.255383 128.366165 326.000000
-41.255383 128.897369 326.000000
-41.128834 129.031570 325.000000
-41.128834 129.561157 325.000000
-41.128834 130.090729 325.000000
-41.002285 130.218414 324.000000
-41.002285 130.746368 324.000000
-41.002285 131.274307 324.000000
-41.002285 131.802261 324.000000
-40.875732 131.921799 323.000000
-40.875732 132.448120 323.000000
-40.875732 132.974442 323.000000
-40.875732 133.500763 323.000000
-40.875732 134.027084 323.000000
-40.875732 134.553421 323.000000
-40.875732 135.079742 323.000000
-40.875732 135.606064 323.000000
-40.875732 136.132385 323.000000
-40.875732 136.658707 323.000000
-40.875732 137.185043 323.000000
-40.749184 137.285004 322.000000
-40.749184 137.809708 322.000000
-40.749184 138.334396 322.000000
-40.749184 138.859100 322.000000
-40.622631 138.950928 321.000000
-40.622631 139.473999 321.000000
-40.622631 139.997055 321.000000
-40.622631 140.520126 321.000000
-40.622631 141.043198 321.000000
-40.622631 141.566254 321.000000
-40.622631 142.089325 321.000000
-40.622631 142.612396 321.000000
-40.622631 143.135452 321.000000
-40.622631 143.658524 321.000000
-40.622631 144.181580 321.000000
-40.622631 144.704651 321.000000
-40.622631 145.227722 321.000000
-40.622631 145.750778 321.000000
-40.622631 146.273849 321.000000
-40.622631 146.796921 321.000000
-40.622631 147.319977 321.000000
-40.622631 147.843048 321.000000
-40.622631 148.366104 321.000000
-40.622631 148.889175 321.000000
-40.622631 149.412247 321.000000
-40.622631 149.935303 321.000000
-40.622631 150.458374 321.000000
-40.622631 150.981430 321.000000
-40.622631 151.504501 321.000000
-40.622631 152.027573 321.000000
-40.749184 153.025864 322.000000
-40.749184 153.550552 322.000000
-40.749184 154.075241 322.000000
-40.749184 154.599945 322.000000
-40.749184 155.124634 322.000000
-40.875732 156.132721 323.000000
-40.875732 156.659042 323.000000
-40.875732 157.185364 323.000000
-40.875732 157.711685 323.000000
-41.002285 158.727921 324.000000
-41.002285 159.255875 324.000000
-41.002285 159.783829 324.000000
-40.718521 159.202316 321.757690
-40.718521 159.726608 321.757690
-40.718521 160.250916 321.757690
-40.689999 160.662598 321.532318
-40.689999 161.186539 321.532318
-49.716732 77.592415 397.983734
-49.716732 78.240921 397.983734
-49.716732 78.889427 397.983734
-50.218449 80.340599 402.000000
-50.218449 80.995651 402.000000
-50.218449 81.650711 402.000000
-50.093529 82.101021 401.000000
-49.968609 82.548073 400.000000
-49.968609 83.199867 400.000000
-49.968609 83.851662 400.000000
-49.593842 83.869682 397.000000
-49.343998 84.090813 395.000000
-49.343998 84.734467 395.000000
-49.343998 85.378113 395.000000
-49.219078 85.803978 394.000000
-49.219078 86.445999 394.000000
-49.094154 86.866982 393.000000
-48.969234 87.284706 392.000000
-48.969234 87.923462 392.000000
-48.844311 88.336296 391.000000
-48.844311 88.973427 391.000000
-48.844311 89.610558 391.000000
-48.719391 90.016876 390.000000
-48.594467 90.419937 389.000000
-48.594467 91.053802 389.000000
-48.469547 91.451973 388.000000
-48.344624 91.846886 387.000000
-48.344624 92.477493 387.000000
-48.219704 92.867516 386.000000
-48.094784 93.254280 385.000000
-48.094784 93.881638 385.000000
-47.969860 94.263504 384.000000
-47.844940 94.642120 383.000000
-47.844940 95.266212 383.000000
-47.720020 95.639946 382.000000
-47.720020 96.262413 382.000000
-47.720020 96.884872 382.000000
-47.595100 97.252083 381.000000
-47.595100 97.872917 381.000000
-47.345257 97.976723 379.000000
-47.345257 98.594299 379.000000
-47.220333 98.950104 378.000000
-47.095413 99.302643 377.000000
-47.095413 99.916962 377.000000
-47.095413 100.531281 377.000000
-40.849335 87.731056 327.000000
-40.849335 88.263901 327.000000
-45.477276 98.856789 364.046783
-45.608051 99.735977 365.093628
-45.608051 100.330894 365.093628
-45.608051 100.925804 365.093628
-44.898006 99.940216 359.409729
-44.898006 100.525864 359.409729
-44.707226 100.681877 357.882507
-44.468563 100.724449 355.972015
-44.468563 101.304504 355.972015
-44.332005 101.571678 354.878845
-44.145416 101.720009 353.385223
-44.145416 102.295853 353.385223
-43.597610 101.595131 349.000000
-43.597610 102.163826 349.000000
-43.597610 102.732513 349.000000
-43.472687 103.005211 348.000000
-43.347767 103.274658 347.000000
-43.347767 103.840088 347.000000
-43.347767 104.405518 347.000000
-43.222843 104.668442 346.000000
-43.222843 105.232239 346.000000
-43.222843 105.796043 346.000000
-43.097923 106.052444 345.000000
-43.097923 106.614624 345.000000
-42.973000 106.866135 344.000000
-42.848080 107.114388 343.000000
-42.848080 107.673302 343.000000
-42.848080 108.232216 343.000000
-42.723156 108.473969 342.000000
-42.723156 109.031250 342.000000
-42.723156 109.588539 342.000000
-42.598236 109.823753 341.000000
-42.473312 110.055717 340.000000
-42.473312 110.609741 340.000000
-42.348392 110.836815 339.000000
-42.348392 111.389206 339.000000
-42.348392 111.941605 339.000000
-42.223473 112.162163 338.000000
-42.098549 112.379456 337.000000
-42.098549 112.928589 337.000000
-42.098549 113.477730 337.000000
-41.973629 113.688507 336.000000
-41.973629 114.236015 336.000000
-41.973629 114.783524 336.000000
-41.973629 115.331032 336.000000
-41.973629 115.878540 336.000000
-41.848709 116.079552 335.000000
-41.598866 115.929153 333.000000
-41.598866 116.471771 333.000000
-41.598866 117.014389 333.000000
-41.598866 117.557007 333.000000
-41.598866 118.099632 333.000000
-41.473946 118.285965 332.000000
-41.473946 118.826950 332.000000
-41.473946 119.367943 332.000000
-41.349022 119.547760 331.000000
-41.224102 119.724319 330.000000
-41.224102 120.262047 330.000000
-41.224102 120.799782 330.000000
-41.099178 120.969818 329.000000
-41.099178 121.505920 329.000000
-41.099178 122.042023 329.000000
-40.974258 122.205559 328.000000
-40.974258 122.740028 328.000000
-40.974258 123.274498 328.000000
-40.849335 123.431503 327.000000
-40.849335 123.964348 327.000000
-40.849335 124.497185 327.000000
-40.849335 125.030029 327.000000
-40.849335 125.562874 327.000000
-40.849335 126.095718 327.000000
-40.724415 126.241310 326.000000
-40.724415 126.772522 326.000000
-40.724415 127.303741 326.000000
-40.724415 127.834953 326.000000
-40.724415 128.366165 326.000000
-40.724415 128.897369 326.000000
-40.599491 129.031570 325.000000
-40.599491 129.561157 325.000000
-40.599491 130.090729 325.000000
-40.474571 130.218414 324.000000
-40.474571 130.746368 324.000000
-40.474571 131.274307 324.000000
-40.474571 131.802261 324.000000
-40.349648 131.921799 323.000000
-40.349648 132.448120 323.000000
-40.349648 132.974442 323.000000
-40.349648 133.500763 323.000000
-40.349648 134.027084 323.000000
-40.349648 134.553421 323.000000
-40.349648 135.079742 323.000000
-40.349648 135.606064 323.000000
-40.349648 136.132385 323.000000
-40.349648 136.658707 323.000000
-40.349648 137.185043 323.000000
-40.224728 137.285004 322.000000
-40.224728 137.809708 322.000000
-40.224728 138.334396 322.000000
-40.224728 138.859100 322.000000
-40.099804 138.950928 321.000000
-40.099804 139.473999 321.000000
-40.099804 139.997055 321.000000
-40.099804 140.520126 321.000000
-40.099804 141.043198 321.000000
-40.099804 141.566254 321.000000
-40.099804 142.089325 321.000000
-40.099804 142.612396 321.000000
-40.099804 143.135452 321.000000
-40.099804 143.658524 321.000000
-40.099804 144.181580 321.000000
-40.099804 144.704651 321.000000
-40.099804 145.227722 321.000000
-40.099804 145.750778 321.000000
-40.099804 146.273849 321.000000
-40.099804 146.796921 321.000000
-40.099804 147.319977 321.000000
-40.099804 147.843048 321.000000
-40.099804 148.366104 321.000000
-40.099804 148.889175 321.000000
-40.099804 149.412247 321.000000
-40.099804 149.935303 321.000000
-40.099804 150.458374 321.000000
-40.099804 150.981430 321.000000
-40.099804 151.504501 321.000000
-40.099804 152.027573 321.000000
-40.224728 153.025864 322.000000
-40.224728 153.550552 322.000000
-40.224728 154.075241 322.000000
-40.224728 154.599945 322.000000
-40.224728 155.124634 322.000000
-40.349648 156.132721 323.000000
-40.349648 156.659042 323.000000
-40.349648 157.185364 323.000000
-40.349648 157.711685 323.000000
-40.474571 158.727921 324.000000
-40.474571 159.255875 324.000000
-40.474571 159.783829 324.000000
-40.194458 159.202316 321.757690
-40.194458 159.726608 321.757690
-40.194458 160.250916 321.757690
-40.166302 160.662598 321.532318
-40.166302 161.186539 321.532318
-49.037529 77.543411 397.732391
-49.049465 78.210533 397.829193
-49.049465 78.858795 397.829193
-49.130596 79.638557 398.487213
-49.440403 80.794174 401.000000
-49.440403 81.447594 401.000000
-49.440403 82.101021 401.000000
-49.317112 82.548073 400.000000
-49.317112 83.199867 400.000000
-49.317112 83.851662 400.000000
-48.947231 83.869682 397.000000
-48.823940 84.303703 396.000000
-48.823940 84.948982 396.000000
-48.700645 85.378113 395.000000
-48.577354 85.803978 394.000000
-48.577354 86.445999 394.000000
-48.454060 86.866982 393.000000
-48.330769 87.284706 392.000000
-48.330769 87.923462 392.000000
-48.207474 88.336296 391.000000
-48.207474 88.973427 391.000000
-48.207474 89.610558 391.000000
-48.084183 90.016876 390.000000
-47.960888 90.419937 389.000000
-47.960888 91.053802 389.000000
-47.837597 91.451973 388.000000
-47.714302 91.846886 387.000000
-47.714302 92.477493 387.000000
-47.591011 92.867516 386.000000
-47.467716 93.254280 385.000000
-47.467716 93.881638 385.000000
-47.344425 94.263504 384.000000
-47.221134 94.642120 383.000000
-47.221134 95.266212 383.000000
-47.097839 95.639946 382.000000
-47.097839 96.262413 382.000000
-47.097839 96.884872 382.000000
-46.974548 97.252083 381.000000
-46.974548 97.872917 381.000000
-46.851254 98.235237 380.000000
-46.851254 98.854439 380.000000
-46.604668 98.950104 378.000000
-40.316734 86.132530 327.000000
-40.316734 86.665375 327.000000
-40.316734 87.198219 327.000000
-40.316734 87.731056 327.000000
-40.193443 87.993988 326.000000
-40.193443 88.525200 326.000000
-44.491352 98.579262 360.859375
-44.491352 99.167274 360.859375
-44.491352 99.755295 360.859375
-44.312622 99.940216 359.409729
-44.312622 100.525864 359.409729
-44.124329 100.681877 357.882507
-43.888775 100.724449 355.972015
-43.888775 101.304504 355.972015
-43.255787 100.415115 350.837982
-43.152470 100.745598 350.000000
-43.152470 101.315918 350.000000
-43.029179 101.595131 349.000000
-42.905884 101.871086 348.000000
-42.905884 102.438148 348.000000
-42.905884 103.005211 348.000000
-42.782593 103.274658 347.000000
-42.782593 103.840088 347.000000
-42.782593 104.405518 347.000000
-42.659298 104.668442 346.000000
-42.659298 105.232239 346.000000
-42.659298 105.796043 346.000000
-42.412712 105.745056 344.000000
-42.412712 106.305595 344.000000
-42.289421 106.555481 343.000000
-42.289421 107.114388 343.000000
-42.289421 107.673302 343.000000
-42.289421 108.232216 343.000000
-42.166126 108.473969 342.000000
-42.166126 109.031250 342.000000
-42.042835 109.268105 341.000000
-42.042835 109.823753 341.000000
-41.919540 110.055717 340.000000
-41.919540 110.609741 340.000000
-41.796249 110.836815 339.000000
-41.796249 111.389206 339.000000
-41.796249 111.941605 339.000000
-41.672955 112.162163 338.000000
-41.549664 112.379456 337.000000
-41.549664 112.928589 337.000000
-41.549664 113.477730 337.000000
-41.426373 113.688507 336.000000
-41.426373 114.236015 336.000000
-41.426373 114.783524 336.000000
-41.426373 115.331032 336.000000
-41.426373 115.878540 336.000000
-41.303078 116.079552 335.000000
-41.056492 115.929153 333.000000
-41.056492 116.471771 333.000000
-41.056492 117.014389 333.000000
-41.056492 117.557007 333.000000
-41.056492 118.099632 333.000000
-40.933201 118.285965 332.000000
-40.933201 118.826950 332.000000
-40.933201 119.367943 332.000000
-40.809906 119.547760 331.000000
-40.686615 119.724319 330.000000
-40.686615 120.262047 330.000000
-40.686615 120.799782 330.000000
-40.563320 120.969818 329.000000
-40.563320 121.505920 329.000000
-40.563320 122.042023 329.000000
-40.440029 122.205559 328.000000
-40.440029 122.740028 328.000000
-40.440029 123.274498 328.000000
-40.316734 123.431503 327.000000
-40.316734 123.964348 327.000000
-40.316734 124.497185 327.000000
-40.316734 125.030029 327.000000
-40.316734 125.562874 327.000000
-40.316734 126.095718 327.000000
-40.193443 126.241310 326.000000
-40.193443 126.772522 326.000000
-40.193443 127.303741 326.000000
-40.193443 127.834953 326.000000
-40.070152 127.972397 325.000000
-40.070152 128.501984 325.000000
-40.070152 129.031570 325.000000
-39.946857 129.162506 324.000000
-39.946857 129.690460 324.000000
-39.946857 130.218414 324.000000
-39.946857 130.746368 324.000000
-39.946857 131.274307 324.000000
-39.823566 131.395477 323.000000
-39.823566 131.921799 323.000000
-39.823566 132.448120 323.000000
-39.823566 132.974442 323.000000
-39.823566 133.500763 323.000000
-39.823566 134.027084 323.000000
-39.823566 134.553421 323.000000
-39.823566 135.079742 323.000000
-39.823566 135.606064 323.000000
-39.700272 135.710922 322.000000
-39.700272 136.235626 322.000000
-39.700272 136.760315 322.000000
-39.576981 136.858673 321.000000
-39.576981 137.381729 321.000000
-39.576981 137.904800 321.000000
-39.576981 138.427872 321.000000
-39.576981 138.950928 321.000000
-39.453686 139.039490 320.000000
-39.453686 139.560928 320.000000
-39.453686 140.082367 320.000000
-39.453686 140.603806 320.000000
-39.453686 141.125244 320.000000
-39.453686 141.646683 320.000000
-39.453686 142.168106 320.000000
-39.453686 142.689545 320.000000
-39.453686 143.210983 320.000000
-39.453686 143.732422 320.000000
-39.453686 144.253860 320.000000
-39.576981 145.227722 321.000000
-39.576981 145.750778 321.000000
-39.576981 146.273849 321.000000
-39.576981 146.796921 321.000000
-39.453686 146.861038 320.000000
-39.453686 147.382477 320.000000
-39.453686 147.903915 320.000000
-39.453686 148.425339 320.000000
-39.453686 148.946777 320.000000
-39.453686 149.468216 320.000000
-39.453686 149.989655 320.000000
-39.453686 150.511093 320.000000
-39.576981 151.504501 321.000000
-39.576981 152.027573 321.000000
-39.576981 152.550629 321.000000
-39.576981 153.073700 321.000000
-39.700272 154.075241 322.000000
-39.700272 154.599945 322.000000
-39.700272 155.124634 322.000000
-39.700272 155.649338 322.000000
-39.823566 156.659042 323.000000
-39.823566 157.185364 323.000000
-39.823566 157.711685 323.000000
-39.946857 158.727921 324.000000
-39.946857 159.255875 324.000000
-39.946857 159.783829 324.000000
-39.946857 160.311783 324.000000
-39.946857 160.839737 324.000000
-39.670399 160.250916 321.757690
-39.681080 160.818497 321.844330
-39.681080 161.342941 321.844330
-39.681080 161.867386 321.844330
-48.366737 77.506569 397.543427
-48.384617 78.183250 397.690369
-48.384617 78.831284 397.690369
-48.465031 79.611412 398.351349
-48.787277 80.794174 401.000000
-48.787277 81.447594 401.000000
-48.787277 82.101021 401.000000
-48.665615 82.548073 400.000000
-48.665615 83.199867 400.000000
-48.665615 83.851662 400.000000
-48.300621 83.869682 397.000000
-48.178959 84.303703 396.000000
-48.178959 84.948982 396.000000
-48.057293 85.378113 395.000000
-48.057293 86.021759 395.000000
-48.057293 86.665405 395.000000
-47.813965 86.866982 393.000000
-47.692303 87.284706 392.000000
-47.692303 87.923462 392.000000
-47.692303 88.562225 392.000000
-47.570637 88.973427 391.000000
-47.570637 89.610558 391.000000
-47.570637 90.247688 391.000000
-47.448975 90.652374 390.000000
-47.448975 91.287872 390.000000
-47.205647 91.451973 388.000000
-47.083981 91.846886 387.000000
-47.083981 92.477493 387.000000
-46.962318 92.867516 386.000000
-46.962318 93.496498 386.000000
-46.962318 94.125481 386.000000
-46.718987 94.263504 384.000000
-46.718987 94.889229 384.000000
-46.718987 95.514954 384.000000
-46.597324 95.890312 383.000000
-46.475658 96.262413 382.000000
-46.475658 96.884872 382.000000
-46.353996 97.252083 381.000000
-46.353996 97.872917 381.000000
-46.232330 98.235237 380.000000
-46.232330 98.854439 380.000000
-45.989002 98.950104 378.000000
-39.784138 86.132530 327.000000
-39.784138 86.665375 327.000000
-39.784138 87.198219 327.000000
-39.784138 87.731056 327.000000
-38.567501 85.564697 317.000000
-38.567501 86.081245 317.000000
-43.387642 97.420738 356.618469
-43.387642 98.001846 356.618469
-43.387642 98.582947 356.618469
-43.216457 98.772812 355.211456
-43.216457 99.351624 355.211456
-43.035965 99.513069 353.727905
-42.823467 99.595261 351.981323
-42.823467 100.168808 351.981323
-42.684364 100.415115 350.837982
-42.582413 100.745598 350.000000
-42.582413 101.315918 350.000000
-42.460747 101.595131 349.000000
-42.339085 101.871086 348.000000
-42.339085 102.438148 348.000000
-42.339085 103.005211 348.000000
-42.217419 103.274658 347.000000
-42.217419 103.840088 347.000000
-42.095753 104.104637 346.000000
-42.095753 104.668442 346.000000
-42.095753 105.232239 346.000000
-41.974091 105.490273 345.000000
-41.852425 105.745056 344.000000
-41.852425 106.305595 344.000000
-41.730762 106.555481 343.000000
-41.730762 107.114388 343.000000
-41.730762 107.673302 343.000000
-41.609097 107.916679 342.000000
-41.487434 108.156792 341.000000
-41.487434 108.712448 341.000000
-41.487434 109.268105 341.000000
-41.365768 109.501694 340.000000
-41.365768 110.055717 340.000000
-41.365768 110.609741 340.000000
-41.244106 110.836815 339.000000
-41.244106 111.389206 339.000000
-41.244106 111.941605 339.000000
-41.122440 112.162163 338.000000
-41.000778 112.379456 337.000000
-41.000778 112.928589 337.000000
-40.879116 113.140999 336.000000
-40.879116 113.688507 336.000000
-40.879116 114.236015 336.000000
-40.879116 114.783524 336.000000
-40.757450 114.987793 335.000000
-40.757450 115.533669 335.000000
-40.757450 116.079552 335.000000
-40.514122 115.929153 333.000000
-40.514122 116.471771 333.000000
-40.514122 117.014389 333.000000
-40.514122 117.557007 333.000000
-40.514122 118.099632 333.000000
-40.392460 118.285965 332.000000
-40.392460 118.826950 332.000000
-40.392460 119.367943 332.000000
-40.270794 119.547760 331.000000
-40.149132 119.724319 330.000000
-40.149132 120.262047 330.000000
-40.149132 120.799782 330.000000
-40.027466 120.969818 329.000000
-40.027466 121.505920 329.000000
-40.027466 122.042023 329.000000
-39.905804 122.205559 328.000000
-39.905804 122.740028 328.000000
-39.905804 123.274498 328.000000
-39.784138 123.431503 327.000000
-39.784138 123.964348 327.000000
-39.784138 124.497185 327.000000
-39.784138 125.030029 327.000000
-39.662476 125.178886 326.000000
-39.662476 125.710098 326.000000
-39.662476 126.241310 326.000000
-39.662476 126.772522 326.000000
-39.662476 127.303741 326.000000
-39.662476 127.834953 326.000000
-39.540810 127.972397 325.000000
-39.540810 128.501984 325.000000
-39.540810 129.031570 325.000000
-39.419147 129.162506 324.000000
-39.419147 129.690460 324.000000
-39.419147 130.218414 324.000000
-39.297482 130.342819 323.000000
-39.297482 130.869141 323.000000
-39.297482 131.395477 323.000000
-39.297482 131.921799 323.000000
-39.297482 132.448120 323.000000
-39.297482 132.974442 323.000000
-39.297482 133.500763 323.000000
-39.297482 134.027084 323.000000
-39.297482 134.553421 323.000000
-39.175819 134.661530 322.000000
-39.175819 135.186234 322.000000
-39.175819 135.710922 322.000000
-39.054153 135.812546 321.000000
-39.054153 136.335602 321.000000
-39.054153 136.858673 321.000000
-39.054153 137.381729 321.000000
-39.054153 137.904800 321.000000
-38.932491 137.996628 320.000000
-38.932491 138.518066 320.000000
-38.932491 139.039490 320.000000
-38.932491 139.560928 320.000000
-38.932491 140.082367 320.000000
-38.932491 140.603806 320.000000
-38.932491 141.125244 320.000000
-38.932491 141.646683 320.000000
-38.932491 142.168106 320.000000
-38.932491 142.689545 320.000000
-38.932491 143.210983 320.000000
-38.932491 143.732422 320.000000
-38.932491 144.253860 320.000000
-38.932491 144.775299 320.000000
-38.932491 145.296722 320.000000
-38.932491 145.818161 320.000000
-38.932491 146.339600 320.000000
-38.932491 146.861038 320.000000
-38.932491 147.382477 320.000000
-38.932491 147.903915 320.000000
-38.932491 148.425339 320.000000
-38.932491 148.946777 320.000000
-38.932491 149.468216 320.000000
-38.932491 149.989655 320.000000
-38.932491 150.511093 320.000000
-38.932491 151.032516 320.000000
-39.054153 152.027573 321.000000
-39.054153 152.550629 321.000000
-39.054153 153.073700 321.000000
-39.054153 153.596771 321.000000
-39.175819 154.599945 322.000000
-39.175819 155.124634 322.000000
-39.175819 155.649338 322.000000
-39.297482 156.659042 323.000000
-39.297482 157.185364 323.000000
-39.297482 157.711685 323.000000
-39.297482 158.238022 323.000000
-39.297482 158.764343 323.000000
-39.419147 159.783829 324.000000
-39.419147 160.311783 324.000000
-39.419147 160.839737 324.000000
-39.297482 160.869644 323.000000
-39.156879 160.818497 321.844330
-39.156879 161.342941 321.844330
-39.171032 161.925888 321.960663
-39.171032 162.450516 321.960663
-39.171032 162.975159 321.960663
-47.719238 77.506569 397.543427
-47.736877 78.183250 397.690369
-47.736877 78.831284 397.690369
-47.816219 79.611412 398.351349
-47.816219 80.260513 398.351349
-48.014118 81.244484 400.000000
-48.014118 81.896278 400.000000
-48.014118 82.548073 400.000000
-48.014118 83.199867 400.000000
-48.014118 83.851662 400.000000
-47.654011 83.869682 397.000000
-47.533978 84.303703 396.000000
-47.533978 84.948982 396.000000
-47.413940 85.378113 395.000000
-47.413940 86.021759 395.000000
-47.413940 86.665405 395.000000
-47.173870 86.866982 393.000000
-47.053833 87.284706 392.000000
-47.053833 87.923462 392.000000
-47.053833 88.562225 392.000000
-46.933796 88.973427 391.000000
-46.933796 89.610558 391.000000
-46.933796 90.247688 391.000000
-46.813763 90.652374 390.000000
-46.813763 91.287872 390.000000
-46.693726 91.687675 389.000000
-46.573692 92.084213 388.000000
-46.573692 92.716454 388.000000
-46.453655 93.108109 387.000000
-46.333622 93.496498 386.000000
-46.333622 94.125481 386.000000
-46.333622 94.754463 386.000000
-46.213585 95.136337 385.000000
-46.213585 95.763695 385.000000
-46.093552 96.140678 384.000000
-45.973518 96.514404 383.000000
-45.973518 97.138496 383.000000
-45.733448 97.252083 381.000000
-45.733448 97.872917 381.000000
-45.613411 98.235237 380.000000
-45.613411 98.854439 380.000000
-43.696667 95.293617 364.031830
-39.251537 86.132530 327.000000
-39.251537 86.665375 327.000000
-39.251537 87.198219 327.000000
-39.251537 87.731056 327.000000
-37.811119 85.024864 315.000000
-37.811119 85.538147 315.000000
-42.592842 96.933807 354.835999
-42.592842 97.512009 354.835999
-42.592842 98.090202 354.835999
-42.429836 98.290802 353.478027
-42.429836 98.866783 353.478027
-42.257969 99.039963 352.046204
-42.012352 99.034637 350.000000
-42.012352 99.604958 350.000000
-42.012352 100.175278 350.000000
-41.892319 100.457748 349.000000
-41.892319 101.026443 349.000000
-41.892319 101.595131 349.000000
-41.772282 101.871086 348.000000
-41.772282 102.438148 348.000000
-41.772282 103.005211 348.000000
-41.652248 103.274658 347.000000
-41.652248 103.840088 347.000000
-41.532211 104.104637 346.000000
-41.532211 104.668442 346.000000
-41.532211 105.232239 346.000000
-41.412178 105.490273 345.000000
-41.292141 105.745056 344.000000
-41.292141 106.305595 344.000000
-41.172104 106.555481 343.000000
-41.172104 107.114388 343.000000
-41.172104 107.673302 343.000000
-41.052067 107.916679 342.000000
-40.932034 108.156792 341.000000
-40.932034 108.712448 341.000000
-40.811996 108.947662 340.000000
-40.811996 109.501694 340.000000
-40.811996 110.055717 340.000000
-40.811996 110.609741 340.000000
-40.691963 110.836815 339.000000
-40.571926 111.060623 338.000000
-40.571926 111.611389 338.000000
-40.451893 111.830315 337.000000
-40.331860 112.045982 336.000000
-40.331860 112.593491 336.000000
-40.331860 113.140999 336.000000
-40.331860 113.688507 336.000000
-40.331860 114.236015 336.000000
-40.211823 114.441917 335.000000
-40.211823 114.987793 335.000000
-40.211823 115.533669 335.000000
-40.091789 115.733040 334.000000
-39.971752 115.929153 333.000000
-39.971752 116.471771 333.000000
-39.971752 117.014389 333.000000
-39.851719 117.203987 332.000000
-39.851719 117.744972 332.000000
-39.851719 118.285965 332.000000
-39.731682 118.469040 331.000000
-39.731682 119.008400 331.000000
-39.731682 119.547760 331.000000
-39.611649 119.724319 330.000000
-39.611649 120.262047 330.000000
-39.491611 120.433716 329.000000
-39.491611 120.969818 329.000000
-39.491611 121.505920 329.000000
-39.491611 122.042023 329.000000
-39.371574 122.205559 328.000000
-39.371574 122.740028 328.000000
-39.251537 122.898659 327.000000
-39.251537 123.431503 327.000000
-39.251537 123.964348 327.000000
-39.251537 124.497185 327.000000
-39.251537 125.030029 327.000000
-39.131504 125.178886 326.000000
-39.131504 125.710098 326.000000
-39.131504 126.241310 326.000000
-39.131504 126.772522 326.000000
-39.131504 127.303741 326.000000
-39.131504 127.834953 326.000000
-39.011467 127.972397 325.000000
-39.011467 128.501984 325.000000
-39.011467 129.031570 325.000000
-38.891434 129.162506 324.000000
-38.891434 129.690460 324.000000
-38.891434 130.218414 324.000000
-38.771397 130.342819 323.000000
-38.771397 130.869141 323.000000
-38.771397 131.395477 323.000000
-38.771397 131.921799 323.000000
-38.771397 132.448120 323.000000
-38.771397 132.974442 323.000000
-38.771397 133.500763 323.000000
-38.771397 134.027084 323.000000
-38.771397 134.553421 323.000000
-38.651363 134.661530 322.000000
-38.651363 135.186234 322.000000
-38.651363 135.710922 322.000000
-38.531326 135.812546 321.000000
-38.531326 136.335602 321.000000
-38.531326 136.858673 321.000000
-38.411293 136.953751 320.000000
-38.411293 137.475189 320.000000
-38.411293 137.996628 320.000000
-38.411293 138.518066 320.000000
-38.411293 139.039490 320.000000
-38.411293 139.560928 320.000000
-38.411293 140.082367 320.000000
-38.411293 140.603806 320.000000
-38.411293 141.125244 320.000000
-38.291260 141.204025 319.000000
-38.291260 141.723831 319.000000
-38.291260 142.243637 319.000000
-38.291260 142.763443 319.000000
-38.291260 143.283249 319.000000
-38.291260 143.803055 319.000000
-38.291260 144.322861 319.000000
-38.291260 144.842667 319.000000
-38.291260 145.362488 319.000000
-38.411293 146.339600 320.000000
-38.411293 146.861038 320.000000
-38.411293 147.382477 320.000000
-38.411293 147.903915 320.000000
-38.411293 148.425339 320.000000
-38.411293 148.946777 320.000000
-38.411293 149.468216 320.000000
-38.411293 149.989655 320.000000
-38.411293 150.511093 320.000000
-38.411293 151.032516 320.000000
-38.411293 151.553955 320.000000
-38.411293 152.075394 320.000000
-38.411293 152.596832 320.000000
-38.531326 153.596771 321.000000
-38.651363 154.599945 322.000000
-38.651363 155.124634 322.000000
-38.651363 155.649338 322.000000
-38.771397 156.659042 323.000000
-38.771397 157.185364 323.000000
-38.771397 157.711685 323.000000
-38.771397 158.238022 323.000000
-38.771397 158.764343 323.000000
-38.891434 159.783829 324.000000
-38.891434 160.311783 324.000000
-38.891434 160.839737 324.000000
-38.771397 160.869644 323.000000
-38.632679 160.818497 321.844330
-38.632679 161.342941 321.844330
-38.646645 161.925888 321.960663
-38.646645 162.450516 321.960663
-38.646645 162.975159 321.960663
-47.029625 77.437210 397.187683
-47.069736 78.151024 397.526459
-47.069736 78.798790 397.526459
-47.156391 79.592812 398.258301
-47.156391 80.241768 398.258301
-47.156391 80.890724 398.258301
-47.121319 81.479042 397.962097
-47.043983 81.992722 397.308960
-47.007401 82.575867 397.000000
-47.007401 83.222778 397.000000
-47.007401 83.869682 397.000000
-46.888996 84.303703 396.000000
-46.888996 84.948982 396.000000
-46.888996 85.594261 396.000000
-46.770588 86.021759 395.000000
-46.770588 86.665405 395.000000
-46.652180 87.088013 394.000000
-46.415367 87.284706 392.000000
-46.415367 87.923462 392.000000
-46.415367 88.562225 392.000000
-46.296959 88.973427 391.000000
-46.296959 89.610558 391.000000
-46.296959 90.247688 391.000000
