-6.419197 77.827492 368.399078
-6.419191 78.427734 368.398804
-6.419191 79.028038 368.398804
-6.415319 79.580299 368.176544
-6.415319 80.180237 368.176544
-6.415319 80.780174 368.176544
-6.414931 81.375198 368.154297
-6.414506 81.969666 368.129913
-6.414506 82.569527 368.129913
-6.414042 83.163368 368.103241
-6.413529 83.756500 368.073853
-6.413529 84.356277 368.073853
-6.412964 84.948555 368.041412
-6.412341 85.539963 368.005646
-6.412341 86.139626 368.005646
-6.411654 86.729996 367.966248
-6.383151 86.941360 366.330414
-6.383151 87.538292 366.330414
-6.399769 88.364677 367.284149
-6.399769 88.963165 367.284149
-6.399769 89.561653 367.284149
-6.398214 90.138229 367.194916
-6.396543 90.712860 367.098969
-6.396543 91.311043 367.098969
-6.385634 91.752487 366.472931
-6.359026 91.964851 364.945923
-6.359026 92.559532 364.945923
-6.335468 92.809097 363.593903
-6.308779 93.008087 362.062195
-6.308779 93.598068 362.062195
-5.996934 95.140427 344.165344
-5.996934 95.701241 344.165344
-5.996934 96.262054 344.165344
-5.904230 95.326126 338.845032
-5.823452 94.566513 334.209137
-5.823452 95.111099 334.209137
-5.753441 94.505699 330.191223
-5.636867 93.118004 323.501007
-5.636867 93.645142 323.501007
-5.636867 94.172287 323.501007
-5.568082 93.543854 319.553467
-5.568082 94.064560 319.553467
-5.489659 93.253098 315.052765
-5.303322 90.583717 304.358795
-5.303322 91.079659 304.358795
-5.070550 87.556213 291.000000
-5.087975 88.332909 292.000000
-5.087975 88.808716 292.000000
-5.087975 89.284523 292.000000
-5.087975 89.760338 292.000000
-5.087975 90.236145 292.000000
-5.105400 91.022614 293.000000
-5.105400 91.500053 293.000000
-5.105400 91.977493 293.000000
-5.122824 92.770477 294.000000
-5.122824 93.249550 294.000000
-5.122824 93.728615 294.000000
-5.122824 94.207687 294.000000
-5.122824 94.686752 294.000000
-5.122824 95.165825 294.000000
-5.122824 95.644890 294.000000
-5.122824 96.123962 294.000000
-5.122824 96.603035 294.000000
-5.122824 97.082100 294.000000
-5.122824 97.561172 294.000000
-5.122824 98.040237 294.000000
-5.122824 98.519310 294.000000
-5.122824 98.998375 294.000000
-5.122824 99.477448 294.000000
-5.122824 99.956512 294.000000
-5.122824 100.435585 294.000000
-5.122824 100.914658 294.000000
-5.122824 101.393723 294.000000
-5.122824 101.872795 294.000000
-5.105400 102.003723 293.000000
-5.105400 102.481163 293.000000
-5.105400 102.958603 293.000000
-5.105400 103.436043 293.000000
-5.105400 103.913483 293.000000
-5.087975 104.034645 292.000000
-5.087975 104.510452 292.000000
-5.087975 104.986267 292.000000
-5.087975 105.462074 292.000000
-5.087975 105.937889 292.000000
-5.087975 106.413696 292.000000
-5.103106 107.207397 292.868408
-5.103106 107.684624 292.868408
-5.103106 108.161842 292.868408
-5.087975 108.316940 292.000000
-5.087975 108.792747 292.000000
-5.087975 109.268562 292.000000
-5.087975 109.744370 292.000000
-5.087975 110.220177 292.000000
-5.087975 110.695992 292.000000
-5.087975 111.171799 292.000000
-5.087975 111.647614 292.000000
-5.087975 112.123421 292.000000
-5.087975 112.599228 292.000000
-5.087975 113.075043 292.000000
-5.087975 113.550850 292.000000
-5.087975 114.026665 292.000000
-5.087975 114.502472 292.000000
-5.087975 114.978279 292.000000
-5.087975 115.454094 292.000000
-5.087975 115.929901 292.000000
-5.087975 116.405716 292.000000
-5.087975 116.881523 292.000000
-5.087975 117.357338 292.000000
-5.087975 117.833145 292.000000
-5.087975 118.308952 292.000000
-5.087975 118.784767 292.000000
-5.087975 119.260574 292.000000
-5.087975 119.736389 292.000000
-5.087975 120.212196 292.000000
-5.087975 120.688004 292.000000
-5.087975 121.163818 292.000000
-5.087975 121.639626 292.000000
-5.087975 122.115440 292.000000
-5.087975 122.591248 292.000000
-5.105400 123.488525 293.000000
-5.105400 123.965965 293.000000
-5.105400 124.443405 293.000000
-5.105400 124.920845 293.000000
-5.105400 125.398285 293.000000
-5.105400 125.875725 293.000000
-5.105400 126.353165 293.000000
-5.105400 126.830605 293.000000
-5.105400 127.308044 293.000000
-5.105400 127.785484 293.000000
-5.122824 128.700684 294.000000
-5.122824 129.179749 294.000000
-5.122824 129.658813 294.000000
-5.122824 130.137894 294.000000
-5.122824 130.616959 294.000000
-5.122824 131.096024 294.000000
-5.140249 132.022614 295.000000
-5.140249 132.503311 295.000000
-5.140249 132.984009 295.000000
-5.140249 133.464722 295.000000
-5.140249 133.945419 295.000000
-5.140249 134.426117 295.000000
-5.140249 134.906815 295.000000
-5.157673 135.846451 296.000000
-5.157673 136.328781 296.000000
-5.157673 136.811111 296.000000
-5.157673 137.293442 296.000000
-5.157673 137.775772 296.000000
-5.157673 138.740417 296.000000
-5.157673 139.222748 296.000000
-5.175098 140.661011 297.000000
-5.175098 141.144974 297.000000
-5.175098 142.112885 297.000000
-5.175098 142.596848 297.000000
-5.192523 143.562561 298.000000
-5.192523 144.533737 298.000000
-5.192523 145.019318 298.000000
-5.192523 145.990494 298.000000
-5.192523 146.476089 298.000000
-5.192523 147.447250 298.000000
-5.192523 147.932846 298.000000
-5.175098 148.404343 297.000000
-5.175098 148.888290 297.000000
-5.175098 149.856216 297.000000
-5.157673 149.833969 296.000000
-5.157673 150.798630 296.000000
-5.157673 151.280960 296.000000
-5.157673 152.245621 296.000000
-5.157673 152.727936 296.000000
-5.157673 153.692596 296.000000
-5.140249 153.654068 295.000000
-5.140249 154.615463 295.000000
-5.140249 155.096161 295.000000
-5.140249 156.057556 295.000000
-5.140249 156.538254 295.000000
-5.122824 156.965775 294.000000
-5.122824 157.444839 294.000000
-5.122824 157.923904 294.000000
-5.122824 158.882050 294.000000
-5.122824 159.361115 294.000000
-5.105400 159.773941 293.000000
-5.105400 160.251389 293.000000
-5.087975 160.656067 292.000000
-5.087975 161.131882 292.000000
-5.087975 162.083496 292.000000
-5.087975 162.559311 292.000000
-5.087975 163.510941 292.000000
-5.087975 163.986740 292.000000
-5.851039 14.876850 370.416656
-5.851039 15.480440 370.416656
-5.854684 16.094049 370.647430
-5.855380 16.700001 370.691498
-5.855380 17.304037 370.691498
-5.856078 17.910210 370.735687
-5.857151 18.517710 370.803589
-5.857151 19.121929 370.803589
-5.860253 19.736597 371.000000
-5.860253 20.341137 371.000000
-5.860253 20.945677 371.000000
-5.860253 21.550217 371.000000
-5.860253 22.154757 371.000000
-5.860253 22.759296 371.000000
-5.860437 23.364571 371.011658
-5.860437 23.969130 371.011658
-5.860437 24.573689 371.011658
-5.860425 25.178198 371.010925
-5.876049 25.851490 372.000000
-5.876049 26.457659 372.000000
-5.876049 27.063828 372.000000
-5.876049 27.669996 372.000000
-5.876049 28.276167 372.000000
-5.876049 28.882336 372.000000
-5.876049 29.488504 372.000000
-5.860253 30.013777 371.000000
-5.860253 30.618315 371.000000
-5.860253 31.222855 371.000000
-5.860253 31.827394 371.000000
-5.860253 32.431934 371.000000
-5.860253 33.036476 371.000000
-5.860253 33.641014 371.000000
-5.860253 34.245556 371.000000
-5.844458 34.756157 370.000000
-5.844458 35.359066 370.000000
-5.844458 35.961979 370.000000
-5.844458 36.564888 370.000000
-5.844458 37.167797 370.000000
-5.844458 37.770710 370.000000
-5.844458 38.373619 370.000000
-5.844458 38.976528 370.000000
-5.844458 39.579441 370.000000
-5.844458 40.182350 370.000000
-5.844458 40.785259 370.000000
-5.844458 41.388172 370.000000
-5.828661 41.877594 369.000000
-5.844458 42.593990 370.000000
-5.844458 43.196903 370.000000
-5.844458 43.799812 370.000000
-5.844458 44.402721 370.000000
-5.844458 45.005630 370.000000
-5.844458 45.608543 370.000000
-5.828661 46.086559 369.000000
-5.828661 46.687840 369.000000
-5.828661 47.289120 369.000000
-5.828661 47.890400 369.000000
-5.812866 48.360268 368.000000
-5.812866 48.959919 368.000000
-5.812866 49.559570 368.000000
-5.823370 52.052063 368.664978
-5.823370 52.652798 368.664978
-5.823370 53.253532 368.664978
-5.822168 53.843159 368.588898
-5.822168 54.443764 368.588898
-5.822168 55.044376 368.588898
-5.819681 55.621227 368.431488
-5.819681 56.221577 368.431488
-5.819249 56.817703 368.404083
-5.818972 57.415287 368.386566
-5.818972 58.015568 368.386566
-5.819844 58.624634 368.441772
-5.819844 59.225002 368.441772
-5.819844 59.825375 368.441772
-5.819844 60.425743 368.441772
-5.819844 61.026115 368.441772
-5.819844 61.626488 368.441772
-5.819844 62.226856 368.441772
-5.819491 62.823429 368.419464
-5.819346 63.422176 368.410248
-5.819346 64.022491 368.410248
-5.819209 64.621284 368.401550
-5.820421 65.235176 368.478271
-5.820421 65.835609 368.478271
-5.820421 66.436043 368.478271
-5.819659 67.027695 368.430054
-5.819659 67.628044 368.430054
-5.819659 68.228401 368.430054
-5.819640 68.828537 368.428894
-5.819640 69.428886 368.428894
-5.819620 70.028992 368.427612
-5.819597 70.629066 368.426178
-5.819597 71.229408 368.426178
-5.819581 71.829559 368.425140
-5.819608 72.430237 368.426849
-5.819608 73.030579 368.426849
-5.819651 73.631470 368.429535
-5.819695 74.232376 368.432312
-5.819695 74.832733 368.432312
-5.819695 75.433090 368.432312
-5.819624 76.032532 368.427887
-5.819624 76.632881 368.427887
-5.819624 77.233231 368.427887
-5.819621 77.833534 368.427673
-5.819619 78.433853 368.427551
-5.819619 79.034203 368.427551
-5.819619 79.634552 368.427551
-5.817657 80.207832 368.303284
-5.817657 80.807983 368.303284
-5.817657 81.408127 368.303284
-5.817464 82.005554 368.291077
-5.817464 82.605682 368.291077
-5.817249 83.202744 368.277527
-5.817009 83.799385 368.262299
-5.817009 84.399460 368.262299
-5.816741 84.995621 368.245300
-5.816452 85.591423 368.227051
-5.816452 86.191444 368.227051
-5.816135 86.786736 368.206970
-5.815786 87.381485 368.184906
-5.815786 87.981438 368.184906
-5.815403 88.575562 368.160645
-5.801558 88.963165 367.284149
-5.801558 89.561653 367.284149
-5.800148 90.138229 367.194916
-5.798633 90.712860 367.098969
-5.798633 91.311043 367.098969
-5.792351 91.809654 366.701263
-5.797460 92.488693 367.024689
-5.797460 93.086754 367.024689
-5.797460 93.684814 367.024689
-5.745016 93.429985 363.704559
-5.745016 94.022644 363.704559
-5.738456 94.507263 363.289276
-5.729964 94.958496 362.751648
-5.682727 94.761902 359.761169
-5.682727 95.348129 359.761169
-5.647628 95.341835 357.539185
-5.637683 95.755516 356.909546
-5.637683 96.337097 356.909546
-5.436378 95.140427 344.165344
-5.436378 95.701241 344.165344
-5.436378 96.262054 344.165344
-5.352339 95.326126 338.845032
-5.279111 94.566513 334.209137
-5.279111 95.111099 334.209137
-5.215645 94.505699 330.191223
-5.033959 91.732918 318.689087
-5.033959 92.252220 318.689087
-5.003331 92.207069 316.750092
-4.963894 91.992355 314.253418
-4.963894 92.504425 314.253418
-4.915851 92.116241 311.211945
-4.807600 90.583717 304.358795
-4.807600 91.079659 304.358795
-4.596587 87.556213 291.000000
-4.612382 88.332909 292.000000
-4.612382 88.808716 292.000000
-4.612382 89.284523 292.000000
-4.612382 89.760338 292.000000
-4.612382 90.236145 292.000000
-4.628179 91.022614 293.000000
-4.628179 91.500053 293.000000
-4.628179 91.977493 293.000000
-4.643974 92.770477 294.000000
-4.643974 93.249550 294.000000
-4.643974 93.728615 294.000000
-4.643974 94.207687 294.000000
-4.643974 94.686752 294.000000
-4.643974 95.165825 294.000000
-4.643974 95.644890 294.000000
-4.643974 96.123962 294.000000
-4.643974 96.603035 294.000000
-4.643974 97.082100 294.000000
-4.643974 97.561172 294.000000
-4.643974 98.040237 294.000000
-4.643974 98.519310 294.000000
-4.643974 98.998375 294.000000
-4.643974 99.477448 294.000000
-4.643974 99.956512 294.000000
-4.643974 100.435585 294.000000
-4.643974 100.914658 294.000000
-4.643974 101.393723 294.000000
-4.643974 101.872795 294.000000
-4.628179 102.003723 293.000000
-4.628179 102.481163 293.000000
-4.628179 102.958603 293.000000
-4.628179 103.436043 293.000000
-4.628179 103.913483 293.000000
-4.612382 104.034645 292.000000
-4.612382 104.510452 292.000000
-4.612382 104.986267 292.000000
-4.612382 105.462074 292.000000
-4.612382 105.937889 292.000000
-4.612382 106.413696 292.000000
-4.626100 107.207397 292.868408
-4.626100 107.684624 292.868408
-4.626100 108.161842 292.868408
-4.612382 108.316940 292.000000
-4.612382 108.792747 292.000000
-4.612382 109.268562 292.000000
-4.612382 109.744370 292.000000
-4.612382 110.220177 292.000000
-4.612382 110.695992 292.000000
-4.612382 111.171799 292.000000
-4.612382 111.647614 292.000000
-4.612382 112.123421 292.000000
-4.612382 112.599228 292.000000
-4.612382 113.075043 292.000000
-4.612382 113.550850 292.000000
-4.612382 114.026665 292.000000
-4.612382 114.502472 292.000000
-4.612382 114.978279 292.000000
-4.612382 115.454094 292.000000
-4.612382 115.929901 292.000000
-4.612382 116.405716 292.000000
-4.612382 116.881523 292.000000
-4.612382 117.357338 292.000000
-4.612382 117.833145 292.000000
-4.612382 118.308952 292.000000
-4.612382 118.784767 292.000000
-4.612382 119.260574 292.000000
-4.612382 119.736389 292.000000
-4.612382 120.212196 292.000000
-4.612382 120.688004 292.000000
-4.612382 121.163818 292.000000
-4.612382 121.639626 292.000000
-4.612382 122.115440 292.000000
-4.612382 122.591248 292.000000
-4.628179 123.488525 293.000000
-4.628179 123.965965 293.000000
-4.628179 124.443405 293.000000
-4.628179 124.920845 293.000000
-4.628179 125.398285 293.000000
-4.628179 125.875725 293.000000
-4.628179 126.353165 293.000000
-4.628179 126.830605 293.000000
-4.628179 127.308044 293.000000
-4.628179 127.785484 293.000000
-4.643974 128.700684 294.000000
-4.643974 129.179749 294.000000
-4.643974 129.658813 294.000000
-4.643974 130.137894 294.000000
-4.643974 130.616959 294.000000
-4.643974 131.096024 294.000000
-4.659770 132.022614 295.000000
-4.659770 132.503311 295.000000
-4.659770 132.984009 295.000000
-4.659770 133.464722 295.000000
-4.659770 133.945419 295.000000
-4.659770 134.426117 295.000000
-4.659770 134.906815 295.000000
-4.675566 135.846451 296.000000
-4.675566 136.328781 296.000000
-4.675566 136.811111 296.000000
-4.675566 137.293442 296.000000
-4.675566 137.775772 296.000000
-4.675566 138.740417 296.000000
-4.691362 148.404343 297.000000
-4.691362 148.888290 297.000000
-4.691362 149.856216 297.000000
-4.691362 150.340164 297.000000
-4.675566 150.798630 296.000000
-4.675566 151.280960 296.000000
-4.675566 152.245621 296.000000
-4.659770 152.211960 295.000000
-4.659770 153.173370 295.000000
-4.659770 153.654068 295.000000
-4.659770 154.615463 295.000000
-4.659770 155.096161 295.000000
-4.659770 156.057556 295.000000
-4.659770 156.538254 295.000000
-4.643974 156.965775 294.000000
-4.643974 157.444839 294.000000
-4.643974 157.923904 294.000000
-4.643974 158.882050 294.000000
-4.628179 158.819061 293.000000
-4.628179 159.773941 293.000000
-4.612382 159.704453 292.000000
-4.612382 160.656067 292.000000
-4.612382 161.131882 292.000000
-4.612382 162.083496 292.000000
-4.612382 162.559311 292.000000
-4.612382 163.510941 292.000000
-4.596587 163.425140 291.000000
-4.596587 164.373505 291.000000
-4.580791 164.281204 290.000000
-4.580791 165.226303 290.000000
-4.580791 165.698853 290.000000
-4.580791 166.643951 290.000000
-4.580791 167.116501 290.000000
-4.817729 178.742432 305.000000
-4.801932 178.651749 304.000000
-4.801932 179.642471 304.000000
-5.247726 14.876850 370.416656
-5.247726 15.480440 370.416656
-5.250995 16.094049 370.647430
-5.251619 16.700001 370.691498
-5.251619 17.304037 370.691498
-5.252245 17.910210 370.735687
-5.253208 18.517710 370.803589
-5.253208 19.121929 370.803589
-5.255990 19.736597 371.000000
-5.255990 20.341137 371.000000
-5.255990 20.945677 371.000000
-5.255990 21.550217 371.000000
-5.255990 22.154757 371.000000
-5.255990 22.759296 371.000000
-5.270157 23.426811 372.000000
-5.270157 24.032982 372.000000
-5.270157 24.639151 372.000000
-5.270157 25.245319 372.000000
-5.270157 25.851490 372.000000
-5.270157 26.457659 372.000000
-5.270157 27.063828 372.000000
-5.270157 27.669996 372.000000
-5.270157 28.276167 372.000000
-5.270157 28.882336 372.000000
-5.270157 29.488504 372.000000
-5.255990 30.013777 371.000000
-5.255990 30.618315 371.000000
-5.255990 31.222855 371.000000
-5.255990 31.827394 371.000000
-5.255990 32.431934 371.000000
-5.255990 33.036476 371.000000
-5.255990 33.641014 371.000000
-5.255990 34.245556 371.000000
-5.241823 34.756157 370.000000
-5.241823 35.359066 370.000000
-5.241823 35.961979 370.000000
-5.241823 36.564888 370.000000
-5.241823 37.167797 370.000000
-5.241823 37.770710 370.000000
-5.241823 38.373619 370.000000
-5.241823 38.976528 370.000000
-5.241823 39.579441 370.000000
-5.241823 40.182350 370.000000
-5.241823 40.785259 370.000000
-5.241823 41.388172 370.000000
-5.227656 41.877594 369.000000
-5.241823 42.593990 370.000000
-5.241823 43.196903 370.000000
-5.241823 43.799812 370.000000
-5.241823 44.402721 370.000000
-5.241823 45.005630 370.000000
-5.241823 45.608543 370.000000
-5.227656 46.086559 369.000000
-5.227656 46.687840 369.000000
-5.227656 47.289120 369.000000
-5.227656 47.890400 369.000000
-5.213489 48.360268 368.000000
-5.213489 48.959919 368.000000
-5.213489 49.559570 368.000000
-5.222910 52.052063 368.664978
-5.222910 52.652798 368.664978
-5.222910 53.253532 368.664978
-5.221832 53.843159 368.588898
-5.221832 54.443764 368.588898
-5.221832 55.044376 368.588898
-5.219602 55.621227 368.431488
-5.219602 56.221577 368.431488
-5.219213 56.817703 368.404083
-5.218965 57.415287 368.386566
-5.218965 58.015568 368.386566
-5.219747 58.624634 368.441772
-5.219747 59.225002 368.441772
-5.219747 59.825375 368.441772
-5.219747 60.425743 368.441772
-5.219747 61.026115 368.441772
-5.219747 61.626488 368.441772
-5.219747 62.226856 368.441772
-5.219431 62.823429 368.419464
-5.219301 63.422176 368.410248
-5.219301 64.022491 368.410248
-5.219177 64.621284 368.401550
-5.220264 65.235176 368.478271
-5.220264 65.835609 368.478271
-5.220264 66.436043 368.478271
-5.219582 67.027695 368.430054
-5.219582 67.628044 368.430054
-5.219582 68.228401 368.430054
-5.219565 68.828537 368.428894
-5.219565 69.428886 368.428894
-5.219547 70.028992 368.427612
-5.219527 70.629066 368.426178
-5.219527 71.229408 368.426178
-5.219512 71.829559 368.425140
-5.219536 72.430237 368.426849
-5.219536 73.030579 368.426849
-5.219574 73.631470 368.429535
-5.219613 74.232376 368.432312
-5.219613 74.832733 368.432312
-5.219613 75.433090 368.432312
-5.219551 76.032532 368.427887
-5.219551 76.632881 368.427887
-5.219551 77.233231 368.427887
-5.219548 77.833534 368.427673
-5.219546 78.433853 368.427551
-5.219546 79.034203 368.427551
-5.219546 79.634552 368.427551
-5.217785 80.207832 368.303284
-5.217785 80.807983 368.303284
-5.217785 81.408127 368.303284
-5.217612 82.005554 368.291077
-5.217612 82.605682 368.291077
-5.217421 83.202744 368.277527
-5.217205 83.799385 368.262299
-5.217205 84.399460 368.262299
-5.216964 84.995621 368.245300
-5.216705 85.591423 368.227051
-5.216705 86.191444 368.227051
-5.216421 86.786736 368.206970
-5.216108 87.381485 368.184906
-5.216108 87.981438 368.184906
-5.215765 88.575562 368.160645
-5.203347 88.963165 367.284149
-5.203347 89.561653 367.284149
-5.202083 90.138229 367.194916
-5.200724 90.712860 367.098969
-5.200724 91.311043 367.098969
-5.195089 91.809654 366.701263
-5.199672 92.488693 367.024689
-5.199672 93.086754 367.024689
-5.199672 93.684814 367.024689
-5.172825 93.796089 365.129700
-5.172825 94.391060 365.129700
-5.172825 94.986031 365.129700
-5.167928 95.490517 364.784027
-5.096768 94.761902 359.761169
-5.096768 95.348129 359.761169
-5.065289 95.341835 357.539185
-5.056369 95.755516 356.909546
-5.056369 96.337097 356.909546
-4.875821 95.140427 344.165344
-4.875821 95.701241 344.165344
-4.875821 96.262054 344.165344
-4.742610 94.177605 334.762512
-4.654078 92.954842 328.513306
-4.654078 93.490150 328.513306
-4.579106 92.510826 323.221375
-4.498727 91.404388 317.547729
-4.498727 91.921829 317.547729
-4.466378 91.774551 315.264313
-4.424310 91.419044 312.294952
-4.424310 91.927925 312.294952
-4.364765 91.192734 308.091888
-4.311878 90.583717 304.358795
-4.311878 91.079659 304.358795
-4.122623 87.556213 291.000000
-4.122623 88.030396 291.000000
-4.122623 88.504578 291.000000
-4.136790 89.284523 292.000000
-4.136790 89.760338 292.000000
-4.136790 90.236145 292.000000
-4.136790 90.711960 292.000000
-4.150957 91.500053 293.000000
-4.150957 91.977493 293.000000
-4.150957 92.454926 293.000000
-4.150957 92.932365 293.000000
-4.150957 93.409805 293.000000
-4.150957 93.887245 293.000000
-4.165124 94.686752 294.000000
-4.165124 95.165825 294.000000
-4.165124 95.644890 294.000000
-4.165124 96.123962 294.000000
-4.165124 96.603035 294.000000
-4.165124 97.082100 294.000000
-4.150957 97.229324 293.000000
-4.150957 97.706764 293.000000
-4.165124 98.519310 294.000000
-4.165124 98.998375 294.000000
-4.165124 99.477448 294.000000
-4.165124 99.956512 294.000000
-4.165124 100.435585 294.000000
-4.150957 100.571404 293.000000
-4.150957 101.048843 293.000000
-4.150957 101.526283 293.000000
-4.150957 102.003723 293.000000
-4.150957 102.481163 293.000000
-4.150957 102.958603 293.000000
-4.150957 103.436043 293.000000
-4.150957 103.913483 293.000000
-4.136790 104.034645 292.000000
-4.136790 104.510452 292.000000
-4.136790 104.986267 292.000000
-4.136790 105.462074 292.000000
-4.136790 105.937889 292.000000
-4.136790 106.413696 292.000000
-4.149093 107.207397 292.868408
-4.149093 107.684624 292.868408
-4.149093 108.161842 292.868408
-4.136790 108.316940 292.000000
-4.136790 108.792747 292.000000
-4.136790 109.268562 292.000000
-4.136790 109.744370 292.000000
-4.136790 110.220177 292.000000
-4.136790 110.695992 292.000000
-4.136790 111.171799 292.000000
-4.136790 111.647614 292.000000
-4.136790 112.123421 292.000000
-4.136790 112.599228 292.000000
-4.136790 113.075043 292.000000
-4.136790 113.550850 292.000000
-4.136790 114.026665 292.000000
-4.136790 114.502472 292.000000
-4.136790 114.978279 292.000000
-4.136790 115.454094 292.000000
-4.136790 115.929901 292.000000
-4.136790 116.405716 292.000000
-4.136790 116.881523 292.000000
-4.136790 117.357338 292.000000
-4.136790 117.833145 292.000000
-4.136790 118.308952 292.000000
-4.136790 118.784767 292.000000
-4.136790 119.260574 292.000000
-4.136790 119.736389 292.000000
-4.136790 120.212196 292.000000
-4.136790 120.688004 292.000000
-4.136790 121.163818 292.000000
-4.150957 122.056206 293.000000
-4.150957 122.533646 293.000000
-4.150957 123.011086 293.000000
-4.150957 123.488525 293.000000
-4.150957 123.965965 293.000000
-4.150957 124.443405 293.000000
-4.150957 124.920845 293.000000
-4.150957 125.398285 293.000000
-4.150957 125.875725 293.000000
-4.150957 126.353165 293.000000
-4.150957 126.830605 293.000000
-4.165124 127.742538 294.000000
-4.165124 128.221603 294.000000
-4.165124 128.700684 294.000000
-4.165124 129.179749 294.000000
-4.165124 129.658813 294.000000
-4.165124 130.137894 294.000000
-4.179291 131.061218 295.000000
-4.179291 131.541916 295.000000
-4.179291 132.022614 295.000000
-4.179291 132.503311 295.000000
-4.179291 132.984009 295.000000
-4.179291 133.464722 295.000000
-4.179291 133.945419 295.000000
-4.179291 134.426117 295.000000
-4.193459 135.364120 296.000000
-4.193459 135.846451 296.000000
-4.193459 136.328781 296.000000
-4.193459 136.811111 296.000000
-4.207625 137.757263 297.000000
-4.207625 138.241226 297.000000
-4.207625 139.693100 297.000000
-4.207625 140.661011 297.000000
-4.207625 141.144974 297.000000
-4.207625 142.112885 297.000000
-4.221793 143.076965 298.000000
-4.221793 143.562561 298.000000
-4.221793 144.533737 298.000000
-4.221793 145.019318 298.000000
-4.221793 145.990494 298.000000
-4.221793 146.476089 298.000000
-4.221793 147.447250 298.000000
-4.221793 147.932846 298.000000
-4.136790 160.656067 292.000000
-4.136790 161.131882 292.000000
-4.136790 162.083496 292.000000
-4.136790 162.559311 292.000000
-4.136790 163.510941 292.000000
-4.122623 163.425140 291.000000
-4.108456 163.808640 290.000000
-4.108456 164.281204 290.000000
-4.108456 165.226303 290.000000
-4.108456 165.698853 290.000000
-4.108456 166.643951 290.000000
-4.306795 178.651749 304.000000
-4.648592 13.077842 370.750000
-4.648592 13.681973 370.750000
-4.648592 14.286105 370.750000
-4.648023 14.888412 370.704559
-4.648023 15.492472 370.704559
-4.647306 16.094049 370.647430
-4.647859 16.700001 370.691498
-4.647859 17.304037 370.691498
-4.648413 17.910210 370.735687
-4.649264 18.517710 370.803589
-4.649264 19.121929 370.803589
-4.651727 19.736597 371.000000
-4.651727 20.341137 371.000000
-4.651727 20.945677 371.000000
-4.651727 21.550217 371.000000
-4.651727 22.154757 371.000000
-4.651727 22.759296 371.000000
-4.664265 23.426811 372.000000
-4.664265 24.032982 372.000000
-4.664265 24.639151 372.000000
-4.664265 25.245319 372.000000
-4.664265 25.851490 372.000000
-4.664265 26.457659 372.000000
-4.664265 27.063828 372.000000
-4.664265 27.669996 372.000000
-4.651727 28.200157 371.000000
-4.651727 28.804697 371.000000
-4.651727 29.409237 371.000000
-4.651727 30.013777 371.000000
-4.651727 30.618315 371.000000
-4.651727 31.222855 371.000000
-4.651727 31.827394 371.000000
-4.651727 32.431934 371.000000
-4.651727 33.036476 371.000000
-4.639189 33.550335 370.000000
-4.639189 34.153248 370.000000
-4.639189 34.756157 370.000000
-4.639189 35.359066 370.000000
-4.639189 35.961979 370.000000
-4.639189 36.564888 370.000000
-4.626650 37.067345 369.000000
-4.626650 37.668629 369.000000
-4.626650 38.269909 369.000000
-4.626650 38.871189 369.000000
-4.626650 39.472469 369.000000
-4.626650 40.073750 369.000000
-4.626650 40.675030 369.000000
-4.626650 41.276314 369.000000
-4.626650 41.877594 369.000000
-4.626650 42.478874 369.000000
-4.626650 43.080154 369.000000
-4.626650 43.681435 369.000000
-4.626650 44.282715 369.000000
-4.626650 44.883995 369.000000
-4.626650 45.485279 369.000000
-4.626650 46.086559 369.000000
-4.626650 46.687840 369.000000
-4.626650 47.289120 369.000000
-4.614112 47.760616 368.000000
-4.622118 48.444180 368.638519
-4.622118 49.044872 368.638519
-4.622118 49.645561 368.638519
-4.621379 51.439407 368.579559
-4.622450 52.052063 368.664978
-4.622450 52.652798 368.664978
-4.622450 53.253532 368.664978
-4.620781 53.834831 368.531921
-4.620781 54.435349 368.531921
-4.620266 55.029728 368.490814
-4.618926 55.614052 368.383972
-4.618926 56.214329 368.383972
-4.618353 56.807552 368.338226
-4.618959 57.415287 368.386566
-4.618959 58.015568 368.386566
-4.619651 58.624634 368.441772
-4.619651 59.225002 368.441772
-4.619651 59.825375 368.441772
-4.619651 60.425743 368.441772
-4.619651 61.026115 368.441772
-4.619651 61.626488 368.441772
-4.619651 62.226856 368.441772
-4.619371 62.823429 368.419464
-4.619230 63.421825 368.408203
-4.619230 64.022141 368.408203
-4.619149 64.621323 368.401764
-4.620109 65.235176 368.478271
-4.620109 65.835609 368.478271
-4.620109 66.436043 368.478271
-4.619504 67.027695 368.430054
-4.619504 67.628044 368.430054
-4.619504 68.228401 368.430054
-4.619490 68.828537 368.428894
-4.619490 69.428886 368.428894
-4.619473 70.028992 368.427612
-4.619455 70.629066 368.426178
-4.619455 71.229408 368.426178
-4.619442 71.829559 368.425140
-4.619464 72.430237 368.426849
-4.619464 73.030579 368.426849
-4.619498 73.631470 368.429535
-4.619533 74.232376 368.432312
-4.619533 74.832733 368.432312
-4.619533 75.433090 368.432312
-4.619477 76.032532 368.427887
-4.619477 76.632881 368.427887
-4.619477 77.233231 368.427887
-4.619474 77.833534 368.427673
-4.619473 78.433853 368.427551
-4.619473 79.034203 368.427551
-4.619473 79.634552 368.427551
-4.617915 80.207832 368.303284
-4.617915 80.807983 368.303284
-4.617915 81.408127 368.303284
-4.617762 82.005554 368.291077
-4.617762 82.605682 368.291077
-4.617592 83.202744 368.277527
-4.617401 83.799385 368.262299
-4.617401 84.399460 368.262299
-4.617188 84.995621 368.245300
-4.616959 85.591423 368.227051
-4.616959 86.191444 368.227051
-4.616707 86.786736 368.206970
-4.616430 87.381485 368.184906
-4.616430 87.981438 368.184906
-4.616126 88.575562 368.160645
-4.612432 89.104095 367.865967
-4.612432 89.703529 367.865967
-4.585839 89.782326 365.745087
-4.590794 90.475960 366.140289
-4.590794 91.072586 366.140289
-4.602160 91.896156 367.046753
-4.602160 92.494255 367.046753
-4.602160 93.092354 367.046753
-4.602209 93.691437 367.050629
-4.602209 94.289543 367.050629
-4.602209 94.887650 367.050629
-4.578123 94.986031 365.129700
-4.573789 95.490517 364.784027
-4.510810 94.761902 359.761169
-4.510810 95.348129 359.761169
-4.482951 95.341835 357.539185
-4.475056 95.755516 356.909546
-4.475056 96.337097 356.909546
-4.197369 93.086617 334.762512
-4.197369 93.632111 334.762512
-4.197369 94.177605 334.762512
-4.102122 92.573631 327.166077
-4.102122 93.106750 327.166077
-3.981524 90.886940 317.547729
-3.981524 91.404388 317.547729
-3.981524 91.921829 317.547729
-3.952893 91.774551 315.264313
-3.866498 90.271210 308.373840
-3.866498 90.773689 308.373840
-3.814574 90.050407 304.232574
-3.770210 89.493095 300.694336
-3.770210 89.983070 300.694336
-3.680717 88.325500 293.556793
-3.648659 88.030396 291.000000
-3.648659 88.504578 291.000000
-3.661197 89.284523 292.000000
-3.661197 89.760338 292.000000
-3.661197 90.236145 292.000000
-3.661197 90.711960 292.000000
-3.661197 91.187767 292.000000
-3.661197 91.663574 292.000000
-3.661197 92.139389 292.000000
-3.673736 92.932365 293.000000
-3.673736 93.409805 293.000000
-3.673736 93.887245 293.000000
-3.673736 94.364685 293.000000
-3.673736 94.842125 293.000000
-3.673736 95.319565 293.000000
-3.673736 95.797005 293.000000
-3.673736 96.274445 293.000000
-3.673736 96.751884 293.000000
-3.673736 97.229324 293.000000
-3.673736 97.706764 293.000000
-3.673736 98.184204 293.000000
-3.673736 98.661644 293.000000
-3.673736 99.139084 293.000000
-3.673736 99.616524 293.000000
-3.673736 100.093964 293.000000
-3.673736 100.571404 293.000000
-3.673736 101.048843 293.000000
-3.673736 101.526283 293.000000
-3.673736 102.003723 293.000000
-3.673736 102.481163 293.000000
-3.673736 102.958603 293.000000
-3.673736 103.436043 293.000000
-3.673736 103.913483 293.000000
-3.673736 104.390923 293.000000
-3.661197 104.510452 292.000000
-3.661197 104.986267 292.000000
-3.661197 105.462074 292.000000
-3.661197 105.937889 292.000000
-3.661197 106.413696 292.000000
-3.661197 106.889511 292.000000
-3.661197 107.365318 292.000000
-3.661197 107.841125 292.000000
-3.661197 108.316940 292.000000
-3.661197 108.792747 292.000000
-3.661197 109.268562 292.000000
-3.661197 109.744370 292.000000
-3.661197 110.220177 292.000000
-3.661197 110.695992 292.000000
-3.661197 111.171799 292.000000
-3.661197 111.647614 292.000000
-3.661197 112.123421 292.000000
-3.661197 112.599228 292.000000
-3.661197 113.075043 292.000000
-3.661197 113.550850 292.000000
-3.661197 114.026665 292.000000
-3.661197 114.502472 292.000000
-3.661197 114.978279 292.000000
-3.661197 115.454094 292.000000
-3.661197 115.929901 292.000000
-3.661197 116.405716 292.000000
-3.661197 116.881523 292.000000
-3.661197 117.357338 292.000000
-3.661197 117.833145 292.000000
-3.661197 118.308952 292.000000
-3.661197 118.784767 292.000000
-3.661197 119.260574 292.000000
-3.661197 119.736389 292.000000
-3.673736 120.623886 293.000000
-3.673736 121.101326 293.000000
-3.673736 121.578766 293.000000
-3.673736 122.056206 293.000000
-3.673736 122.533646 293.000000
-3.673736 123.011086 293.000000
-3.673736 123.488525 293.000000
-3.673736 123.965965 293.000000
-3.673736 124.443405 293.000000
-3.673736 124.920845 293.000000
-3.673736 125.398285 293.000000
-3.673736 125.875725 293.000000
-3.686274 126.784401 294.000000
-3.686274 127.263474 294.000000
-3.686274 127.742538 294.000000
-3.686274 128.221603 294.000000
-3.686274 128.700684 294.000000
-3.686274 129.179749 294.000000
-3.686274 129.658813 294.000000
-3.698812 130.580521 295.000000
-3.698812 131.061218 295.000000
-3.698812 131.541916 295.000000
-3.698812 132.022614 295.000000
-3.698812 132.503311 295.000000
-3.698812 132.984009 295.000000
-3.698812 133.464722 295.000000
-3.711351 134.399475 296.000000
-3.711351 134.881790 296.000000
-3.711351 135.364120 296.000000
-3.711351 135.846451 296.000000
-3.711351 136.328781 296.000000
-3.723889 137.273315 297.000000
-3.723889 137.757263 297.000000
-3.723889 138.241226 297.000000
-3.723889 139.209137 297.000000
-3.723889 139.693100 297.000000
-3.736428 141.134628 298.000000
-3.736428 141.620209 298.000000
-3.736428 142.591385 298.000000
-3.736428 143.076965 298.000000
-3.736428 143.562561 298.000000
-3.736428 144.533737 298.000000
-3.736428 145.019318 298.000000
-3.736428 145.990494 298.000000
-3.736428 146.476089 298.000000
-3.736428 147.447250 298.000000
-3.736428 147.932846 298.000000
-3.723889 148.404343 297.000000
-3.723889 148.888290 297.000000
-3.723889 149.856216 297.000000
-3.723889 150.340164 297.000000
-3.711351 150.798630 296.000000
-3.711351 151.280960 296.000000
-3.711351 152.245621 296.000000
-3.698812 152.211960 295.000000
-3.698812 153.173370 295.000000
-3.698812 153.654068 295.000000
-3.698812 154.615463 295.000000
-3.698812 155.096161 295.000000
-3.698812 156.057556 295.000000
-3.698812 156.538254 295.000000
-3.686274 156.965775 294.000000
-3.686274 157.444839 294.000000
-3.686274 157.923904 294.000000
-3.673736 158.341629 293.000000
-3.673736 158.819061 293.000000
-3.661197 159.228638 292.000000
-3.661197 159.704453 292.000000
-4.040191 12.459690 370.333344
-4.044736 13.077842 370.750000
-4.044736 13.681973 370.750000
-4.044736 14.286105 370.750000
-4.044241 14.888412 370.704559
-4.044241 15.492472 370.704559
-4.042346 16.088987 370.530823
-4.042346 16.692760 370.530823
-4.042346 17.296537 370.530823
-4.042438 17.900723 370.539307
-4.042751 18.505947 370.568054
-4.042751 19.109783 370.568054
-4.047464 19.736597 371.000000
-4.047464 20.341137 371.000000
-4.047464 20.945677 371.000000
-4.047464 21.550217 371.000000
-4.047464 22.154757 371.000000
-4.047464 22.759296 371.000000
-4.058373 23.426811 372.000000
-4.058373 24.032982 372.000000
-4.058373 24.639151 372.000000
-4.058373 25.245319 372.000000
-4.058373 25.851490 372.000000
-4.058373 26.457659 372.000000
-4.058373 27.063828 372.000000
-4.058373 27.669996 372.000000
-4.047464 28.200157 371.000000
-4.047464 28.804697 371.000000
-4.047464 29.409237 371.000000
-4.047464 30.013777 371.000000
-4.047464 30.618315 371.000000
-4.047464 31.222855 371.000000
-4.047464 31.827394 371.000000
-4.047464 32.431934 371.000000
-4.036554 32.947426 370.000000
-4.036554 33.550335 370.000000
-4.036554 34.153248 370.000000
-4.036554 34.756157 370.000000
-4.036554 35.359066 370.000000
-4.036554 35.961979 370.000000
-4.025645 36.466064 369.000000
-4.025645 37.067345 369.000000
-4.025645 37.668629 369.000000
-4.025645 38.269909 369.000000
-4.025645 38.871189 369.000000
-4.025645 39.472469 369.000000
-4.025645 40.073750 369.000000
-4.014735 40.564800 368.000000
-4.014735 41.164452 368.000000
-4.014735 41.764103 368.000000
-4.014735 42.363754 368.000000
-4.025645 43.080154 369.000000
-4.025645 43.681435 369.000000
-4.025645 44.282715 369.000000
-4.025645 44.883995 369.000000
-4.025645 45.485279 369.000000
-4.025645 46.086559 369.000000
-4.014735 46.561314 368.000000
-4.014735 47.160965 368.000000
-4.014735 47.760616 368.000000
-4.021701 48.444180 368.638519
-4.021701 49.044872 368.638519
-4.021701 49.645561 368.638519
-4.016771 50.184662 368.186646
-4.016771 50.784615 368.186646
-4.021058 51.439407 368.579559
-4.021214 52.042030 368.593903
-4.021214 52.642647 368.593903
-4.021214 53.243267 368.593903
-4.018570 53.808472 368.351501
-4.018570 54.408699 368.351501
-4.017685 54.996822 368.270447
-4.016935 55.586529 368.201660
-4.016935 56.186508 368.201660
-4.017210 56.790379 368.226868
-4.018883 57.414299 368.380219
-4.018883 58.014568 368.380219
-4.018883 58.614838 368.380219
-4.019476 59.223839 368.434540
-4.019476 59.824203 368.434540
-4.019476 60.424561 368.434540
-4.018626 61.012009 368.356598
-4.018382 61.608509 368.334290
-4.018382 62.208710 368.334290
-4.018099 62.804470 368.308319
-4.018088 63.404469 368.307373
-4.018088 64.004616 368.307373
-4.019118 64.621323 368.401764
-4.019349 65.225380 368.422943
-4.019349 65.825729 368.422943
-4.019349 66.426064 368.422943
-4.017908 67.002357 368.290771
-4.017908 67.602486 368.290771
-4.017908 68.202606 368.290771
-4.017845 68.801659 368.285034
-4.017845 69.401779 368.285034
-4.017682 69.999054 368.270081
-4.017587 70.597488 368.261444
-4.017587 71.197563 368.261444
-4.017508 71.796219 368.254150
-4.017449 72.395218 368.248749
-4.017449 72.995277 368.248749
-4.017388 73.594231 368.243225
-4.017318 74.192986 368.236786
-4.017318 74.793015 368.236786
-4.017138 75.389687 368.220306
-4.017474 75.996040 368.251068
-4.017474 76.596100 368.251068
-4.017474 77.196159 368.251068
-4.017431 77.795387 368.247101
-4.017389 78.394630 368.243286
-4.017389 78.994675 368.243286
-4.017360 79.594147 368.240601
-4.017337 80.193733 368.238525
-4.017337 80.793777 368.238525
-4.017320 81.393471 368.236969
-4.017307 81.993248 368.235779
-4.017307 82.593277 368.235779
-4.017300 83.193146 368.235046
-4.017297 83.793144 368.234863
-4.017297 84.393173 368.234863
-4.014587 84.935867 367.986420
-4.014587 85.535500 367.986420
-4.014587 86.135124 367.986420
-4.014298 86.728516 367.959961
-4.013985 87.321289 367.931244
-4.013985 87.920822 367.931244
-4.013644 88.512856 367.900024
-4.013273 89.104095 367.865967
-4.013273 89.703529 367.865967
-3.989217 89.761688 365.660980
-4.005198 90.719490 367.125793
-4.005198 91.317719 367.125793
-4.005198 91.915947 367.125793
-4.004659 92.501724 367.076416
-4.004659 93.099876 367.076416
-4.004378 93.691437 367.050629
-4.004378 94.289543 367.050629
-4.004378 94.887650 367.050629
-4.002767 95.447334 366.902954
-3.979650 95.490517 364.784027
-3.569253 92.040527 327.166077
-3.569253 92.573631 327.166077
-3.569253 93.106750 327.166077
-3.411604 90.013489 312.715607
-3.411604 90.523048 312.715607
-3.411604 91.032616 312.715607
-3.364237 90.271210 308.373840
-3.364237 90.773689 308.373840
-3.289052 89.236320 301.482208
-3.253455 88.756477 298.219330
-3.253455 89.242424 298.219330
-3.202589 88.325500 293.556793
-3.174695 88.030396 291.000000
-3.174695 88.504578 291.000000
-3.185605 89.284523 292.000000
-3.185605 89.760338 292.000000
-3.185605 90.236145 292.000000
-3.185605 90.711960 292.000000
-3.185605 91.187767 292.000000
-3.185605 91.663574 292.000000
-3.185605 92.139389 292.000000
-3.196515 92.932365 293.000000
-3.196515 93.409805 293.000000
-3.196515 93.887245 293.000000
-3.196515 94.364685 293.000000
-3.196515 94.842125 293.000000
-3.196515 95.319565 293.000000
-3.196515 95.797005 293.000000
-3.196515 96.274445 293.000000
-3.196515 96.751884 293.000000
-3.196515 97.229324 293.000000
-3.196515 97.706764 293.000000
-3.196515 98.184204 293.000000
-3.196515 98.661644 293.000000
-3.196515 99.139084 293.000000
-3.196515 99.616524 293.000000
-3.196515 100.093964 293.000000
-3.196515 100.571404 293.000000
-3.196515 101.048843 293.000000
-3.196515 101.526283 293.000000
-3.196515 102.003723 293.000000
-3.196515 102.481163 293.000000
-3.196515 102.958603 293.000000
-3.196515 103.436043 293.000000
-3.196515 103.913483 293.000000
-3.196515 104.390923 293.000000
-3.185605 104.510452 292.000000
-3.185605 104.986267 292.000000
-3.185605 105.462074 292.000000
-3.185605 105.937889 292.000000
-3.185605 106.413696 292.000000
-3.185605 106.889511 292.000000
-3.185605 107.365318 292.000000
-3.185605 107.841125 292.000000
-3.185605 108.316940 292.000000
-3.185605 108.792747 292.000000
-3.185605 109.268562 292.000000
-3.185605 109.744370 292.000000
-3.185605 110.220177 292.000000
-3.185605 110.695992 292.000000
-3.185605 111.171799 292.000000
-3.185605 111.647614 292.000000
-3.185605 112.123421 292.000000
-3.185605 112.599228 292.000000
-3.185605 113.075043 292.000000
-3.185605 113.550850 292.000000
-3.185605 114.026665 292.000000
-3.185605 114.502472 292.000000
-3.185605 114.978279 292.000000
-3.185605 115.454094 292.000000
-3.185605 115.929901 292.000000
-3.185605 116.405716 292.000000
-3.185605 116.881523 292.000000
-3.185605 117.357338 292.000000
-3.185605 117.833145 292.000000
-3.185605 118.308952 292.000000
-3.185605 118.784767 292.000000
-3.185605 119.260574 292.000000
-3.185605 119.736389 292.000000
-3.196515 120.623886 293.000000
-3.196515 121.101326 293.000000
-3.196515 121.578766 293.000000
-3.196515 122.056206 293.000000
-3.196515 122.533646 293.000000
-3.196515 123.011086 293.000000
-3.196515 123.488525 293.000000
-3.196515 123.965965 293.000000
-3.196515 124.443405 293.000000
-3.196515 124.920845 293.000000
-3.196515 125.398285 293.000000
-3.196515 125.875725 293.000000
-3.207424 126.784401 294.000000
-3.207424 127.263474 294.000000
-3.207424 127.742538 294.000000
-3.207424 128.221603 294.000000
-3.207424 128.700684 294.000000
-3.207424 129.179749 294.000000
-3.207424 129.658813 294.000000
-3.218334 130.580521 295.000000
-3.218334 131.061218 295.000000
-3.218334 131.541916 295.000000
-3.218334 132.022614 295.000000
-3.218334 132.503311 295.000000
-3.218334 132.984009 295.000000
-3.218334 133.464722 295.000000
-3.229243 134.399475 296.000000
-3.229243 134.881790 296.000000
-3.229243 135.364120 296.000000
-3.229243 135.846451 296.000000
-3.229243 136.328781 296.000000
-3.240153 137.273315 297.000000
-3.240153 137.757263 297.000000
-3.240153 138.241226 297.000000
-3.240153 139.209137 297.000000
-3.240153 148.888290 297.000000
-3.240153 149.856216 297.000000
-3.240153 150.340164 297.000000
-3.229243 150.798630 296.000000
-3.229243 151.280960 296.000000
-3.229243 152.245621 296.000000
-3.229243 152.727936 296.000000
-3.218334 153.173370 295.000000
-3.218334 153.654068 295.000000
-3.218334 154.615463 295.000000
-3.218334 155.096161 295.000000
-3.218334 156.057556 295.000000
-3.218334 156.538254 295.000000
-3.207424 156.965775 294.000000
-3.207424 157.444839 294.000000
-3.207424 157.923904 294.000000
-3.196515 158.341629 293.000000
-3.196515 158.819061 293.000000
-3.196515 159.773941 293.000000
-3.185605 159.704453 292.000000
-3.185605 160.656067 292.000000
-3.185605 161.131882 292.000000
-3.185605 162.083496 292.000000
-3.185605 162.559311 292.000000
-3.174695 162.950958 291.000000
-3.174695 163.425140 291.000000
-3.163786 163.808640 290.000000
-3.163786 164.281204 290.000000
-3.163786 165.226303 290.000000
-3.163786 165.698853 290.000000
-3.163786 166.643951 290.000000
-3.437014 12.459690 370.333344
-3.440880 13.077842 370.750000
-3.440880 13.681973 370.750000
-3.440880 14.286105 370.750000
-3.440459 14.888412 370.704559
-3.440459 15.492472 370.704559
-3.438846 16.088987 370.530823
-3.438846 16.692760 370.530823
-3.438846 17.296537 370.530823
-3.438925 17.900723 370.539307
-3.439192 18.505947 370.568054
-3.439192 19.109783 370.568054
-3.443201 19.736597 371.000000
-3.443201 20.341137 371.000000
-3.443201 20.945677 371.000000
-3.443201 21.550217 371.000000
-3.443201 22.154757 371.000000
-3.443201 22.759296 371.000000
-3.443201 23.363836 371.000000
-3.443201 23.968376 371.000000
-3.443201 24.572916 371.000000
-3.443201 25.177456 371.000000
-3.443201 25.781996 371.000000
-3.443201 26.386536 371.000000
-3.443201 26.991077 371.000000
-3.443201 27.595617 371.000000
-3.443201 28.200157 371.000000
-3.443201 28.804697 371.000000
-3.443201 29.409237 371.000000
-3.443201 30.013777 371.000000
-3.443201 30.618315 371.000000
-3.443201 31.222855 371.000000
-3.443201 31.827394 371.000000
-3.443201 32.431934 371.000000
-3.433920 32.947426 370.000000
-3.433920 33.550335 370.000000
-3.433920 34.153248 370.000000
-3.433920 34.756157 370.000000
-3.433920 35.359066 370.000000
-3.433920 35.961979 370.000000
-3.424639 36.466064 369.000000
-3.424639 37.067345 369.000000
-3.424639 37.668629 369.000000
-3.424639 38.269909 369.000000
-3.424639 38.871189 369.000000
-3.424639 39.472469 369.000000
-3.424639 40.073750 369.000000
-3.415358 40.564800 368.000000
-3.415358 41.164452 368.000000
-3.415358 41.764103 368.000000
-3.415358 42.363754 368.000000
-3.424639 43.080154 369.000000
-3.424639 43.681435 369.000000
-3.424639 44.282715 369.000000
-3.424639 44.883995 369.000000
-3.424639 45.485279 369.000000
-3.424639 46.086559 369.000000
-3.415358 46.561314 368.000000
-3.415358 47.160965 368.000000
-3.415358 47.760616 368.000000
-3.421284 48.444180 368.638519
-3.421284 49.044872 368.638519
-3.421284 49.645561 368.638519
-3.417090 50.184662 368.186646
-3.417090 50.784615 368.186646
-3.420737 51.439407 368.579559
-3.420870 52.042030 368.593903
-3.420870 52.642647 368.593903
-3.420870 53.243267 368.593903
-3.418620 53.808472 368.351501
-3.418620 54.408699 368.351501
-3.417868 54.996822 368.270447
-3.417230 55.586529 368.201660
-3.417230 56.186508 368.201660
-3.417464 56.790379 368.226868
-3.418887 57.414299 368.380219
-3.418887 58.014568 368.380219
-3.418887 58.614838 368.380219
-3.419391 59.223839 368.434540
-3.419391 59.824203 368.434540
-3.419391 60.424561 368.434540
-3.418668 61.012009 368.356598
-3.418461 61.608509 368.334290
-3.418461 62.208710 368.334290
-3.418220 62.804470 368.308319
-3.418211 63.404469 368.307373
-3.418211 64.004616 368.307373
-3.419087 64.621323 368.401764
-3.419283 65.225380 368.422943
-3.419283 65.825729 368.422943
-3.419283 66.426064 368.422943
-3.418057 67.002357 368.290771
-3.418057 67.602486 368.290771
-3.418057 68.202606 368.290771
-3.418004 68.801659 368.285034
-3.418004 69.401779 368.285034
-3.417865 69.999054 368.270081
-3.417784 70.597488 368.261444
-3.417784 71.197563 368.261444
-3.417717 71.796219 368.254150
-3.417667 72.395218 368.248749
-3.417667 72.995277 368.248749
-3.417616 73.594231 368.243225
-3.417556 74.192986 368.236786
-3.417556 74.793015 368.236786
-3.417403 75.389687 368.220306
-3.417688 75.996040 368.251068
-3.417688 76.596100 368.251068
-3.417688 77.196159 368.251068
-3.417651 77.795387 368.247101
-3.417616 78.394630 368.243286
-3.417616 78.994675 368.243286
-3.417591 79.594147 368.240601
-3.417572 80.193733 368.238525
-3.417572 80.793777 368.238525
-3.417557 81.393471 368.236969
-3.417546 81.993248 368.235779
-3.417546 82.593277 368.235779
-3.417540 83.193146 368.235046
-3.417538 83.793144 368.234863
-3.417538 84.393173 368.234863
-3.415232 84.935867 367.986420
-3.415232 85.535500 367.986420
-3.415232 86.135124 367.986420
-3.414986 86.728516 367.959961
-3.414720 87.321289 367.931244
-3.414720 87.920822 367.931244
-3.414430 88.512856 367.900024
-3.414114 89.104095 367.865967
-3.414114 89.703529 367.865967
-3.392559 89.732819 365.543396
-3.407245 90.719490 367.125793
-3.407245 91.317719 367.125793
-3.407245 91.915947 367.125793
-3.406786 92.501724 367.076416
-3.406786 93.099876 367.076416
-3.406547 93.691437 367.050629
-3.406547 94.289543 367.050629
-3.406547 94.887650 367.050629
-3.405176 95.447334 366.902954
-3.382327 95.400719 364.440979
-2.860809 88.727562 308.248169
-2.860809 89.229843 308.248169
-2.860809 89.732132 308.248169
-2.834858 89.415886 305.451996
-2.834858 89.913620 305.451996
-2.798016 89.236320 301.482208
-2.724461 87.368813 293.556793
-2.724461 87.847153 293.556793
-2.724461 88.325500 293.556793
-2.700732 88.030396 291.000000
-2.700732 88.504578 291.000000
-2.710012 89.284523 292.000000
-2.710012 89.760338 292.000000
-2.710012 90.236145 292.000000
-2.710012 90.711960 292.000000
-2.710012 91.187767 292.000000
-2.710012 91.663574 292.000000
-2.710012 92.139389 292.000000
-2.710012 92.615196 292.000000
-2.710012 93.091011 292.000000
-2.719293 93.887245 293.000000
-2.719293 94.364685 293.000000
-2.719293 94.842125 293.000000
-2.719293 95.319565 293.000000
-2.719293 95.797005 293.000000
-2.719293 96.274445 293.000000
-2.719293 96.751884 293.000000
-2.719293 97.229324 293.000000
-2.719293 97.706764 293.000000
-2.719293 98.184204 293.000000
-2.719293 98.661644 293.000000
-2.728574 99.477448 294.000000
-2.728574 99.956512 294.000000
-2.728574 100.435585 294.000000
-2.728574 100.914658 294.000000
-2.728574 101.393723 294.000000
-2.728574 101.872795 294.000000
-2.728574 102.351860 294.000000
-2.728574 102.830933 294.000000
-2.728574 103.309998 294.000000
-2.719293 103.436043 293.000000
-2.719293 103.913483 293.000000
-2.719293 104.390923 293.000000
-2.719293 104.868362 293.000000
-2.719293 105.345802 293.000000
-2.719293 105.823242 293.000000
-2.710012 105.937889 292.000000
-2.710012 106.413696 292.000000
-2.710012 106.889511 292.000000
-2.710012 107.365318 292.000000
