-0.810408 125.875725 293.000000
-0.813174 126.784401 294.000000
-0.813174 127.263474 294.000000
-0.813174 127.742538 294.000000
-0.813174 128.221603 294.000000
-0.813174 128.700684 294.000000
-0.813174 129.179749 294.000000
-0.813174 129.658813 294.000000
-0.815940 130.580521 295.000000
-0.815940 131.061218 295.000000
-0.815940 131.541916 295.000000
-0.815940 132.022614 295.000000
-0.818706 132.952484 296.000000
-0.818706 133.434814 296.000000
-0.821472 134.369568 297.000000
-0.821472 134.853516 297.000000
-0.821472 135.337479 297.000000
-0.821472 135.821442 297.000000
-0.821472 136.305389 297.000000
-0.821472 136.789352 297.000000
-0.824238 137.735519 298.000000
-0.824238 138.221100 298.000000
-0.824238 138.706680 298.000000
-0.824238 139.192276 298.000000
-0.824238 139.677856 298.000000
-0.824238 140.163452 298.000000
-0.824238 140.649033 298.000000
-0.824238 141.134628 298.000000
-0.824238 141.620209 298.000000
-0.824238 142.105804 298.000000
-0.824238 142.591385 298.000000
-0.824238 143.076965 298.000000
-0.824238 143.562561 298.000000
-0.824238 144.048141 298.000000
-0.821472 144.048721 297.000000
-0.821472 144.532684 297.000000
-0.821472 145.016632 297.000000
-0.821472 145.500595 297.000000
-0.821472 145.984543 297.000000
-0.821472 146.468506 297.000000
-0.821472 146.952469 297.000000
-0.821472 147.436417 297.000000
-0.821472 147.920380 297.000000
-0.821472 148.404343 297.000000
-0.821472 148.888290 297.000000
-0.818706 148.869308 296.000000
-0.815940 148.847076 295.000000
-0.815940 149.327774 295.000000
-0.815940 149.808472 295.000000
-0.815940 150.289169 295.000000
-0.815940 150.769867 295.000000
-0.815940 151.250565 295.000000
-0.815940 151.731262 295.000000
-0.815940 152.211960 295.000000
-0.813174 152.175079 294.000000
-0.813174 152.654144 294.000000
-0.813174 153.133209 294.000000
-0.810408 153.089783 293.000000
-0.810408 153.567230 293.000000
-0.810408 154.044662 293.000000
-0.807642 153.994720 292.000000
-0.807642 154.470535 292.000000
-0.807642 154.946350 292.000000
-0.807642 155.422165 292.000000
-0.807642 155.897964 292.000000
-0.807642 156.373779 292.000000
-0.807642 156.849594 292.000000
-0.804876 156.786606 291.000000
-0.804876 157.260788 291.000000
-0.804876 157.734970 291.000000
-0.804876 158.209152 291.000000
-0.804876 158.683334 291.000000
-0.804876 159.157516 291.000000
-0.804876 159.631699 291.000000
-0.802110 159.555679 290.000000
-0.802110 160.028229 290.000000
-0.802110 160.500793 290.000000
-0.802110 160.973343 290.000000
-0.802110 161.445892 290.000000
-0.424538 9.518914 373.333344
-0.424538 10.127256 373.333344
-0.424972 10.746552 373.714294
-0.424972 11.355515 373.714294
-0.424972 11.964478 373.714294
-0.424923 12.571999 373.671417
-0.425297 13.192482 374.000000
-0.425297 13.801910 374.000000
-0.425297 14.411339 374.000000
-0.425297 15.020767 374.000000
-0.425297 15.630196 374.000000
-0.425297 16.239624 374.000000
-0.425297 16.849052 374.000000
-0.425297 17.458481 374.000000
-0.425297 18.067909 374.000000
-0.424159 18.627398 373.000000
-0.424159 19.235195 373.000000
-0.424159 19.842995 373.000000
-0.424159 20.450794 373.000000
-0.424159 21.058592 373.000000
-0.423022 21.608303 372.000000
-0.423022 22.214474 372.000000
-0.423022 22.820642 372.000000
-0.423022 23.426811 372.000000
-0.423022 24.032982 372.000000
-0.423022 24.639151 372.000000
-0.423022 25.245319 372.000000
-0.423022 25.851490 372.000000
-0.423022 26.457659 372.000000
-0.423022 27.063828 372.000000
-0.421885 27.595617 371.000000
-0.421885 28.200157 371.000000
-0.421885 28.804697 371.000000
-0.421885 29.409237 371.000000
-0.421885 30.013777 371.000000
-0.421885 30.618315 371.000000
-0.421885 31.222855 371.000000
-0.421885 31.827394 371.000000
-0.421885 32.431934 371.000000
-0.421885 33.036476 371.000000
-0.421885 33.641014 371.000000
-0.421885 34.245556 371.000000
-0.421885 34.850094 371.000000
-0.420748 35.359066 370.000000
-0.420748 35.961979 370.000000
-0.420748 36.564888 370.000000
-0.420748 37.167797 370.000000
-0.420748 37.770710 370.000000
-0.420748 38.373619 370.000000
-0.420748 38.976528 370.000000
-0.420748 39.579441 370.000000
-0.420748 40.182350 370.000000
-0.420748 40.785259 370.000000
-0.420748 41.388172 370.000000
-0.420748 41.991081 370.000000
-0.420862 42.605503 370.100006
-0.421601 43.284485 370.750214
-0.421601 43.888622 370.750214
-0.421762 44.509693 370.891357
-0.421762 45.114056 370.891357
-0.421762 45.718418 370.891357
-0.421345 46.276985 370.524689
-0.421530 51.733673 370.688080
-0.421589 52.344982 370.739624
-0.421589 52.949100 370.739624
-0.421589 53.553215 370.739624
-0.421509 54.147087 370.669525
-0.421509 54.751095 370.669525
-0.421531 55.357880 370.688171
-0.421531 55.961910 370.688171
-0.421531 56.565941 370.688171
-0.421531 57.169971 370.688171
-0.421531 57.774002 370.688171
-0.421531 58.378040 370.688171
-0.421531 58.982071 370.688171
-0.421531 59.586102 370.688171
-0.421531 60.190132 370.688171
-0.421531 60.794163 370.688171
-0.421531 61.398193 370.688171
-0.421531 62.002228 370.688171
-0.421531 62.606258 370.688171
-0.421526 63.209648 370.684387
-0.421530 63.814167 370.687286
-0.421530 64.418198 370.687286
-0.421530 65.022232 370.687286
-0.421529 65.626244 370.687195
-0.421529 66.230270 370.687195
-0.421529 66.834290 370.687103
-0.421529 67.438293 370.686981
-0.421529 68.042328 370.686981
-0.421529 68.646332 370.686859
-0.421529 69.250343 370.686737
-0.421529 69.854362 370.686737
-0.421484 70.450859 370.647095
-0.421484 71.054825 370.647095
-0.421484 71.658791 370.647095
-0.421479 72.261955 370.642975
-0.421475 72.865128 370.638977
-0.421475 73.469078 370.638977
-0.421469 74.072121 370.634430
-0.421463 74.675003 370.629150
-0.421463 75.278938 370.629150
-0.421457 75.881683 370.623352
-0.421450 76.484291 370.616974
-0.421450 77.088211 370.616974
-0.421304 77.665337 370.489197
-0.421304 78.269035 370.489136
-0.421304 78.872742 370.489136
-0.421304 79.476448 370.489136
-0.421304 80.080154 370.489136
-0.421304 80.683868 370.489166
-0.421304 81.287575 370.489166
-0.421304 81.891296 370.489197
-0.421304 82.495003 370.489197
-0.421304 83.098709 370.489197
-0.421304 83.702415 370.489197
-0.419761 83.997231 369.131775
-0.419761 84.598732 369.131775
-0.420215 85.292526 369.531647
-0.420215 85.894669 369.531647
-0.420215 86.496819 369.531647
-0.419565 86.964111 368.959503
-0.419544 87.561012 368.941345
-0.419544 88.162201 368.941345
-0.419368 88.726143 368.786560
-0.419174 89.285835 368.616302
-0.419174 89.886497 368.616302
-0.418961 90.441177 368.429016
-0.418727 90.990616 368.222992
-0.418727 91.590630 368.222992
-0.418470 92.133911 367.996399
-0.418243 92.683266 367.796814
-0.418243 93.282585 367.796814
-0.410635 92.174179 361.106537
-0.409803 92.574738 360.375214
-0.409803 93.161964 360.375214
-0.403336 92.269699 354.687988
-0.397661 91.541237 349.697357
-0.397661 92.111069 349.697357
-0.394597 91.966942 347.003510
-0.394597 92.532379 347.003510
-0.388358 91.625656 341.516327
-0.388358 92.182159 341.516327
-0.382595 91.362457 336.448425
-0.377195 90.613472 331.699799
-0.377195 91.153976 331.699799
-0.373692 90.843018 328.619690
-0.368873 90.200066 324.381775
-0.368873 90.728645 324.381775
-0.364308 90.127800 320.367126
-0.329775 82.529816 290.000000
-0.330913 83.288582 291.000000
-0.332050 84.050613 292.000000
-0.332050 84.526421 292.000000
-0.332050 85.002235 292.000000
-0.332050 85.478043 292.000000
-0.332050 85.953857 292.000000
-0.332050 86.429665 292.000000
-0.333187 87.203094 293.000000
-0.333187 87.680534 293.000000
-0.333187 88.157974 293.000000
-0.333187 88.635414 293.000000
-0.333187 89.112854 293.000000
-0.333187 89.590294 293.000000
-0.334324 90.375130 294.000000
-0.334324 90.854202 294.000000
-0.334324 91.333267 294.000000
-0.334324 91.812340 294.000000
-0.334324 92.291405 294.000000
-0.334324 92.770477 294.000000
-0.334324 93.249550 294.000000
-0.334324 93.728615 294.000000
-0.334324 94.207687 294.000000
-0.334324 94.686752 294.000000
-0.334324 95.165825 294.000000
-0.334324 95.644890 294.000000
-0.334324 96.123962 294.000000
-0.334324 96.603035 294.000000
-0.334324 97.082100 294.000000
-0.334324 97.561172 294.000000
-0.334324 98.040237 294.000000
-0.334324 98.519310 294.000000
-0.333187 98.661644 293.000000
-0.333187 99.139084 293.000000
-0.333187 99.616524 293.000000
-0.333187 100.093964 293.000000
-0.332050 100.228165 292.000000
-0.332050 100.703972 292.000000
-0.332050 101.179787 292.000000
-0.332050 101.655594 292.000000
-0.332050 102.131401 292.000000
-0.332050 102.607216 292.000000
-0.332050 103.083023 292.000000
-0.332050 103.558838 292.000000
-0.332050 104.034645 292.000000
-0.332050 104.510452 292.000000
-0.332050 104.986267 292.000000
-0.332050 105.462074 292.000000
-0.332050 105.937889 292.000000
-0.332050 106.413696 292.000000
-0.332050 106.889511 292.000000
-0.332050 107.365318 292.000000
-0.332050 107.841125 292.000000
-0.332050 108.316940 292.000000
-0.332050 108.792747 292.000000
-0.332050 109.268562 292.000000
-0.332050 109.744370 292.000000
-0.332050 110.220177 292.000000
-0.332050 110.695992 292.000000
-0.332050 111.171799 292.000000
-0.332050 111.647614 292.000000
-0.332050 112.123421 292.000000
-0.332050 112.599228 292.000000
-0.332050 113.075043 292.000000
-0.332050 113.550850 292.000000
-0.332050 114.026665 292.000000
-0.332050 114.502472 292.000000
-0.332050 114.978279 292.000000
-0.332050 115.454094 292.000000
-0.332050 115.929901 292.000000
-0.332050 116.405716 292.000000
-0.332050 116.881523 292.000000
-0.332050 117.357338 292.000000
-0.332050 117.833145 292.000000
-0.332050 118.308952 292.000000
-0.332050 118.784767 292.000000
-0.332050 119.260574 292.000000
-0.332050 119.736389 292.000000
-0.332050 120.212196 292.000000
-0.332050 120.688004 292.000000
-0.332050 121.163818 292.000000
-0.332050 121.639626 292.000000
-0.332050 122.115440 292.000000
-0.332050 122.591248 292.000000
-0.332050 123.067055 292.000000
-0.333187 123.965965 293.000000
-0.333187 124.443405 293.000000
-0.333187 124.920845 293.000000
-0.333187 125.398285 293.000000
-0.333187 125.875725 293.000000
-0.334324 126.784401 294.000000
-0.334324 127.263474 294.000000
-0.334324 127.742538 294.000000
-0.334324 128.221603 294.000000
-0.334324 128.700684 294.000000
-0.334324 129.179749 294.000000
-0.334324 129.658813 294.000000
-0.335461 130.580521 295.000000
-0.335461 131.061218 295.000000
-0.335461 131.541916 295.000000
-0.335461 132.022614 295.000000
-0.336598 132.952484 296.000000
-0.336598 133.434814 296.000000
-0.337736 134.369568 297.000000
-0.337736 134.853516 297.000000
-0.337736 135.337479 297.000000
-0.337736 135.821442 297.000000
-0.337736 136.305389 297.000000
-0.337736 136.789352 297.000000
-0.338873 137.735519 298.000000
-0.338873 138.221100 298.000000
-0.338873 138.706680 298.000000
-0.338873 139.192276 298.000000
-0.338873 139.677856 298.000000
-0.338873 140.163452 298.000000
-0.338873 140.649033 298.000000
-0.338873 141.134628 298.000000
-0.338873 141.620209 298.000000
-0.338873 142.105804 298.000000
-0.338873 142.591385 298.000000
-0.338873 143.076965 298.000000
-0.338873 143.562561 298.000000
-0.338873 144.048141 298.000000
-0.337736 144.048721 297.000000
-0.337736 144.532684 297.000000
-0.337736 145.016632 297.000000
-0.337736 145.500595 297.000000
-0.337736 145.984543 297.000000
-0.337736 146.468506 297.000000
-0.337736 146.952469 297.000000
-0.337736 147.436417 297.000000
-0.337736 147.920380 297.000000
-0.337736 148.404343 297.000000
-0.337736 148.888290 297.000000
-0.336598 148.869308 296.000000
-0.335461 148.847076 295.000000
-0.335461 149.327774 295.000000
-0.335461 149.808472 295.000000
-0.335461 150.289169 295.000000
-0.335461 150.769867 295.000000
-0.335461 151.250565 295.000000
-0.335461 151.731262 295.000000
-0.335461 152.211960 295.000000
-0.334324 152.175079 294.000000
-0.334324 152.654144 294.000000
-0.334324 153.133209 294.000000
-0.333187 153.089783 293.000000
-0.333187 153.567230 293.000000
-0.333187 154.044662 293.000000
-0.332050 153.994720 292.000000
-0.332050 154.470535 292.000000
-0.332050 154.946350 292.000000
-0.332050 155.422165 292.000000
-0.332050 155.897964 292.000000
-0.332050 156.373779 292.000000
-0.332050 156.849594 292.000000
-0.330913 156.786606 291.000000
-0.330913 157.260788 291.000000
-0.330913 157.734970 291.000000
-0.330913 158.209152 291.000000
-0.330913 158.683334 291.000000
-0.330913 159.157516 291.000000
-0.329775 159.083130 290.000000
-0.329775 159.555679 290.000000
-0.329775 160.028229 290.000000
-0.329775 160.500793 290.000000
0.183525 9.518914 373.333344
0.183525 10.127256 373.333344
0.183619 10.741076 373.523804
0.183619 11.349727 373.523804
0.183619 11.958380 373.523804
0.183615 12.566778 373.516266
0.183853 13.192482 374.000000
0.183853 13.801910 374.000000
0.183853 14.411339 374.000000
0.183853 15.020767 374.000000
0.183853 15.630196 374.000000
0.183853 16.239624 374.000000
0.183361 16.804001 373.000000
0.183361 17.411800 373.000000
0.183361 18.019598 373.000000
0.183361 18.627398 373.000000
0.183361 19.235195 373.000000
0.183361 19.842995 373.000000
0.183361 20.450794 373.000000
0.183361 21.058592 373.000000
0.182870 21.608303 372.000000
0.182870 22.214474 372.000000
0.182870 22.820642 372.000000
0.182870 23.426811 372.000000
0.182870 24.032982 372.000000
0.182870 24.639151 372.000000
0.182870 25.245319 372.000000
0.182870 25.851490 372.000000
0.182870 26.457659 372.000000
0.182870 27.063828 372.000000
0.182378 27.595617 371.000000
0.182378 28.200157 371.000000
0.182378 28.804697 371.000000
0.182378 29.409237 371.000000
0.182378 30.013777 371.000000
0.182378 30.618315 371.000000
0.182378 31.222855 371.000000
0.182378 31.827394 371.000000
0.182378 32.431934 371.000000
0.182378 33.036476 371.000000
0.182378 33.641014 371.000000
0.182378 34.245556 371.000000
0.182378 34.850094 371.000000
0.181886 35.359066 370.000000
0.181886 35.961979 370.000000
0.181886 36.564888 370.000000
0.181886 37.167797 370.000000
0.181886 37.770710 370.000000
0.181886 38.373619 370.000000
0.181886 38.976528 370.000000
0.181886 39.579441 370.000000
0.181886 40.182350 370.000000
0.181886 40.785259 370.000000
0.181886 41.388172 370.000000
0.181886 41.991081 370.000000
0.181936 42.605503 370.100006
0.182255 43.284485 370.750214
0.182255 43.888622 370.750214
0.182325 44.509693 370.891357
0.182325 45.114056 370.891357
0.182325 45.718418 370.891357
0.182144 46.276985 370.524689
0.182225 51.733673 370.688080
0.182250 52.344982 370.739624
0.182250 52.949100 370.739624
0.182250 53.553215 370.739624
0.182216 54.147087 370.669525
0.182216 54.751095 370.669525
0.182225 55.357880 370.688171
0.182225 55.961910 370.688171
0.182225 56.565941 370.688171
0.182225 57.169971 370.688171
0.182225 57.774002 370.688171
0.182225 58.378040 370.688171
0.182225 58.982071 370.688171
0.182225 59.586102 370.688171
0.182225 60.190132 370.688171
0.182225 60.794163 370.688171
0.182225 61.398193 370.688171
0.182225 62.002228 370.688171
0.182225 62.606258 370.688171
0.182223 63.209648 370.684387
0.182224 63.814167 370.687286
0.182224 64.418198 370.687286
0.182224 65.022232 370.687286
0.182224 65.626244 370.687195
0.182224 66.230270 370.687195
0.182224 66.834290 370.687103
0.182224 67.438293 370.686981
0.182224 68.042328 370.686981
0.182224 68.646332 370.686859
0.182224 69.250343 370.686737
0.182224 69.854362 370.686737
0.182205 70.450859 370.647095
0.182205 71.054825 370.647095
0.182205 71.658791 370.647095
0.182202 72.261955 370.642975
0.182201 72.865128 370.638977
0.182201 73.469078 370.638977
0.182198 74.072121 370.634430
0.182196 74.675003 370.629150
0.182196 75.278938 370.629150
0.182193 75.881683 370.623352
0.182190 76.484291 370.616974
0.182190 77.088211 370.616974
0.182127 77.665337 370.489197
0.182127 78.269035 370.489136
0.182127 78.872742 370.489136
0.182127 79.476448 370.489136
0.182127 80.080154 370.489136
0.182127 80.683868 370.489166
0.182127 81.287575 370.489166
0.182127 81.891296 370.489197
0.182127 82.495003 370.489197
0.182127 83.098709 370.489197
0.182127 83.702415 370.489197
0.181460 83.997231 369.131775
0.181460 84.598732 369.131775
0.181656 85.292526 369.531647
0.181656 85.894669 369.531647
0.181656 86.496819 369.531647
0.181375 86.964111 368.959503
0.181366 87.561012 368.941345
0.181366 88.162201 368.941345
0.181290 88.726143 368.786560
0.181206 89.285835 368.616302
0.181206 89.886497 368.616302
0.181114 90.441177 368.429016
0.181013 90.990616 368.222992
0.181013 91.590630 368.222992
0.180901 92.133911 367.996399
0.180803 92.683266 367.796814
0.180803 93.282585 367.796814
0.177749 92.295898 361.583405
0.177404 92.704887 360.881866
0.177404 93.292938 360.881866
0.176667 93.490761 359.381805
0.176667 94.076363 359.381805
0.173480 92.954628 352.899902
0.173480 93.529671 352.899902
0.170582 92.532379 347.003510
0.168689 92.064865 343.153381
0.168689 92.624023 343.153381
0.166155 91.783295 337.998169
0.163780 91.014114 333.166382
0.163780 91.557007 333.166382
0.161544 90.843018 328.619690
0.159461 90.200066 324.381775
0.159461 90.728645 324.381775
0.157535 90.154930 320.463593
0.157535 90.677124 320.463593
0.157535 91.199318 320.463593
0.143051 83.288582 291.000000
0.143051 83.762764 291.000000
0.143051 84.236946 291.000000
0.143543 85.002235 292.000000
0.143543 85.478043 292.000000
0.143543 85.953857 292.000000
0.143543 86.429665 292.000000
0.143543 86.905472 292.000000
0.143543 87.381287 292.000000
0.143543 87.857094 292.000000
0.143543 88.332909 292.000000
0.143543 88.808716 292.000000
0.144034 89.590294 293.000000
0.144034 90.067734 293.000000
0.144034 90.545174 293.000000
0.144034 91.022614 293.000000
0.144526 91.812340 294.000000
0.144526 92.291405 294.000000
0.144526 92.770477 294.000000
0.144526 93.249550 294.000000
0.144526 93.728615 294.000000
0.144526 94.207687 294.000000
0.144526 94.686752 294.000000
0.144526 95.165825 294.000000
0.144526 95.644890 294.000000
0.144526 96.123962 294.000000
0.144526 96.603035 294.000000
0.144526 97.082100 294.000000
0.144034 97.229324 293.000000
0.144034 97.706764 293.000000
0.144034 98.184204 293.000000
0.144034 98.661644 293.000000
0.144034 99.139084 293.000000
0.144034 99.616524 293.000000
0.143543 99.752350 292.000000
0.143543 100.228165 292.000000
0.143543 100.703972 292.000000
0.143543 101.179787 292.000000
0.143543 101.655594 292.000000
0.143543 102.131401 292.000000
0.143543 102.607216 292.000000
0.143543 103.083023 292.000000
0.143543 103.558838 292.000000
0.143543 104.034645 292.000000
0.143543 104.510452 292.000000
0.143543 104.986267 292.000000
0.143543 105.462074 292.000000
0.143543 105.937889 292.000000
0.143543 106.413696 292.000000
0.143543 106.889511 292.000000
0.143543 107.365318 292.000000
0.143543 107.841125 292.000000
0.143543 108.316940 292.000000
0.143543 108.792747 292.000000
0.143543 109.268562 292.000000
0.143543 109.744370 292.000000
0.143543 110.220177 292.000000
0.143543 110.695992 292.000000
0.143543 111.171799 292.000000
0.143543 111.647614 292.000000
0.143543 112.123421 292.000000
0.143543 112.599228 292.000000
0.143543 113.075043 292.000000
0.143543 113.550850 292.000000
0.143543 114.026665 292.000000
0.143543 114.502472 292.000000
0.143543 114.978279 292.000000
0.143543 115.454094 292.000000
0.143543 115.929901 292.000000
0.143543 116.405716 292.000000
0.143543 116.881523 292.000000
0.143543 117.357338 292.000000
0.144034 118.236687 293.000000
0.144034 118.714127 293.000000
0.144034 119.191566 293.000000
0.144034 119.669006 293.000000
0.144034 120.146446 293.000000
0.144034 120.623886 293.000000
0.144034 121.101326 293.000000
0.144034 121.578766 293.000000
0.144034 122.056206 293.000000
0.144034 122.533646 293.000000
0.144034 123.011086 293.000000
0.144034 123.488525 293.000000
0.144526 124.389053 294.000000
0.144526 124.868126 294.000000
0.144526 125.347191 294.000000
0.144526 125.826263 294.000000
0.144526 126.305336 294.000000
0.144526 126.784401 294.000000
0.145018 127.696327 295.000000
0.145018 128.177032 295.000000
0.145018 128.657730 295.000000
0.145018 129.138428 295.000000
0.145018 129.619125 295.000000
0.145018 130.099823 295.000000
0.145018 130.580521 295.000000
0.145018 131.061218 295.000000
0.145018 131.541916 295.000000
0.145509 132.470154 296.000000
0.146001 133.401642 297.000000
0.146001 133.885605 297.000000
0.146001 134.369568 297.000000
0.146001 134.853516 297.000000
0.146001 135.337479 297.000000
0.146492 136.278748 298.000000
0.146492 136.764343 298.000000
0.146492 137.249924 298.000000
0.146492 137.735519 298.000000
0.146492 138.221100 298.000000
0.146492 138.706680 298.000000
0.146984 139.659363 299.000000
0.146984 140.146576 299.000000
0.146984 140.633804 299.000000
0.146984 141.121017 299.000000
0.146984 141.608231 299.000000
0.146984 142.095444 299.000000
0.146984 142.582657 299.000000
0.146984 143.069885 299.000000
0.146984 143.557098 299.000000
0.146984 144.044312 299.000000
0.146492 144.048141 298.000000
0.146492 144.533737 298.000000
0.146492 145.019318 298.000000
0.146492 145.504913 298.000000
0.146492 145.990494 298.000000
0.146492 146.476089 298.000000
0.146492 146.961670 298.000000
0.146001 146.952469 297.000000
0.146001 147.436417 297.000000
0.146001 147.920380 297.000000
0.146001 148.404343 297.000000
0.146001 148.888290 297.000000
0.146001 149.372253 297.000000
0.145509 149.351639 296.000000
0.145509 149.833969 296.000000
0.145018 149.808472 295.000000
0.145018 150.289169 295.000000
0.145018 150.769867 295.000000
0.145018 151.250565 295.000000
0.145018 151.731262 295.000000
0.145018 152.211960 295.000000
0.145018 152.692673 295.000000
0.144526 152.654144 294.000000
0.144526 153.133209 294.000000
0.144526 153.612289 294.000000
0.144034 153.567230 293.000000
0.144034 154.044662 293.000000
0.143543 153.994720 292.000000
0.143543 154.470535 292.000000
0.143543 154.946350 292.000000
0.143543 155.422165 292.000000
0.143543 155.897964 292.000000
0.143543 156.373779 292.000000
0.143543 156.849594 292.000000
0.143051 156.786606 291.000000
0.143051 157.260788 291.000000
0.143051 157.734970 291.000000
0.143051 158.209152 291.000000
0.143051 158.683334 291.000000
0.143051 159.157516 291.000000
0.142560 159.083130 290.000000
0.142560 159.555679 290.000000
0.142560 160.028229 290.000000
0.142560 160.500793 290.000000
0.791589 9.518914 373.333344
0.791589 10.127256 373.333344
0.791690 10.736967 373.380951
0.791690 11.345387 373.380951
0.791690 11.953806 373.380951
0.793002 12.583054 374.000000
0.793002 13.192482 374.000000
0.793002 13.801910 374.000000
0.793002 14.411339 374.000000
0.793002 15.020767 374.000000
0.793002 15.630196 374.000000
0.790882 16.196201 373.000000
0.790882 16.804001 373.000000
0.790882 17.411800 373.000000
0.790882 18.019598 373.000000
0.790882 18.627398 373.000000
0.790882 19.235195 373.000000
0.788761 19.789797 372.000000
0.788761 20.395966 372.000000
0.788761 21.002134 372.000000
0.788761 21.608303 372.000000
0.788761 22.214474 372.000000
0.788761 22.820642 372.000000
0.788761 23.426811 372.000000
0.788761 24.032982 372.000000
0.788761 24.639151 372.000000
0.788761 25.245319 372.000000
0.788761 25.851490 372.000000
0.786641 26.386536 371.000000
0.786641 26.991077 371.000000
0.786641 27.595617 371.000000
0.786641 28.200157 371.000000
0.786641 28.804697 371.000000
0.784521 29.329964 370.000000
0.784521 29.932875 370.000000
0.784521 30.535784 370.000000
0.784521 31.138695 370.000000
0.784521 31.741606 370.000000
0.784521 32.344517 370.000000
0.784521 32.947426 370.000000
0.784521 33.550335 370.000000
0.784521 34.153248 370.000000
0.784521 34.756157 370.000000
0.784521 35.359066 370.000000
0.784521 35.961979 370.000000
0.784521 36.564888 370.000000
0.784521 37.167797 370.000000
0.784521 37.770710 370.000000
0.784521 38.373619 370.000000
0.784521 38.976528 370.000000
0.784521 39.579441 370.000000
0.784521 40.182350 370.000000
0.784521 40.785259 370.000000
0.784521 41.388172 370.000000
0.784521 41.991081 370.000000
0.784733 42.605503 370.100006
0.786112 43.284485 370.750214
0.786112 43.888622 370.750214
0.786411 44.509693 370.891357
0.786411 45.114056 370.891357
0.786411 45.718418 370.891357
0.785633 46.276985 370.524689
0.785258 50.479244 370.347900
0.785258 51.082722 370.347900
0.785980 51.733673 370.688080
0.786089 52.344982 370.739624
0.786089 52.949100 370.739624
0.786089 53.553215 370.739624
0.785940 54.147087 370.669525
0.785940 54.751095 370.669525
0.785980 55.357880 370.688171
0.785980 55.961910 370.688171
0.785980 56.565941 370.688171
0.785980 57.169971 370.688171
0.785980 57.774002 370.688171
0.785980 58.378040 370.688171
0.785980 58.982071 370.688171
0.785980 59.586102 370.688171
0.785980 60.190132 370.688171
0.785980 60.794163 370.688171
0.785980 61.398193 370.688171
0.785980 62.002228 370.688171
0.785980 62.606258 370.688171
0.785972 63.209648 370.684387
0.785978 63.814167 370.687286
0.785978 64.418198 370.687286
0.785978 65.022232 370.687286
0.785978 65.626244 370.687195
0.785978 66.230270 370.687195
0.785978 66.834290 370.687103
0.785977 67.438293 370.686981
0.785977 68.042328 370.686981
0.785977 68.646332 370.686859
0.785977 69.250343 370.686737
0.785977 69.854362 370.686737
0.785893 70.450859 370.647095
0.785893 71.054825 370.647095
0.785893 71.658791 370.647095
0.785884 72.261955 370.642975
0.785876 72.865128 370.638977
0.785876 73.469078 370.638977
0.785866 74.072121 370.634430
0.785855 74.675003 370.629150
0.785855 75.278938 370.629150
0.785842 75.881683 370.623352
0.785829 76.484291 370.616974
0.785829 77.088211 370.616974
0.785503 77.659920 370.463348
0.785503 78.263580 370.463348
0.785487 78.865646 370.455811
0.785487 79.469299 370.455811
0.785487 80.072952 370.455811
0.785447 80.672440 370.436676
0.785447 81.276062 370.436676
0.784630 81.794495 370.051300
0.784630 82.397499 370.051300
0.784630 83.000488 370.051300
0.782931 83.422501 369.250244
0.782721 84.001617 369.151031
0.782721 84.603142 369.151031
0.782680 85.200226 369.131775
0.782365 85.767204 368.983246
0.782365 86.368454 368.983246
0.782315 86.964111 368.959503
0.781940 87.523438 368.783020
0.781940 88.124367 368.783020
0.782020 88.734291 368.820435
0.782440 89.383270 369.018555
0.782440 89.984581 369.018555
0.782440 90.585892 369.018555
0.782354 91.177200 368.978058
0.782354 91.778442 368.978058
0.782277 92.370598 368.941742
0.782212 92.964005 368.910889
0.782212 93.565147 368.910889
0.766675 92.295898 361.583405
0.765187 92.704887 360.881866
0.765187 93.292938 360.881866
0.762007 93.490761 359.381805
0.762007 94.076363 359.381805
0.752095 93.430695 354.707275
0.752095 94.008682 354.707275
0.739312 92.979004 348.678406
0.727597 92.064865 343.153381
0.727597 92.624023 343.153381
0.716666 91.783295 337.998169
0.706421 91.014114 333.166382
0.706421 91.557007 333.166382
0.705428 91.970314 332.697632
0.695766 91.245361 328.140900
0.695766 91.780067 328.140900
0.687344 91.197296 324.168762
0.679487 90.677124 320.463593
0.679487 91.199318 320.463593
0.614895 83.002365 290.000000
0.617015 83.762764 291.000000
0.617015 84.236946 291.000000
0.619135 85.002235 292.000000
0.619135 85.478043 292.000000
0.619135 85.953857 292.000000
0.619135 86.429665 292.000000
0.619135 86.905472 292.000000
0.619135 87.381287 292.000000
0.619135 87.857094 292.000000
0.619135 88.332909 292.000000
0.619135 88.808716 292.000000
0.619135 89.284523 292.000000
0.619135 89.760338 292.000000
0.619135 90.236145 292.000000
0.621256 91.022614 293.000000
0.621256 91.500053 293.000000
0.621256 91.977493 293.000000
0.623376 92.770477 294.000000
0.623376 93.249550 294.000000
0.623376 93.728615 294.000000
0.623376 94.207687 294.000000
0.623376 94.686752 294.000000
0.623376 95.165825 294.000000
0.623376 95.644890 294.000000
0.623376 96.123962 294.000000
0.623376 96.603035 294.000000
0.623376 97.082100 294.000000
0.621256 97.229324 293.000000
0.621256 97.706764 293.000000
0.621256 98.184204 293.000000
0.621256 98.661644 293.000000
0.621256 99.139084 293.000000
0.621256 99.616524 293.000000
0.621256 100.093964 293.000000
0.621256 100.571404 293.000000
0.621256 101.048843 293.000000
0.621256 101.526283 293.000000
0.621256 102.003723 293.000000
0.621256 102.481163 293.000000
0.621256 102.958603 293.000000
0.621256 103.436043 293.000000
0.621256 103.913483 293.000000
0.621256 104.390923 293.000000
0.621256 104.868362 293.000000
0.621256 105.345802 293.000000
0.621256 105.823242 293.000000
0.619135 105.937889 292.000000
0.619135 106.413696 292.000000
0.619135 106.889511 292.000000
0.619135 107.365318 292.000000
0.619135 107.841125 292.000000
0.619135 108.316940 292.000000
0.619135 108.792747 292.000000
0.619135 109.268562 292.000000
0.619135 109.744370 292.000000
0.619135 110.220177 292.000000
0.619135 110.695992 292.000000
0.619135 111.171799 292.000000
0.619135 111.647614 292.000000
0.619135 112.123421 292.000000
0.619135 112.599228 292.000000
0.619135 113.075043 292.000000
0.619135 113.550850 292.000000
0.619135 114.026665 292.000000
0.619135 114.502472 292.000000
0.619135 114.978279 292.000000
0.619135 115.454094 292.000000
0.619135 115.929901 292.000000
0.619135 116.405716 292.000000
0.619135 116.881523 292.000000
0.621256 117.759247 293.000000
0.621256 118.236687 293.000000
0.621256 118.714127 293.000000
0.621256 119.191566 293.000000
0.621256 119.669006 293.000000
0.621256 120.146446 293.000000
0.621256 120.623886 293.000000
0.621256 121.101326 293.000000
0.621256 121.578766 293.000000
0.621256 122.056206 293.000000
0.623376 122.951851 294.000000
0.623376 123.430916 294.000000
0.623376 123.909988 294.000000
0.623376 124.389053 294.000000
0.623376 124.868126 294.000000
0.623376 125.347191 294.000000
0.623376 125.826263 294.000000
0.623376 126.305336 294.000000
0.625496 127.215630 295.000000
0.625496 127.696327 295.000000
0.625496 128.177032 295.000000
0.625496 128.657730 295.000000
0.625496 129.138428 295.000000
0.627617 130.058517 296.000000
0.627617 130.540848 296.000000
0.627617 131.023163 296.000000
0.627617 131.505493 296.000000
0.627617 131.987823 296.000000
0.629737 132.917694 297.000000
0.629737 133.401642 297.000000
0.629737 133.885605 297.000000
0.629737 134.369568 297.000000
0.631857 135.307571 298.000000
0.631857 135.793167 298.000000
0.631857 136.278748 298.000000
0.631857 136.764343 298.000000
0.631857 137.249924 298.000000
0.631857 137.735519 298.000000
0.631857 138.221100 298.000000
0.631857 138.706680 298.000000
0.633978 139.659363 299.000000
0.633978 140.146576 299.000000
0.633978 140.633804 299.000000
0.633978 141.121017 299.000000
0.633978 141.608231 299.000000
0.633978 142.095444 299.000000
0.633978 142.582657 299.000000
0.633978 143.069885 299.000000
0.633978 143.557098 299.000000
0.633978 144.044312 299.000000
0.633978 144.531525 299.000000
0.633978 145.018753 299.000000
0.633978 145.505966 299.000000
0.633978 145.993179 299.000000
0.631857 145.990494 298.000000
0.631857 146.476089 298.000000
0.631857 146.961670 298.000000
0.631857 147.447250 298.000000
0.631857 147.932846 298.000000
0.629737 147.920380 297.000000
0.629737 148.404343 297.000000
0.629737 148.888290 297.000000
0.629737 149.372253 297.000000
0.627617 149.351639 296.000000
0.627617 149.833969 296.000000
0.625496 149.808472 295.000000
0.625496 150.289169 295.000000
0.625496 150.769867 295.000000
0.625496 151.250565 295.000000
0.625496 151.731262 295.000000
0.625496 152.211960 295.000000
0.625496 152.692673 295.000000
0.625496 153.173370 295.000000
0.625496 153.654068 295.000000
0.623376 153.612289 294.000000
0.621256 153.567230 293.000000
0.621256 154.044662 293.000000
0.619135 153.994720 292.000000
0.619135 154.470535 292.000000
0.619135 154.946350 292.000000
0.619135 155.422165 292.000000
0.619135 155.897964 292.000000
0.619135 156.373779 292.000000
0.619135 156.849594 292.000000
0.617015 156.786606 291.000000
0.617015 157.260788 291.000000
0.617015 157.734970 291.000000
0.617015 158.209152 291.000000
0.617015 158.683334 291.000000
0.617015 159.157516 291.000000
0.614895 159.083130 290.000000
0.614895 159.555679 290.000000
0.614895 160.028229 290.000000
0.614895 160.500793 290.000000
1.399474 8.909435 373.285706
1.399496 9.517852 373.291656
1.399496 10.126125 373.291656
1.399717 10.736099 373.350769
1.402151 11.364197 374.000000
1.402151 11.973625 374.000000
1.402151 12.583054 374.000000
1.402151 13.192482 374.000000
1.402151 13.801910 374.000000
1.402151 14.411339 374.000000
1.398402 14.980604 373.000000
1.398402 15.588404 373.000000
1.398402 16.196201 373.000000
1.398402 16.804001 373.000000
1.398402 17.411800 373.000000
1.398402 18.019598 373.000000
1.398402 18.627398 373.000000
1.398402 19.235195 373.000000
1.394653 19.789797 372.000000
1.394653 20.395966 372.000000
1.394653 21.002134 372.000000
1.394653 21.608303 372.000000
1.394653 22.214474 372.000000
1.394653 22.820642 372.000000
1.394653 23.426811 372.000000
1.394653 24.032982 372.000000
1.394653 24.639151 372.000000
1.394653 25.245319 372.000000
1.394653 25.851490 372.000000
1.390904 26.386536 371.000000
1.390904 26.991077 371.000000
1.390904 27.595617 371.000000
1.387155 28.124144 370.000000
1.387155 28.727055 370.000000
1.387155 29.329964 370.000000
1.387155 29.932875 370.000000
1.387155 30.535784 370.000000
1.387155 31.138695 370.000000
1.387155 31.741606 370.000000
1.387155 32.344517 370.000000
1.387155 32.947426 370.000000
1.387155 33.550335 370.000000
1.387155 34.153248 370.000000
1.387155 34.756157 370.000000
1.387155 35.359066 370.000000
1.387155 35.961979 370.000000
1.387155 36.564888 370.000000
1.387155 37.167797 370.000000
1.387155 37.770710 370.000000
1.387155 38.373619 370.000000
1.387155 38.976528 370.000000
1.387155 39.579441 370.000000
1.387155 40.182350 370.000000
1.387155 40.785259 370.000000
1.387155 41.388172 370.000000
1.387155 41.991081 370.000000
1.386818 42.583633 369.910004
1.389499 43.269897 370.625244
1.389499 43.873825 370.625244
1.389499 44.477757 370.625244
1.388700 45.055748 370.412018
1.388700 45.659332 370.412018
1.387862 48.647881 370.188599
1.387862 49.251095 370.188599
1.387862 49.854317 370.188599
1.388459 50.479244 370.347900
1.388459 51.082722 370.347900
1.388459 51.686199 370.347900
1.388779 52.301708 370.433136
1.388779 52.905327 370.433136
1.388779 53.508945 370.433136
1.388599 54.105549 370.385132
1.388599 54.709084 370.385132
1.388574 55.311619 370.378387
1.388574 55.915146 370.378387
1.388574 56.518665 370.378387
1.388574 57.122196 370.378387
1.388574 57.725723 370.378387
1.388574 58.329250 370.378387
1.388574 58.932777 370.378387
1.388574 59.536304 370.378387
1.388585 60.140324 370.381439
1.388585 60.743858 370.381439
1.388585 61.347393 370.381439
1.388506 61.947388 370.360321
1.388506 62.550888 370.360321
1.388506 63.154385 370.360321
1.388423 63.754055 370.338104
1.388423 64.357521 370.338104
1.388423 64.960976 370.338104
1.388408 65.563728 370.334076
1.388408 66.167183 370.334076
1.388391 66.769844 370.329651
1.388373 67.372398 370.324768
1.388373 67.975838 370.324768
1.388353 68.578278 370.319397
1.387583 69.143379 370.114197
1.387583 69.746475 370.114197
1.388090 70.375244 370.249237
1.388113 70.979729 370.255371
1.388113 71.583061 370.255371
1.388113 72.186386 370.255371
1.388097 72.788902 370.251251
1.388097 73.392220 370.251251
1.388097 73.995544 370.251251
1.388065 74.597115 370.242584
1.388065 75.200424 370.242584
1.388030 75.801849 370.233429
1.387994 76.403160 370.223816
1.387994 77.006432 370.223816
1.387956 77.607590 370.213715
1.387472 78.183548 370.084473
1.387472 78.786591 370.084473
1.387472 79.389641 370.084473
1.385746 79.893188 369.624146
1.385561 80.484749 369.574829
1.385561 81.086967 369.574829
1.385360 81.677338 369.521240
1.385142 82.266479 369.462921
1.385142 82.868523 369.462921
1.384904 83.456207 369.399414
1.384640 84.042168 369.329224
1.384640 84.643982 369.329224
1.384353 85.228096 369.252502
1.384119 85.815269 369.190063
1.384119 86.416862 369.190063
1.384272 87.028061 369.230835
1.384813 87.664024 369.375397
1.384813 88.265915 369.375397
1.384813 88.867813 369.375397
1.384720 89.463684 369.350525
1.384720 90.065536 369.350525
1.384636 90.661873 369.328064
1.384564 91.258926 369.308777
1.384564 91.860710 369.308777
1.384506 92.458618 369.293335
1.384466 93.057709 369.282745
1.384466 93.659454 369.282745
1.384449 94.260010 369.278076
1.381565 94.664154 368.508942
1.381565 95.264641 368.508942
1.381565 95.865120 368.508942
1.354575 94.581070 361.309845
1.329822 93.430695 354.707275
1.329822 94.008682 354.707275
1.307219 92.979004 348.678406
1.305571 93.429260 348.238892
1.305571 93.996712 348.238892
1.284822 93.061264 342.704376
1.265458 92.208733 337.539398
1.265458 92.758743 337.539398
1.247306 91.970314 332.697632
1.230333 91.253525 328.170258
1.230333 91.788277 328.170258
1.215331 91.197296 324.168762
1.201440 90.677124 320.463593
1.201440 91.199318 320.463593
1.090979 83.288582 291.000000
1.090979 83.762764 291.000000
1.090979 84.236946 291.000000
1.094728 85.002235 292.000000
1.094728 85.478043 292.000000
1.094728 85.953857 292.000000
1.094728 86.429665 292.000000
1.094728 86.905472 292.000000
1.094728 87.381287 292.000000
1.094728 87.857094 292.000000
1.094728 88.332909 292.000000
1.094728 88.808716 292.000000
1.094728 89.284523 292.000000
1.094728 89.760338 292.000000
1.094728 90.236145 292.000000
1.098477 91.022614 293.000000
1.098477 91.500053 293.000000
1.098477 91.977493 293.000000
1.102226 92.770477 294.000000
1.102226 93.249550 294.000000
1.102226 93.728615 294.000000
1.102226 94.207687 294.000000
1.102226 94.686752 294.000000
1.102226 95.165825 294.000000
1.102226 95.644890 294.000000
1.102226 96.123962 294.000000
1.102226 96.603035 294.000000
1.102226 97.082100 294.000000
1.098477 97.229324 293.000000
1.098477 97.706764 293.000000
1.098477 98.184204 293.000000
1.098477 98.661644 293.000000
1.098477 99.139084 293.000000
1.098477 99.616524 293.000000
1.098477 100.093964 293.000000
1.098477 100.571404 293.000000
1.098477 101.048843 293.000000
1.098477 101.526283 293.000000
1.098477 102.003723 293.000000
1.098477 102.481163 293.000000
1.098477 102.958603 293.000000
1.098477 103.436043 293.000000
1.098477 103.913483 293.000000
1.098477 104.390923 293.000000
1.098477 104.868362 293.000000
1.098477 105.345802 293.000000
1.098477 105.823242 293.000000
1.094728 105.937889 292.000000
1.094728 106.413696 292.000000
1.094728 106.889511 292.000000
1.094728 107.365318 292.000000
1.094728 107.841125 292.000000
1.094728 108.316940 292.000000
1.094728 108.792747 292.000000
1.094728 109.268562 292.000000
1.094728 109.744370 292.000000
1.094728 110.220177 292.000000
1.094728 110.695992 292.000000
1.094728 111.171799 292.000000
1.094728 111.647614 292.000000
1.094728 112.123421 292.000000
1.094728 112.599228 292.000000
1.094728 113.075043 292.000000
1.094728 113.550850 292.000000
1.094728 114.026665 292.000000
1.094728 114.502472 292.000000
1.094728 114.978279 292.000000
1.094728 115.454094 292.000000
1.094728 115.929901 292.000000
1.094728 116.405716 292.000000
1.094728 116.881523 292.000000
1.098477 117.759247 293.000000
1.098477 118.236687 293.000000
1.098477 118.714127 293.000000
1.098477 119.191566 293.000000
1.098477 119.669006 293.000000
1.098477 120.146446 293.000000
1.098477 120.623886 293.000000
1.098477 121.101326 293.000000
1.098477 121.578766 293.000000
1.098477 122.056206 293.000000
1.102226 122.951851 294.000000
1.102226 123.430916 294.000000
1.102226 123.909988 294.000000
1.102226 124.389053 294.000000
1.102226 124.868126 294.000000
1.102226 125.347191 294.000000
1.102226 125.826263 294.000000
1.102226 126.305336 294.000000
1.105975 127.215630 295.000000
1.105975 127.696327 295.000000
1.105975 128.177032 295.000000
1.105975 128.657730 295.000000
1.105975 129.138428 295.000000
1.109724 130.058517 296.000000
1.109724 130.540848 296.000000
1.109724 131.023163 296.000000
1.109724 131.505493 296.000000
1.109724 131.987823 296.000000
1.113473 132.917694 297.000000
1.113473 133.401642 297.000000
1.113473 133.885605 297.000000
1.113473 134.369568 297.000000
1.117222 135.307571 298.000000
1.117222 135.793167 298.000000
1.117222 136.278748 298.000000
1.117222 136.764343 298.000000
1.117222 137.249924 298.000000
1.120971 138.197708 299.000000
1.120971 138.684937 299.000000
1.120971 139.172150 299.000000
1.120971 139.659363 299.000000
1.120971 140.146576 299.000000
1.120971 140.633804 299.000000
1.120971 141.121017 299.000000
1.120971 141.608231 299.000000
1.120971 142.095444 299.000000
1.120971 142.582657 299.000000
1.120971 143.069885 299.000000
1.120971 143.557098 299.000000
1.120971 144.044312 299.000000
1.120971 144.531525 299.000000
1.120971 145.018753 299.000000
1.120971 145.505966 299.000000
1.120971 145.993179 299.000000
1.117222 145.990494 298.000000
1.117222 146.476089 298.000000
1.117222 146.961670 298.000000
1.117222 147.447250 298.000000
1.117222 147.932846 298.000000
1.113473 147.920380 297.000000
1.113473 148.404343 297.000000
1.113473 148.888290 297.000000
1.113473 149.372253 297.000000
1.109724 149.351639 296.000000
1.109724 149.833969 296.000000
1.105975 149.808472 295.000000
1.105975 150.289169 295.000000
1.105975 150.769867 295.000000
1.105975 151.250565 295.000000
1.105975 151.731262 295.000000
1.105975 152.211960 295.000000
1.105975 152.692673 295.000000
1.105975 153.173370 295.000000
1.105975 153.654068 295.000000
1.102226 153.612289 294.000000
1.098477 153.567230 293.000000
1.098477 154.044662 293.000000
1.094728 153.994720 292.000000
1.094728 154.470535 292.000000
1.094728 154.946350 292.000000
1.094728 155.422165 292.000000
1.094728 155.897964 292.000000
1.094728 156.373779 292.000000
1.094728 156.849594 292.000000
1.090979 156.786606 291.000000
1.090979 157.260788 291.000000
1.090979 157.734970 291.000000
1.090979 158.209152 291.000000
1.090979 158.683334 291.000000
1.090979 159.157516 291.000000
1.087230 159.083130 290.000000
1.087230 159.555679 290.000000
1.087230 160.028229 290.000000
2.007459 8.909435 373.285706
2.007491 9.517852 373.291656
2.007491 10.126125 373.291656
2.007809 10.736099 373.350769
2.011301 11.364197 374.000000
2.011301 11.973625 374.000000
2.011301 12.583054 374.000000
2.011301 13.192482 374.000000
2.011301 13.801910 374.000000
2.011301 14.411339 374.000000
2.005923 14.980604 373.000000
2.005923 15.588404 373.000000
2.005923 16.196201 373.000000
2.005923 16.804001 373.000000
2.005923 17.411800 373.000000
2.005923 18.019598 373.000000
2.005923 18.627398 373.000000
2.005923 19.235195 373.000000
2.000545 19.789797 372.000000
2.000545 20.395966 372.000000
2.000545 21.002134 372.000000
2.000545 21.608303 372.000000
2.000545 22.214474 372.000000
2.000545 22.820642 372.000000
2.000545 23.426811 372.000000
2.000545 24.032982 372.000000
2.000545 24.639151 372.000000
2.000545 25.245319 372.000000
2.000545 25.851490 372.000000
1.995167 26.386536 371.000000
1.995167 26.991077 371.000000
1.995167 27.595617 371.000000
1.989790 28.124144 370.000000
1.989790 28.727055 370.000000
1.989790 29.329964 370.000000
1.989790 29.932875 370.000000
1.989790 30.535784 370.000000
1.989790 31.138695 370.000000
1.989790 31.741606 370.000000
1.989790 32.344517 370.000000
1.989790 32.947426 370.000000
1.989790 33.550335 370.000000
1.989790 34.153248 370.000000
1.989790 34.756157 370.000000
1.989790 35.359066 370.000000
1.989790 35.961979 370.000000
1.989790 36.564888 370.000000
1.989790 37.167797 370.000000
1.989790 37.770710 370.000000
1.989790 38.373619 370.000000
1.989790 38.976528 370.000000
1.989790 39.579441 370.000000
1.989790 40.182350 370.000000
1.989790 40.785259 370.000000
1.989790 41.388172 370.000000
1.989790 41.991081 370.000000
1.989306 42.583633 369.910004
1.993152 43.269897 370.625244
1.993152 43.873825 370.625244
1.993152 44.477757 370.625244
1.992005 45.055748 370.412018
1.992005 45.659332 370.412018
1.990804 48.647881 370.188599
1.990804 49.251095 370.188599
1.990804 49.854317 370.188599
1.991660 50.479244 370.347900
1.991660 51.082722 370.347900
1.991660 51.686199 370.347900
1.992119 52.301708 370.433136
1.992119 52.905327 370.433136
1.992119 53.508945 370.433136
1.991861 54.105549 370.385132
1.991861 54.709084 370.385132
1.991825 55.311619 370.378387
1.991825 55.915146 370.378387
1.991825 56.518665 370.378387
1.991825 57.122196 370.378387
1.991825 57.725723 370.378387
1.991825 58.329250 370.378387
1.991825 58.932777 370.378387
1.991825 59.536304 370.378387
1.991841 60.140324 370.381439
1.991841 60.743858 370.381439
1.991841 61.347393 370.381439
1.991727 61.947388 370.360321
1.991727 62.550888 370.360321
1.991727 63.154385 370.360321
1.991608 63.754055 370.338104
1.991608 64.357521 370.338104
1.991608 64.960976 370.338104
1.991586 65.563728 370.334076
1.991586 66.167183 370.334076
1.991562 66.769844 370.329651
1.991536 67.372398 370.324768
1.991536 67.975838 370.324768
1.991507 68.578278 370.319397
1.990404 69.143379 370.114197
1.990404 69.746475 370.114197
1.991130 70.375244 370.249237
1.991163 70.979729 370.255371
1.991163 71.583061 370.255371
1.991163 72.186386 370.255371
1.991141 72.788902 370.251251
1.991141 73.392220 370.251251
1.991141 73.995544 370.251251
1.991094 74.597115 370.242584
1.991094 75.200424 370.242584
1.991045 75.801849 370.233429
1.990993 76.403160 370.223816
1.990993 77.006432 370.223816
1.990939 77.607590 370.213715
1.990244 78.183548 370.084473
1.990244 78.786591 370.084473
1.990244 79.389641 370.084473
1.987768 79.893188 369.624146
1.987503 80.484749 369.574829
1.987503 81.086967 369.574829
1.987215 81.677338 369.521240
1.986901 82.266479 369.462921
1.986901 82.868523 369.462921
1.986560 83.456207 369.399414
1.986182 84.042168 369.329224
1.986182 84.643982 369.329224
1.985770 85.228096 369.252502
1.985434 85.815269 369.190063
1.985434 86.416862 369.190063
1.985653 87.028061 369.230835
1.986431 87.664024 369.375397
1.986431 88.265915 369.375397
1.986431 88.867813 369.375397
1.986297 89.463684 369.350525
1.986297 90.065536 369.350525
1.986176 90.661873 369.328064
1.986072 91.258926 369.308777
1.986072 91.860710 369.308777
1.985989 92.458618 369.293335
1.985932 93.057709 369.282745
1.985932 93.659454 369.282745
1.985907 94.260010 369.278076
1.981771 94.664154 368.508942
1.981771 95.264641 368.508942
1.981771 95.865120 368.508942
1.979291 96.344902 368.047852
1.940415 95.040512 360.818909
1.940415 95.628456 360.818909
1.905233 94.471893 354.276825
1.872763 93.429260 348.238892
1.872763 93.996712 348.238892
1.842999 93.061264 342.704376
1.815223 92.208733 337.539398
1.815223 92.758743 337.539398
1.789185 91.970314 332.697632
1.764837 91.253525 328.170258
1.764837 91.788277 328.170258
1.743318 91.197296 324.168762
1.723794 90.698296 320.538422
1.723794 91.220612 320.538422
1.564943 83.288582 291.000000
1.564943 83.762764 291.000000
1.564943 84.236946 291.000000
1.570320 85.002235 292.000000
1.570320 85.478043 292.000000
1.570320 85.953857 292.000000
1.570320 86.429665 292.000000
1.570320 86.905472 292.000000
1.570320 87.381287 292.000000
1.570320 87.857094 292.000000
1.570320 88.332909 292.000000
1.570320 88.808716 292.000000
1.570320 89.284523 292.000000
1.570320 89.760338 292.000000
1.570320 90.236145 292.000000
1.575698 91.022614 293.000000
1.575698 91.500053 293.000000
1.575698 91.977493 293.000000
1.575698 92.454926 293.000000
1.581076 93.249550 294.000000
1.581076 93.728615 294.000000
1.581076 94.207687 294.000000
1.581076 94.686752 294.000000
1.581076 95.165825 294.000000
1.581076 95.644890 294.000000
1.581076 96.123962 294.000000
1.581076 96.603035 294.000000
1.581076 97.082100 294.000000
1.575698 97.229324 293.000000
1.575698 97.706764 293.000000
1.575698 98.184204 293.000000
1.575698 98.661644 293.000000
1.575698 99.139084 293.000000
1.575698 99.616524 293.000000
1.575698 100.093964 293.000000
1.575698 100.571404 293.000000
1.575698 101.048843 293.000000
1.575698 101.526283 293.000000
1.575698 102.003723 293.000000
1.575698 102.481163 293.000000
1.575698 102.958603 293.000000
1.575698 103.436043 293.000000
1.575698 103.913483 293.000000
1.575698 104.390923 293.000000
1.575698 104.868362 293.000000
1.575698 105.345802 293.000000
1.575698 105.823242 293.000000
1.575698 106.300682 293.000000
1.575698 106.778122 293.000000
1.575698 107.255569 293.000000
1.575698 107.733009 293.000000
1.575698 108.210449 293.000000
1.575698 108.687889 293.000000
1.575698 109.165329 293.000000
1.575698 109.642769 293.000000
1.575698 110.120209 293.000000
1.570320 110.220177 292.000000
